ply
format ascii 1.0
comment Created by Open3D
element vertex 1401
property double x
property double y
property double z
property uchar red
property uchar green
property uchar blue
end_header
5.26088 3.46768 -5.0238 14 33 16
4.33547 -15.6782 -23.7867 68 64 46
-0.51897 19.4629 38.5668 73 85 75
3.25237 0.398668 30.0077 74 91 81
-2.40588 15.3707 28.8464 53 64 54
5.73605 1.78758 -8.4752 6 31 8
1.81765 21.092 22.2182 135 130 88
-1.07671 -4.17256 -17.3957 72 84 45
-2.87686 8.58051 4.39711 6 27 17
-2.4134 13.0579 36.9258 53 63 54
-1.07299 11.0543 4.3934 62 28 4
4.75989 8.84827 8.74598 1 39 22
2.78838 -7.80874 -19.4968 0 4 2
-1.16559 -1.40342 -15.877 20 49 30
-0.978844 4.75904 16.5936 56 67 59
-0.582588 -12.1733 -25.39 91 82 46
-1.51059 -5.145 -17.6839 11 44 23
-2.563 13.6821 37.088 60 76 64
-1.23713 18.2829 -1.60581 3 20 2
-0.144897 21.938 -11.5829 38 64 35
-7.32623 -1.08357 -6.95853 7 78 61
1.75409 18.6121 34.2947 64 77 69
0.179497 24.8526 -2.38829 16 18 9
-3.2029 16.435 31.5034 60 68 55
-10.068 -11.0726 7.4907 79 93 83
-1.17628 25.7973 -2.47893 48 24 0
-0.628365 11.1001 -8.59791 1 15 2
2.92493 -9.31284 -22.032 92 43 4
-1.11357 11.279 1.72144 68 31 0
4.18865 -15.8615 -32.1152 101 45 3
-0.988922 7.3381 19.8388 54 62 49
0.241482 -15.6722 -28.7461 82 82 60
-0.855515 10.8324 -5.70512 8 27 9
-0.831772 -11.7781 -24.5393 97 99 88
7.08796 -17.0263 -9.30537 165 152 114
-7.4682 -1.07671 2.95546 64 50 0
-2.32497 9.32037 0.59371 4 11 1
3.57692 -12.4011 -25.7597 93 39 7
-0.729143 12.8025 -5.09127 75 70 38
-0.723969 14.0585 -5.52355 76 67 31
3.36089 10.7843 5.69548 9 27 13
-0.644646 -4.28704 -18.4094 74 74 50
-1.1288 13.137 19.6404 75 56 10
-8.74799 -1.2896 -2.47227 10 60 46
4.31096 -11.2016 -2.21481 64 78 68
0.681548 17.5646 -0.168564 8 33 29
-2.88191 -8.78453 -16.4154 80 95 79
-10.0046 -2.96613 1.50338 67 70 56
-6.06536 1.29153 11.8778 13 47 33
-10.1326 -7.32946 4.76892 87 107 93
-0.180213 19.0626 38.7342 72 85 75
1.23117 8.76069 -15.9933 42 40 18
0.183075 10.7659 -16.4767 4 43 37
-3.03871 -2.94643 -14.0595 4 37 6
-2.28671 7.22252 12.9486 0 11 1
0.20573 18.6791 4.81433 27 22 0
4.16843 -13.1967 -23.8421 74 41 0
2.94693 -18.5109 -39.9468 89 94 67
-1.1556 17.7606 -0.0654488 62 40 2
2.37233 16.054 -16.4595 62 43 1
-2.02217 23.1669 29.3739 61 73 62
-4.91122 4.88076 6.94899 31 57 44
4.55468 2.77185 19.907 66 77 67
-1.16201 24.7855 0.938591 22 33 26
2.37816 14.8984 -17.5762 54 27 0
4.2457 -14.6838 -27.685 67 38 6
0.828198 -11.2028 -26.9426 134 86 11
-0.713558 10.6624 -7.57376 40 45 25
-6.11856 -3.92983 -9.75972 79 87 69
-0.24881 14.2706 6.30319 3 9 0
1.29334 -17.9543 -33.6108 75 84 73
-9.61051 -2.38249 0.11734 64 68 51
-1.36711 8.8118 15.3842 73 43 2
-1.90663 22.2711 31.8324 64 75 65
3.8766 -21.4806 -1.10175 63 64 48
-1.15784 -6.38174 -20.2888 62 50 5
-0.814969 8.46519 -8.96583 74 65 38
-10.4547 -11.7641 4.70657 115 137 118
-0.510569 12.7294 27.7137 54 69 56
-2.61503 2.9802 -11.0787 0 50 24
2.45925 8.61221 -6.35976 93 54 4
-6.46367 -2.63481 6.1451 68 59 23
-5.18613 6.17171 2.72717 9 32 12
-5.49131 1.89529 -7.52816 0 48 26
-5.43935 3.3534 8.89807 44 70 52
2.64533 -20.2513 -41.3496 66 85 67
2.92412 6.77128 19.948 70 84 72
-9.02573 -21.8615 15.5357 70 84 75
-1.84432 19.5745 35.3132 63 77 68
3.92667 -14.2191 -28.4802 65 29 4
-0.0503464 8.7276 -15.312 11 42 25
1.33826 12.7582 11.3566 60 55 37
3.04707 19.641 22.7589 103 117 101
-0.214401 14.4855 7.29512 59 44 13
-2.98167 -11.0926 -15.6423 81 97 82
-7.45011 -0.64769 -6.55825 3 48 23
-1.62781 8.31105 15.6218 70 44 3
8.80922 -20.166 -7.32916 128 101 30
3.82327 -12.2553 -24.0824 81 45 5
2.29986 18.2459 -15.4016 50 24 0
-6.80422 0.256195 1.98813 67 62 39
-7.03165 -4.31569 -7.93588 50 90 68
-0.629723 3.54636 -14.8388 4 35 29
1.48145 -10.3163 -25.8685 132 62 7
-2.71883 8.56011 6.70768 1 14 3
-0.073143 20.82 -9.29748 49 28 2
-0.202203 22.4642 2.47921 30 46 38
-1.33277 9.22219 21.6151 52 51 34
3.20869 3.77277 -9.09602 9 31 17
1.01838 15.2967 1.98508 51 43 4
4.6725 7.71922 13.9656 17 62 47
1.08241 8.26664 22.208 68 80 69
0.137659 23.5419 -8.74816 100 68 0
4.59695 7.54684 2.09367 3 8 0
-6.82804 1.38309 -1.60225 55 52 23
0.763584 -9.50159 -24.871 135 64 14
-5.39315 1.04766 6.73183 69 78 65
-0.289571 23.7703 -0.812032 29 37 33
2.51129 -20.4269 -40.9134 74 90 77
6.60175 2.10988 0.682327 87 94 70
-0.278336 14.3855 -9.51333 66 55 22
-0.820744 21.2765 -5.03133 32 20 1
6.35328 -16.2492 -9.61834 179 174 134
-5.85287 -4.65664 19.0112 60 68 56
-8.88236 -3.28913 5.35032 65 36 7
4.30439 9.1081 13.067 3 50 36
0.934757 13.1953 -17.0823 45 31 8
1.91553 9.3145 -18.8832 1 8 0
-5.44343 5.73837 0.870533 1 16 1
-0.996487 9.45972 13.5822 35 44 16
-4.04916 -5.57995 -13.4555 0 58 36
-2.81696 17.8694 27.1399 89 93 73
0.59013 25.1119 -6.03568 12 25 13
-1.00697 18.9579 -5.80506 13 24 2
-5.68666 2.71901 6.15752 8 52 35
7.46389 -14.8044 -8.14422 140 125 77
0.855446 7.80534 22.1492 67 76 65
4.60147 7.59489 15.4911 25 62 50
0.767982 -16.1536 -30.5158 83 88 67
3.46921 7.68484 -2.85159 14 28 7
0.00798035 10.8423 10.6261 62 38 2
-5.65355 1.46389 -7.64276 0 45 15
2.64897 14.3764 -18.6357 25 19 1
-8.61027 -9.58678 7.63483 79 95 84
-0.166119 7.33111 -16.8389 8 25 16
0.396367 14.3272 -14.6091 53 50 27
-0.930756 18.9676 -5.41762 22 28 5
8.3787 -5.64684 -5.66797 4 77 55
-0.147301 15.6826 36.009 59 72 64
0.480377 17.5929 -13.6396 1 32 4
2.61291 14.7416 -18.2515 48 20 5
2.0752 14.9613 -14.0618 4 26 10
-11.1555 -16.9247 6.04451 104 127 114
7.75676 -8.53663 -4.82866 129 153 132
-5.90306 -20.5127 12.4367 59 70 62
-5.60193 3.5386 5.36375 42 64 54
-3.33413 -4.12395 8.43211 73 89 80
1.20782 11.3422 -6.62348 86 66 9
2.28378 2.85876 27.3002 64 68 54
6.63501 -17.835 -9.46888 181 204 173
5.85023 4.99551 6.28518 2 36 20
-0.192414 21.2503 2.42799 0 23 11
-5.50267 -0.492588 9.53006 96 100 76
-4.07948 -6.99301 -12.7446 26 75 58
-0.783844 12.7524 -6.85293 2 13 2
-6.43806 2.35342 -2.04925 7 45 34
-1.30529 20.0983 -1.58688 1 12 0
-5.64919 -7.54107 20.1192 69 84 76
-1.70476 -5.3914 -17.5779 10 54 36
2.66848 23.1179 27.9835 61 71 61
2.03745 2.08611 -13.989 58 53 22
6.35552 -16.736 -9.66669 185 200 161
-1.28164 21.0878 2.735 56 33 0
2.2905 21.083 31.5117 62 74 66
0.992015 15.6113 0.170509 24 33 24
1.28638 -18.5594 -33.5066 56 68 55
2.2682 23.1958 26.7764 69 78 62
-0.33744 19.3302 23.2549 82 79 46
1.16435 10.0987 -20.3624 27 32 11
-0.640808 15.1237 5.04326 42 49 28
-0.606583 19.7397 5.91093 31 24 9
-0.151656 14.4077 17.5768 87 59 8
2.56393 -2.44501 -15.0119 33 67 55
-0.622593 14.3992 4.79943 30 43 22
0.859535 11.5206 12.4106 71 39 2
-1.46627 16.4952 24.2257 74 74 54
-5.80091 0.999805 -7.84914 5 47 20
-1.07597 10.7632 -3.49592 70 63 35
3.82117 7.17342 -1.94138 25 35 9
1.51616 12.4845 -11.7532 9 10 5
-2.6147 17.3972 30.3689 60 69 60
-1.58405 21.0959 29.0574 58 68 59
0.880051 5.22293 -16.7106 18 39 23
-1.32561 8.84357 14.0084 3 2 1
-0.54718 13.2484 -8.83314 75 65 24
1.7957 12.3531 11.442 60 61 53
-0.325565 1.23351 -18.8962 71 58 27
-6.31961 -3.01414 -9.00119 4 72 46
-0.207741 21.0926 35.918 67 77 72
-6.46683 -1.20888 -8.41225 15 59 38
0.190102 18.3496 -11.6501 61 47 10
2.07627 -16.2067 -34.3819 104 112 86
0.360004 14.2676 9.36972 71 34 0
-9.54922 -21.6844 15.2893 71 88 78
1.97976 10.1219 -4.38932 86 53 0
-1.48244 10.5382 19.7591 60 63 56
0.27456 17.8244 5.44699 5 34 31
-9.57998 -11.1629 7.68678 83 96 87
1.40956 17.562 -10.3829 44 50 43
-1.33115 20.4455 4.67962 0 9 0
3.09922 10.445 2.6926 4 15 4
-1.06689 -10.7222 -23.5622 90 95 81
-0.777664 14.1318 0.385292 59 49 16
3.96907 6.53658 -3.15718 30 37 10
4.48431 7.45301 4.55781 40 50 37
-8.15113 -1.60073 3.109 68 45 8
-1.3558 9.05881 14.409 1 15 6
-0.729248 3.46705 16.6852 63 74 62
0.476196 11.7526 11.2766 67 40 0
-3.20002 -8.92132 -15.3051 82 100 85
1.29519 15.6525 -8.58089 38 37 2
5.69189 0.483187 7.7032 0 37 21
0.295761 13.8849 -13.922 1 23 6
0.53921 23.7059 -9.8951 81 46 5
0.0688343 21.759 -9.31768 60 28 0
-5.24725 -8.63063 19.7313 64 78 69
-1.39358 20.4516 36.0205 60 72 64
-7.00883 -8.18555 20.4988 79 93 83
-1.06408 17.6346 -5.14617 20 28 9
4.12195 -14.0538 -27.2821 89 47 5
3.59337 2.74118 26.4119 58 68 55
-0.929367 -4.80054 -18.2336 91 70 35
3.48466 10.3011 5.31792 4 28 13
-9.37461 -3.71642 5.57535 67 42 3
-2.35213 2.31857 -11.9858 0 30 3
3.79739 10.496 10.7959 0 20 3
-8.04117 -21.6328 15.3641 48 56 49
4.56596 6.71187 16.5061 18 54 40
-8.23152 -0.36742 -1.26637 61 47 0
1.94566 -17.7018 -35.6424 71 70 50
4.39716 9.7002 8.59919 1 36 19
-0.346798 -15.1837 -26.3158 72 79 66
-12.8884 -20.3171 10.174 65 78 68
1.78108 19.655 -11.8084 41 60 52
-0.396416 11.1646 -10.9903 71 58 19
6.54304 -12.0326 -7.34606 165 154 104
-4.98032 1.18188 -9.10279 9 24 0
-3.30504 7.71258 9.08318 7 8 0
0.72883 16.945 -15.3944 73 39 0
0.727787 14.3471 10.5648 67 44 2
2.6811 8.57363 19.7997 68 80 70
-0.987663 9.23384 12.9048 36 40 16
-0.00100708 -9.80883 -24.8147 184 144 78
-5.43694 -22.2312 13.3905 62 71 65
-8.74086 -3.18449 -4.10793 3 71 51
-0.368935 10.7541 -12.7222 6 33 17
4.57226 7.48329 3.39964 6 32 20
1.46982 -8.53302 -23.4696 118 65 4
4.8172 -19.6572 -42.4327 74 42 0
-1.29856 -6.4463 -20.0311 33 37 18
1.08087 18.3671 35.7783 65 79 70
4.07406 0.892303 -11.3055 18 62 44
4.0562 -17.6629 -38.0926 89 43 1
-10.0293 -13.2264 4.02822 126 151 131
1.47486 14.7387 -19.0876 25 13 4
-2.77121 16.3985 27.4883 79 89 73
4.92563 7.6749 8.80826 4 49 36
-0.586819 14.9213 20.2417 86 60 4
-1.38264 -11.5875 -22.6001 78 91 72
-6.80771 1.3589 -0.218161 56 55 42
-0.126372 22.5134 33.1387 65 80 71
0.33783 19.4185 -12.3359 43 29 1
-0.148047 2.52478 17.655 60 69 58
3.64136 20.3706 28.4552 67 80 70
1.18007 18.4972 -15.4037 70 52 25
-0.633598 -3.05629 -16.9654 121 112 71
1.08644 -4.898 -20.7456 69 39 10
-4.61018 6.41757 -1.08183 1 0 0
-8.45163 -0.626106 -2.64924 28 41 11
-1.48012 5.55669 15.8176 64 69 61
-1.57672 -10.7892 -21.9017 83 92 75
-1.11937 8.36621 -7.96773 92 73 28
3.20449 -8.26881 -18.1837 14 30 8
-4.38971 6.58857 -1.58393 8 7 7
0.419723 1.94822 18.2805 58 69 59
-5.89062 4.5696 4.46883 1 41 33
0.0566635 -14.347 -27.7106 80 86 68
-1.34361 -8.57163 -21.5368 90 83 49
-1.99813 19.1161 33.7836 59 70 60
-0.0268936 22.1094 24.5283 113 104 62
-0.838297 26.3549 -3.77103 31 15 4
1.38423 13.7734 4.83422 22 48 33
0.104458 20.1122 22.6195 108 89 32
-3.20935 6.23777 -5.72571 44 67 52
-1.37412 10.6279 -1.58741 74 30 6
-0.261612 20.1719 4.45518 23 38 21
0.643703 11.3937 12.341 60 36 2
2.22498 1.96838 23.4301 68 75 59
-8.07307 -0.0425415 -2.30415 63 59 29
-2.84922 8.61798 -1.71851 1 3 0
1.28993 11.9822 -19.0944 18 58 19
-1.28365 -5.11417 -18.0928 74 63 4
3.01405 10.8685 3.77792 1 13 1
0.698021 11.615 13.0563 114 70 21
3.18154 10.4783 2.92661 5 26 12
-10.2192 -8.01431 4.81255 84 101 86
2.38288 20.5425 22.457 123 123 98
-3.68953 7.54762 1.18511 0 0 0
-5.36345 2.82751 6.74289 55 68 52
1.42336 -18.086 -34.0925 73 77 63
-5.55288 -0.320808 13.8955 68 38 1
-9.5526 -3.97746 5.83109 73 46 7
2.17246 13.9107 -19.8487 133 143 108
-7.84333 -9.37775 3.04444 175 208 185
-13.1995 -22.071 13.632 64 78 71
2.24437 18.6603 -15.3748 63 29 0
-0.986252 15.9947 0.260901 55 49 19
6.46002 -19.5126 -9.11763 174 206 181
-0.211233 19.5131 -8.93471 12 12 0
-0.750913 10.053 10.3623 11 6 0
4.38267 7.68645 5.33025 30 59 35
-0.928267 20.1166 37.457 67 83 74
0.363323 9.78559 -16.6091 0 34 16
-1.42278 13.6195 25.5298 52 62 53
-5.94745 3.96475 4.16838 0 40 27
-8.50174 -7.66038 20.0024 71 85 75
-0.780144 15.587 -5.84593 84 78 26
-5.40966 4.66282 -3.85461 2 49 30
2.787 2.61872 27.9064 57 65 51
8.13944 -21.5817 -0.201401 50 41 24
3.72572 -11.0813 -20.1973 68 50 24
-0.112328 -12.4677 -26.7844 85 87 61
1.99231 17.8658 -13.1417 10 33 7
5.78595 2.35001 -5.56942 7 24 3
-7.21853 -3.16151 -7.55066 3 78 58
1.08275 23.7056 26.6102 78 85 65
-2.72249 2.15251 -11.4323 14 104 80
7.22111 -15.5737 -8.71233 119 107 66
-0.834728 19.21 -5.02961 0 13 5
1.12495 2.41528 -14.9959 50 60 45
5.35987 -12.8426 -8.68406 173 144 69
-1.87645 -2.76898 -15.4629 0 48 30
2.92452 9.99321 20.1394 65 78 68
1.88047 23.0855 31.6375 59 73 64
1.56734 10.5431 -14.4068 1 2 0
-0.0682261 22.9282 -0.818718 19 39 33
-6.02797 -3.19374 -9.38772 0 84 61
-1.54743 10.6983 17.7357 76 52 14
3.23426 -6.14756 -16.1129 7 42 20
-2.91363 -6.94292 -15.974 2 63 42
-2.51171 17.9498 26.5729 93 95 62
-1.12877 -12.6493 -23.3089 80 90 75
4.91638 -17.7516 -35.1675 84 48 6
1.02949 5.2777 -15.9858 34 58 46
-3.13127 6.61987 12.4061 0 20 4
-0.913429 14.0242 -2.97175 44 37 7
-3.70541 -8.45735 2.04842 66 81 71
-0.235992 -14.93 -26.9173 92 100 81
7.39247 -22.1735 0.504925 59 62 48
0.994617 4.66854 -15.167 7 37 37
0.673431 23.8803 -10.5627 61 29 3
4.94754 6.81311 10.2315 4 56 35
4.96222 -17.9652 -35.6308 83 52 3
4.15003 2.62505 24.8052 61 76 63
-1.24033 10.0591 8.80891 7 9 0
-1.04076 16.5141 -0.410871 35 32 6
-11.9988 -19.041 8.48548 66 82 72
-10.9415 -18.4054 6.11346 116 147 128
0.318556 23.0267 32.105 68 80 72
1.45603 13.7428 -6.67937 11 31 6
-2.52145 2.485 14.2759 66 74 61
1.12736 20.0323 -4.46082 4 15 7
-2.8098 2.64433 13.881 70 74 63
-2.05561 18.8445 26.6824 91 91 69
3.76701 -20.383 -2.97792 49 50 36
-7.80229 -1.57991 3.33925 66 40 2
-2.38177 16.5247 26.1937 89 99 83
-1.50214 22.7857 0.857445 0 6 0
2.51657 11.5243 3.14317 3 19 3
5.8913 -17.5008 -9.63636 180 207 177
6.42629 3.42525 5.30202 4 40 27
-0.257557 -4.42636 -20.8423 80 64 24
3.605 5.16944 19.8907 70 81 71
2.57157 2.8784 22.771 62 69 57
-6.19127 3.74541 -0.959975 1 30 15
-5.40917 -4.58122 -11.2776 85 105 89
1.07799 -16.6933 -32.0477 77 76 60
-7.15125 -2.57393 5.6086 66 43 3
-0.89608 12.2289 -3.00629 21 25 7
-8.00972 -21.4504 7.10877 140 167 149
3.53287 11.7655 18.6182 56 72 63
-1.59072 13.4633 31.5267 61 73 63
2.46395 -16.737 -35.7578 95 91 67
-6.8764 1.44151 -5.229 0 32 11
-8.28577 -0.311726 -2.65035 51 50 27
2.21758 16.7811 -17.4325 123 115 67
-1.24974 17.9994 -2.30732 3 20 4
-1.28516 18.7703 -2.24701 4 13 0
-5.05984 4.5594 7.64746 28 60 50
2.20243 11.0349 0.300785 7 9 0
3.05981 -22.2371 -49.2532 85 102 93
-1.26 13.0068 20.1377 84 59 30
0.251249 17.1589 38.3505 65 76 67
-0.395618 5.08805 18.3431 56 66 57
-1.38408 17.5205 1.21222 0 16 1
3.41897 6.32899 -5.62807 1 26 2
-10.4129 -15.8952 4.76781 116 142 125
-2.32686 17.7654 26.1549 97 97 65
-1.43221 -13.747 -21.0506 66 78 67
-0.805824 11.0004 -5.53421 9 19 1
-3.08937 -4.13488 8.40441 73 89 80
-3.58159 -5.55304 -14.4255 0 67 43
-11.778 -19.4666 7.26477 107 135 116
5.23513 4.98933 12.9932 53 69 61
-1.32252 12.8109 22.0064 54 64 51
1.01409 1.36953 18.7863 56 68 58
-2.00692 2.04482 -12.662 0 30 3
-6.47194 1.86578 -4.68807 8 28 5
-2.00284 -9.46557 -19.7098 73 85 66
6.48356 -20.0838 -8.98518 180 214 189
2.88497 4.50169 -9.42673 0 39 16
1.15296 -17.4224 -32.6459 75 83 64
1.8515 -19.7721 -36.6806 64 76 65
1.03635 18.1403 -16.1335 57 29 3
4.92917 -5.01959 0.423172 64 77 69
6.20158 -19.2057 -9.22725 169 200 175
0.248751 14.1966 -13.4967 46 29 3
-2.68765 3.47986 -10.5206 0 21 2
-0.012558 10.4455 -13.9296 73 60 31
4.22975 9.79727 8.1764 1 29 11
-2.58633 -7.17618 -16.731 31 80 67
0.467106 -8.8983 -24.1311 129 81 17
0.0415344 9.69902 -15.9353 12 44 26
1.94888 15.0108 -10.2466 4 10 0
-0.857023 11.9352 25.9974 52 62 52
3.76215 -6.24442 -14.2907 7 71 43
-5.84246 -4.18575 -10.5729 91 111 89
-0.915001 8.84897 -7.27025 68 44 7
-0.943077 16.5043 22.7619 88 83 57
-0.884471 9.08759 -8.12562 44 32 7
-0.580814 17.7775 7.30619 10 15 0
5.65507 -20.7952 -41.0097 80 68 40
-0.956813 -0.754646 -15.5877 45 59 28
-6.87921 -1.41691 11.704 83 80 56
-9.01144 -1.28899 -0.755702 67 73 51
-5.45062 -0.502594 6.42541 69 78 65
-2.72041 13.8346 33.5313 73 90 80
-0.685158 18.3186 5.93026 0 8 0
3.42072 -1.29988 -13.1677 0 44 3
1.26841 10.0037 -11.9483 3 22 7
8.00191 -0.675407 -5.50694 1 17 9
0.596432 24.9659 -5.81031 24 35 31
-3.67886 -3.41315 -13.5342 2 73 47
-8.05384 -0.0576286 -2.64815 46 45 24
-3.28804 7.70691 7.70639 5 24 15
1.44556 14.1427 -12.3075 49 41 6
-0.103554 22.5913 -0.13755 92 61 16
-1.38029 21.766 0.387474 2 21 4
1.97046 6.67202 20.893 74 87 76
0.276871 -12.978 -27.9009 86 78 41
-1.50201 4.77364 -11.1833 93 54 1
5.95567 -3.26522 -11.2025 1 86 52
5.50171 -19.2867 -2.59505 48 52 36
-10.1099 -6.85415 7.05421 73 83 71
0.838696 -8.58345 -23.888 143 71 23
-0.090641 19.4339 5.84663 12 29 12
-2.15016 -0.184326 15.5179 67 79 71
1.33274 14.6285 -16.7748 65 60 20
0.230278 8.76889 -19.7059 4 18 13
-3.70638 -6.5142 -14.1408 4 66 48
3.21484 17.3471 26.767 108 129 116
4.29912 3.55873 19.9149 74 83 71
-0.0431147 9.89333 24.1882 71 82 72
0.927704 22.5439 23.9617 122 114 73
-3.68252 3.02664 13.0659 69 72 57
-1.25259 -5.66763 -19.0657 21 31 2
0.0918121 22.1555 -8.70697 101 70 27
1.52309 0.0182896 29.8731 72 82 73
-3.34512 2.60316 13.352 66 74 61
0.842026 21.3042 -7.73264 73 54 28
-0.869092 14.4261 37.0021 73 89 78
-8.99836 -15.2265 4.13728 147 188 163
1.31457 17.7259 -17.2685 44 55 44
-8.38226 -12.347 7.5755 77 85 76
7.91854 -19.7205 -2.3079 53 38 17
-8.49894 -21.5309 15.6363 53 67 58
2.44357 18.4388 -15.9292 62 39 7
-5.11852 6.10716 6.12459 14 35 7
0.973331 21.6469 -13.6338 57 30 5
5.4084 -18.533 -33.7114 75 42 3
-7.39829 -19.6997 11.852 59 61 50
-12.2664 -19.5951 8.77934 70 84 73
-8.43015 -10.8986 19.2938 60 73 64
4.33397 3.22471 20.5128 68 74 62
-6.2644 -2.15306 17.1035 68 57 22
-5.06821 5.4209 8.75098 4 14 1
-2.5344 8.27235 -4.86245 17 25 11
5.8582 5.28855 1.19032 39 56 42
-1.34958 20.619 1.51349 4 0 0
1.7965 8.71815 -19.2667 14 36 7
-1.18674 21.9259 33.4048 66 76 70
3.89714 7.21841 -1.54025 8 34 4
0.993645 13.1393 -17.7656 0 1 2
-3.28714 6.50222 -4.86493 12 25 15
4.17376 7.66313 16.7544 62 76 65
-1.49805 8.73601 15.8094 73 47 4
0.0043335 4.04611 18.3849 58 67 59
0.272163 18.8394 -11.9502 53 45 11
0.689426 24.512 -5.68766 25 33 25
2.4216 22.381 24.9082 94 102 83
4.01882 -12.9733 -25.1593 81 38 0
1.87182 19.2214 -14.6676 69 47 3
-0.973114 17.1642 -5.02913 23 26 7
1.16768 -18.1306 -33.1875 73 82 67
0.50691 22.7687 32.4721 71 82 74
-0.152855 9.40666 -13.8608 35 32 9
5.44819 -19.8719 -40.5865 86 55 2
-0.52535 -1.72225 12.5628 71 87 76
3.2255 22.9349 28.8684 65 79 66
-3.41873 7.49756 7.60474 13 29 10
-6.20556 -0.567253 13.7124 62 38 2
-2.97683 16.1073 33.553 56 65 55
-7.66752 -3.4745 -6.65902 4 52 30
3.95925 -19.912 -5.03909 54 61 49
-2.36443 8.62068 -4.86324 4 20 7
3.29962 -12.5393 -26.7202 90 40 6
-1.41276 23.4424 2.21433 68 43 3
0.464176 11.7179 -16.0453 6 10 0
6.89867 0.76004 -5.95078 1 17 5
-1.0963 11.0352 -1.30473 64 38 1
0.510666 9.10162 -17.7497 21 20 4
-0.620131 13.0847 -10.4361 9 34 25
-4.59713 6.33541 10.5897 12 51 35
8.07084 -2.2835 -2.55707 0 24 15
0.555359 22.5803 24.3684 120 111 71
-1.30021 4.55487 15.6638 64 77 64
0.99764 23.4051 25.4793 89 90 69
1.50644 3.64107 20.4769 68 78 66
-0.292828 -0.717995 -18.7767 80 81 59
0.0290489 10.8923 13.1168 37 41 16
0.847259 15.4557 2.94533 10 15 4
1.74258 10.8095 -15.1932 1 16 3
0.0348053 -15.201 -27.6283 81 88 73
-2.11316 12.8995 37.2238 57 68 62
-0.692698 11.948 -4.94315 63 61 33
-1.30054 -1.2913 -15.6265 10 58 27
0.0737877 10.8576 -16.179 4 35 27
-1.18684 -13.9261 -22.4885 68 80 66
-0.854294 3.55962 16.4616 61 75 70
0.6203 12.2825 10.3956 67 38 3
5.07633 6.16447 12.2188 2 46 35
1.1455 -14.7588 -30.9081 77 71 46
1.254 6.70479 -19.5048 56 50 18
-1.80498 7.48957 15.43 56 40 5
7.12041 -11.1393 -6.5233 139 123 70
-0.712753 14.0136 4.03609 16 33 13
-2.57263 8.8498 -2.47138 0 10 0
0.673687 12.7555 -18.4604 2 13 2
-2.01717 5.72731 14.7949 62 62 40
-8.37268 -10.6102 17.9086 148 137 87
-8.92348 -4.48687 -3.29501 14 71 54
-9.88876 -6.81252 4.03981 87 108 94
-2.88123 8.26501 5.18143 15 28 7
-1.47204 21.1717 0.785538 0 7 0
-4.35502 3.55258 12.577 61 68 56
-1.38383 20.3374 0.300537 12 31 3
4.08423 3.76302 -7.70389 21 59 28
-0.862709 22.4087 -6.11168 0 11 0
-1.29167 8.78812 20.6835 52 57 44
-1.84729 19.5778 34.7022 68 82 71
-4.19616 1.22978 13.3588 68 61 43
-8.39363 -1.94968 3.29982 66 45 0
7.15911 -20.963 -0.24794 59 54 40
5.58606 2.8118 -5.36369 5 26 13
-6.17347 3.51569 -1.63517 2 69 54
1.2068 15.5876 -2.81789 8 16 2
6.77963 -21.2561 -8.68092 180 202 181
-0.614891 -0.236275 -17.3373 74 74 56
-8.46898 -18.7979 9.65378 58 64 55
-3.76507 7.4878 0.868904 2 2 0
-0.432584 15.574 36.769 66 78 70
-0.68586 12.0937 -0.296296 44 43 20
-0.586853 19.037 6.45515 3 7 0
3.50602 -12.7305 -18.86 59 70 55
-2.02999 -7.99106 -19.2288 93 80 56
4.66461 -16.4225 -26.3843 63 63 50
4.87924 -18.4575 -38.7361 70 30 1
1.28328 13.9083 -5.36454 45 32 6
4.29203 2.60989 22.7004 65 67 51
-1.7116 20.3511 34.6385 59 69 59
-2.22485 -7.16579 -17.9115 50 95 83
-3.10646 5.99193 12.7413 18 42 28
-0.683451 9.83002 13.4819 3 19 1
1.33916 21.4921 -8.80594 14 20 5
-2.49664 -5.45901 -15.6486 1 67 41
-1.81678 15.5109 25.653 69 83 70
2.96283 -22.2398 -48.2936 54 68 60
0.767044 15.331 -15.8591 23 38 18
5.14817 5.80862 -0.935524 22 29 13
-0.66777 11.274 5.86131 60 28 0
1.22002 -3.3681 -18.8801 89 46 1
3.85418 6.14519 18.9104 72 85 76
-3.19362 -0.362961 -12.0902 56 61 34
-1.27575 12.0689 21.7876 58 62 45
2.87293 8.41631 -4.62601 4 23 7
3.26834 -6.37396 -15.8409 37 48 19
7.15193 -4.5135 -9.24992 103 117 103
1.86995 13.3701 -16.0556 36 30 0
5.57852 -11.3615 -7.78367 162 158 104
-11.8839 -22.2708 7.47758 127 150 123
2.66542 8.1166 -6.5155 53 34 1
3.35781 -17.0784 -37.0503 116 73 26
-4.56769 6.49654 -1.31645 5 0 0
-2.80048 2.26559 14.0554 71 75 64
-0.512983 18.283 -6.99373 95 68 19
-5.86568 0.582573 12.5256 68 61 44
-8.47148 -6.14388 18.7391 103 78 27
-3.94344 7.5079 4.32517 19 28 22
-0.36495 -13.4434 -26.4098 96 101 79
-0.381989 17.3831 -8.26557 1 4 0
-2.86558 16.4502 27.7575 68 80 66
3.11383 -19.3022 -41.9436 78 83 69
0.350307 22.4692 24.4589 118 110 71
-0.733017 13.1048 1.44568 5 26 13
-1.61172 19.6329 37.0321 61 73 65
-0.285374 -10.7232 -25.2276 106 94 66
3.0695 -21.2025 -47.8997 50 61 52
-0.494774 13.3711 -10.7124 6 22 9
5.71552 -19.256 -9.23542 176 203 180
-0.745258 -5.03166 -18.9719 68 60 33
2.16589 -5.3477 -18.8069 58 75 71
3.45353 18.3616 28.3924 60 72 64
1.17041 13.7877 -17.9055 29 21 2
0.931725 16.1952 -0.683899 14 34 17
2.55356 2.23292 -12.2425 11 41 19
-2.15122 22.0386 27.9805 75 85 72
-4.72604 6.66426 4.59828 27 53 39
1.21548 13.8761 -18.3521 1 6 0
0.64114 14.0862 16.008 16 30 11
1.5076 13.9668 6.69275 20 33 12
-2.8206 3.11514 13.767 66 74 65
1.53615 9.63407 22.3572 68 80 71
-4.88092 0.152779 7.77029 64 75 61
4.88784 5.4453 16.6934 18 53 41
7.57601 -0.69326 -3.60877 15 25 10
-8.86516 -1.19523 0.284634 66 49 12
-1.44154 22.5972 1.31293 0 3 1
-1.18287 18.9911 4.15918 1 17 2
1.04115 22.0014 -8.69104 50 26 1
-8.77876 -18.0484 6.02045 140 166 148
-11.5287 -20.3776 12.5301 64 79 69
0.493904 8.79974 -17.8131 0 2 0
-8.84774 -10.3717 7.45142 78 89 81
-0.836369 -6.22662 -20.6957 96 79 26
-0.709822 -9.97247 -23.9165 91 83 60
4.79786 -16.9382 -32.3407 65 35 0
4.80567 6.99291 4.49853 35 32 14
-0.495989 13.6519 17.9469 113 69 6
0.17153 25.3677 -8.58616 63 83 68
-9.85647 -12.7215 7.85944 80 94 82
5.65584 -20.5574 -38.2876 70 48 23
3.23138 10.7098 13.7037 7 55 38
-1.06022 17.3437 3.66187 2 19 6
-5.76352 -6.95588 20.1596 66 79 70
5.03967 5.93703 12.8978 22 62 49
-5.78494 1.15591 4.74688 17 48 39
0.543949 -6.89171 -22.217 150 122 33
1.84906 11.2481 -1.72349 74 41 4
0.424709 17.9051 1.40436 55 43 0
-0.880512 17.9456 -3.77425 64 47 5
5.92318 3.97511 6.6251 14 57 44
1.38777 -1.487 30.5779 67 76 69
1.02548 22.1265 -12.3616 28 66 43
-10.5575 -12.6157 7.26614 73 84 74
-4.09739 5.29066 12.4005 43 55 40
-5.46466 4.01294 5.75931 5 42 31
1.59084 21.273 -9.34765 11 21 15
-5.30767 -4.42526 -11.4591 86 108 89
2.68658 12.0915 13.6164 129 108 62
-1.74438 17.6967 39.2796 67 79 70
0.850346 20.7912 -6.67109 78 40 0
-8.61982 -8.78046 7.8924 78 98 84
-10.1117 -13.6783 7.9709 82 95 84
4.45 8.39842 14.1874 11 53 42
5.39449 2.44468 -8.00576 1 24 4
-3.11394 8.02983 0.748251 0 6 0
1.74536 23.1519 -10.5192 20 26 18
5.8531 4.89909 5.24799 26 62 49
-9.3541 -11.2811 7.72256 79 94 84
0.960552 4.75628 -16.4559 0 12 4
-9.11584 -19.6691 6.2428 160 196 175
0.65697 14.9463 -15.3061 42 35 14
3.47287 22.367 30.6391 61 74 66
-6.03899 -1.04123 10.4344 94 94 74
-0.656097 15.4914 3.02143 22 30 10
3.02048 -6.12131 -16.8335 29 51 40
3.58186 8.43662 18.2956 68 79 73
-2.50126 6.64855 13.0245 9 35 27
6.24845 3.28844 -0.380491 37 48 33
7.51575 -0.326874 -7.00777 22 67 55
-1.62189 0.36763 -14.0973 17 66 48
2.91543 11.2158 20.917 69 82 73
-0.797726 11.6849 1.54332 65 48 14
1.56817 20.5849 -8.99441 13 23 7
0.426283 21.4503 35.0523 61 73 64
-5.27654 -2.34565 7.60594 68 79 67
-3.14244 7.22544 -3.76994 17 30 19
-0.504749 16.4782 -6.94336 81 56 10
-0.658277 24.6735 -6.77408 26 23 4
4.2563 7.84632 1.2448 1 19 1
-4.7693 5.62444 8.43154 0 10 0
1.64516 11.628 -1.44415 62 30 0
-2.61438 7.9141 -4.86233 11 46 36
-4.32342 7.12946 3.19802 0 10 0
0.843163 24.2505 -9.17203 59 35 8
2.71668 -19.3645 -40.8349 71 81 63
0.978683 16.1498 -16.473 7 26 12
1.09526 -1.13576 -18.8364 58 41 13
0.47834 25.2948 -8.71992 122 122 93
0.404137 13.7526 8.63713 58 45 12
-7.17238 -10.8993 19.7353 78 94 84
5.54884 -21.8338 -45.5574 106 109 93
3.45678 20.1923 29.7328 68 80 72
-3.24456 8.0454 4.06679 8 19 4
2.67212 3.02828 26.4192 62 66 54
2.43879 22.2425 24.4693 82 89 70
0.456091 11.0818 24.8462 61 73 64
-1.48315 19.8367 0.921359 0 8 4
0.230095 24.3185 -3.2673 63 32 8
-6.09657 4.13059 0.617907 2 38 13
-2.07143 -1.51789 14.0994 72 87 80
1.20589 1.87669 -15.3341 72 66 32
-1.80565 21.4529 29.2547 57 67 58
-0.907555 15.2784 -3.05936 57 45 2
3.33083 -22.1389 -6.314 84 100 85
-0.755775 12.6553 0.954041 39 49 22
-5.19038 5.1377 -3.51452 7 19 0
-0.198429 2.78072 17.6211 61 70 56
4.31334 9.88947 9.43143 0 27 14
-1.09412 23.8128 -2.00561 6 5 0
-0.636002 8.05946 -11.9966 44 48 30
-0.848167 12.0169 -0.83183 26 38 18
-3.07524 -5.95683 -15.2542 10 41 18
1.23442 6.79417 -19.7546 69 61 33
-0.196156 19.2583 -8.28504 56 35 0
1.64951 -3.69627 -18.2761 125 64 3
6.21872 0.696213 -1.93087 35 64 53
-6.5536 2.05869 -2.81576 36 60 44
2.57492 -22.6436 -2.08431 55 67 59
2.40341 10.6249 -0.595116 4 3 0
2.58542 4.19934 -10.7643 54 42 6
0.153763 13.9793 -12.4538 68 58 24
5.85602 3.68238 7.52945 17 55 44
-0.563156 19.3734 6.10626 5 5 0
0.0168484 22.3487 0.887653 76 62 41
8.3307 -1.63493 -4.77742 22 35 26
6.50384 -20.645 -8.88286 181 214 185
3.90447 -12.5945 -24.2903 86 56 4
-0.847511 19.4242 -3.79634 79 52 5
-2.75614 17.5029 35.5991 121 133 123
-7.69412 -5.81251 17.7862 114 124 99
-1.09696 15.006 -0.926591 2 22 7
7.65495 -16.8388 -8.36061 88 78 47
3.32942 10.3559 19.4716 67 81 71
-3.23154 4.23333 13.1974 65 77 64
-2.61924 -10.3541 -17.3136 91 107 88
-1.0363 18.0245 4.67765 0 16 1
-2.87477 8.36426 1.3086 14 17 7
-5.72613 -8.79298 20.0987 77 90 83
7.84651 -12.1022 -3.16102 64 75 65
-1.31204 21.6521 3.93417 5 13 7
-0.38995 16.5915 -7.4214 49 37 2
8.09499 -21.3518 -0.343193 50 38 14
-0.848228 10.2217 9.57692 32 18 0
-10.7689 -10.3237 5.4784 75 90 78
-0.785229 13.2377 18.3487 86 65 8
-0.957649 13.2154 19.0364 84 57 1
-0.66201 12.4684 0.0271831 56 44 11
-0.593224 -5.35675 -20.18 68 63 40
-8.07009 -8.47242 18.0696 157 149 102
-5.94002 -4.71224 -10.2713 94 115 99
-1.97141 -1.04845 14.9879 72 88 79
3.70608 -14.3833 -29.544 89 38 12
-2.25111 9.27604 -3.49814 5 13 2
2.45459 1.03018 -13.8552 43 40 10
-0.908402 10.546 7.51262 56 26 0
1.3 16.7262 -6.63165 23 14 0
-0.524647 20.9049 3.91721 55 38 10
-0.861977 12.9809 -2.01448 47 54 29
-1.67716 7.77868 14.1664 2 18 1
-1.0005 16.4919 0.0723801 61 49 8
-2.29159 17.6979 38.599 56 66 57
-3.56453 7.73347 4.66363 47 41 18
-3.68796 -1.11879 14.8533 70 78 67
3.02466 -21.2874 -48.3259 58 70 62
-5.57756 -1.40237 9.80256 103 107 82
-1.22162 -13.4635 -22.6874 73 85 72
-0.718636 21.1862 -7.06038 14 31 11
5.8534 3.25918 7.72819 12 51 38
-6.52279 -1.63137 -8.59889 3 83 56
-6.28765 2.05801 3.3195 1 44 29
2.60283 7.66222 20.1938 72 84 73
2.01138 17.4401 -14.5335 48 27 3
4.82857 6.55453 9.12387 5 43 34
-2.77266 18.2552 28.0881 78 82 64
-10.9536 -13.7031 6.10438 66 80 70
-2.17303 19.1698 27.4484 83 92 71
3.09532 14.9834 22.9363 64 79 70
-7.60904 -5.59732 20.2323 71 79 70
0.510576 23.7482 27.2899 78 84 69
-0.415693 10.8889 7.53561 61 30 4
0.856827 20.1496 -2.25748 54 50 34
-0.0417728 11.1668 9.23366 62 43 6
-8.6572 -14.2463 7.89916 75 87 79
-1.61887 20.0593 36.0412 58 71 61
1.01369 8.86961 -20.5603 43 98 69
4.47675 7.44516 0.819023 3 18 1
-7.65897 -10.6953 19.6563 75 93 82
-1.68925 19.9402 35.81 62 74 65
-8.79416 -1.26365 0.810757 64 37 1
2.8882 11.7103 8.8839 19 33 10
3.44007 9.26432 1.82702 26 40 25
4.76941 -21.447 -47.257 77 57 11
-1.75359 10.7311 1.88993 57 26 0
4.25746 6.81642 17.6457 67 79 68
-0.571121 12.2476 -8.39842 54 53 26
-1.93513 23.1628 28.921 72 85 73
-3.55993 6.41337 -4.11673 71 63 33
5.59239 3.19836 8.08361 20 50 38
-1.3305 9.39328 10.9975 15 39 27
-7.41792 -6.78259 8.14748 73 89 78
0.786797 20.2611 -2.55843 79 46 10
-3.13063 6.96779 11.6436 9 28 7
0.0521584 26.2207 -3.72668 40 28 13
-2.28924 8.86417 9.42656 0 17 6
-1.76103 9.10966 17.231 59 51 26
2.70215 -14.1194 -31.0714 119 68 17
4.28262 -16.8585 -8.01895 64 76 65
1.59102 17.0273 -17.4919 9 45 23
-5.67534 5.42801 4.66364 10 34 21
-0.0255146 14.422 17.2735 75 53 6
-0.154129 23.4306 -0.114349 98 49 4
1.86863 17.8234 19.2871 136 104 52
-0.92449 10.3684 8.46354 41 27 1
2.64849 3.73917 -10.7682 13 29 3
-1.24096 11.511 17.8583 92 63 5
6.02504 5.44623 2.05285 28 51 39
3.97766 -16.6396 -35.7147 89 38 3
0.488002 -8.26486 -23.4542 143 91 26
3.19804 -10.8433 -14.8783 64 73 61
-5.63606 -1.42172 6.18138 70 73 57
3.52247 20.6456 27.218 86 103 91
0.117699 23.8978 29.0369 61 70 60
-5.71341 1.90646 -6.89069 42 53 18
0.947029 14.8818 7.55164 35 48 34
1.62529 10.6013 -19.3172 95 74 21
-6.20462 -0.327732 4.11295 26 56 46
5.77666 2.23608 -7.27976 26 39 4
8.36944 -22.752 0.102341 50 60 46
4.41966 -4.5277 1.32218 60 74 67
-10.7541 -11.9828 6.53613 69 83 73
-3.51644 -0.507492 -11.9433 18 41 14
-1.01304 -13.8709 -23.5657 87 95 81
-7.398 -5.60036 -5.66531 0 59 36
-0.45113 13.651 -10.9645 8 21 10
0.931297 5.37498 -16.324 48 72 51
0.137527 12.5842 7.75812 66 64 54
2.87316 13.6911 15.9547 10 63 38
2.48836 16.8758 -16.4578 35 22 3
0.889999 11.986 11.6923 60 36 1
0.75309 24.3226 -7.04889 46 36 9
-5.72504 4.6856 -2.32992 19 61 47
-4.79222 -1.73703 15.738 68 69 57
4.64452 -15.9106 -28.9355 74 37 2
-0.896553 12.9344 18.4232 91 68 6
-3.13156 16.4134 29.1006 64 74 61
-4.00521 -7.1652 -12.9881 34 77 64
-9.09499 -9.57123 7.64353 82 97 88
-0.968808 -8.18356 -22.0085 109 87 33
4.70747 -20.7471 -46.0353 124 92 41
-2.68387 4.22747 -9.80788 52 94 56
-9.7153 -5.53467 -0.780457 0 37 24
-6.01217 3.45106 -2.78059 6 36 22
-1.39142 -12.6481 -22.3583 79 88 74
3.81587 -19.7779 -7.6232 76 87 72
2.728 -20.9793 -3.53707 63 71 51
-4.14911 6.9223 10.1715 0 3 1
-0.0467777 19.5047 -11.0059 1 33 10
4.09062 -15.5019 -30.6862 94 51 4
-0.582832 13.3739 4.34493 32 35 11
4.64187 2.09814 19.77 64 77 67
-2.86353 8.07989 -3.50086 11 30 18
6.74483 -14.9227 -5.24342 72 83 70
-7.63199 -22.6453 14.8501 51 65 56
2.29992 9.40279 20.7799 67 79 69
-4.84657 -0.879692 -10.8022 8 49 32
-1.3833 21.0531 0.312164 3 31 20
2.17423 1.76744 24.7793 66 73 58
4.54937 -17.665 -37.0744 77 34 0
4.67293 8.68091 8.31601 0 49 28
-2.40122 16.6468 33.2406 62 74 63
1.27901 12.4144 11.497 58 42 15
-0.316345 11.5137 -11.3184 79 55 6
1.01608 0.995518 -18.5057 65 61 23
3.85852 -13.5784 -6.13462 61 70 62
-6.30962 -2.64495 11.8062 55 66 46
-0.708066 -13.0193 -25.1301 71 88 73
9.27283 -21.2634 -0.786484 53 50 35
-9.54868 -6.62711 7.50369 79 89 77
-8.23789 -7.13201 20.1084 73 85 82
-10.9492 -22.0205 14.7452 74 90 80
-6.22442 -0.988426 14.4406 62 39 3
1.31453 13.797 -1.09432 8 21 3
1.10213 17.2234 18.6652 131 84 14
-10.1947 -3.75004 2.22664 95 110 95
3.73829 -7.84327 -14.2998 0 42 19
-0.934576 -2.84028 10.7306 69 84 73
-0.782158 9.66849 -8.41348 0 16 2
1.28397 8.00614 21.9741 70 82 71
1.43419 14.4025 2.43964 20 30 26
0.624944 21.0727 35.6007 63 78 69
-1.31871 13.6463 37.6883 74 85 74
-0.132061 25.3043 -5.60617 60 31 3
-4.24683 7.14683 6.13717 11 16 0
1.04165 15.0102 3.84166 25 33 11
0.699563 8.68318 -20.2868 0 64 24
1.87518 7.40046 21.0218 71 82 72
-1.4673 -6.92065 -19.879 77 80 48
-9.63711 -19.176 10.6388 64 72 64
-7.09029 1.08627 -2.38852 52 34 0
-2.60087 -4.15399 8.36204 73 89 80
5.09148 4.86916 15.1718 68 76 65
-2.03019 -10.7452 -19.625 66 79 66
-5.34172 2.21209 6.78732 63 72 60
2.36708 23.5523 28.6251 57 66 60
0.210999 8.35846 -17.8223 0 11 2
-5.94707 -19.9565 11.7478 51 48 32
4.67656 3.31255 -7.58203 17 22 1
4.83352 7.92827 12.5276 17 57 46
2.2663 21.0822 22.9387 109 112 87
6.1176 5.35468 2.72855 19 51 33
3.31694 11.2162 6.68207 2 9 0
-3.03863 7.78597 -3.15976 22 47 39
1.40941 19.5005 -7.87159 33 26 4
2.88235 -21.4294 -45.2187 58 69 55
5.19558 -20.0575 -43.3081 68 40 7
3.62415 -14.9977 -31.3665 81 30 8
-0.867733 13.9973 -0.431969 3 15 0
0.429346 15.3595 -13.5906 61 43 7
0.851921 21.8671 -4.89217 25 34 28
6.12716 3.34996 6.35282 46 79 68
1.36167 15.4187 16.4219 126 74 18
-7.73115 -9.45874 17.9613 145 128 73
-6.28696 -0.959579 4.50473 60 63 43
-0.394501 14.7807 5.24979 15 35 24
0.051033 25.3441 -2.33043 20 12 3
1.96271 9.36342 -5.88794 86 39 0
3.38136 19.7568 30.1525 68 81 73
4.28183 7.86452 16.2882 27 57 45
2.3703 14.4622 16.0072 31 57 29
-4.01998 6.98757 10.8555 0 7 0
5.3093 -9.04666 -7.18086 157 183 157
0.807846 10.1003 -20.0663 13 5 4
3.70328 -7.92431 -14.6888 6 36 20
1.20694 5.36745 21.2428 67 76 64
-0.0754137 9.40785 23.8821 70 82 72
2.01464 12.4587 9.50191 57 44 19
3.48304 -8.34027 -16.1148 0 31 16
-0.287704 18.0478 -7.92795 65 39 2
-0.487282 18.1526 -9.20597 40 53 24
-0.657867 12.854 0.0111027 51 41 11
-2.49466 8.85663 -3.50279 4 13 2
1.64254 1.68423 28.9421 64 67 54
-3.93147 -0.878803 14.8406 76 80 70
-9.67282 -2.31054 1.08417 65 52 31
5.50244 -22.1552 -44.9834 64 70 54
-1.43757 21.3915 1.70826 0 6 2
-7.58586 0.781929 -4.08294 21 44 25
-10.8989 -13.0284 6.26053 68 82 72
2.00231 -20.2355 -35.2841 58 67 59
0.87009 -0.500931 -20.1101 61 40 9
-2.14919 -1.17126 -14.4015 2 43 18
1.27493 17.1029 -3.56367 6 15 5
6.19365 0.750496 -8.92999 42 60 20
-1.20571 17.1913 39.5147 80 94 84
0.913927 16.7717 -15.806 37 41 11
-1.77781 7.47537 14.2229 0 21 4
-3.03139 8.37298 3.79577 34 28 6
0.0398217 21.8682 34.1815 65 80 71
5.07673 -20.006 -44.1552 76 48 10
-1.26545 10.5871 23.8963 53 63 53
-3.88148 7.12146 -0.790568 3 0 0
0.207008 3.89897 18.8236 55 63 54
5.37962 -19.6213 -39.8851 75 48 0
5.38246 -19.2293 -36.7877 76 47 1
2.33291 23.2956 27.2791 76 69 57
1.18651 0.0604973 16.3443 71 86 75
3.48851 6.48751 -5.1446 12 38 14
-5.38436 -2.26224 10.1113 81 94 80
0.180873 14.5104 35.6216 65 78 69
-0.347143 21.1774 24.3111 103 100 59
0.420998 11.4786 -15.6503 28 29 13
-10.553 -12.3811 7.21001 73 85 75
0.151443 2.58591 18.1297 63 70 61
-8.61798 -9.04332 7.82941 80 97 85
-1.41046 11.1926 18.0735 101 68 9
-1.68225 22.96 27.6542 102 114 91
-6.13066 -21.4809 8.61703 133 159 144
3.69235 4.05091 -8.01068 3 23 2
-0.578644 16.031 -6.66125 79 61 15
1.06718 19.808 -14.9913 13 45 19
-8.13559 -14.6936 7.29285 70 82 71
-1.45747 21.9256 0.697952 0 7 2
-8.56986 -20.1864 13.6791 64 76 74
-0.230866 8.695 -14.9854 2 47 23
-9.01643 -16.9917 8.8662 77 90 80
5.13539 -18.1192 -34.7662 87 54 4
-8.84243 -6.571 7.83559 81 89 74
2.77429 5.15847 -9.32145 7 55 41
-1.26664 20.6519 -2.92751 5 17 6
-1.74992 3.31779 15.2225 68 75 64
4.73467 5.48764 -3.79686 17 40 19
4.02146 10.2074 8.04771 5 33 20
1.1572 11.6826 12.4505 68 44 14
-9.84949 -12.2421 7.79302 82 96 85
6.25429 -3.59616 -10.8148 0 76 49
3.41859 -1.7956 -13.3921 4 72 43
4.10073 -17.6064 -37.8058 78 37 0
-2.12237 -4.15461 8.41264 71 87 79
-1.26359 -12.7624 -22.8821 78 87 72
-5.19806 -4.12755 -11.543 68 89 64
2.21091 1.85062 29.2623 63 73 60
2.30236 18.037 -17.2458 114 99 69
1.82915 23.7438 29.1034 46 54 47
-0.240906 14.5016 6.9567 55 51 28
-1.45732 10.9682 0.341774 68 30 5
-0.739937 12.3736 1.33034 40 38 15
7.67441 -14.3651 -7.1701 79 68 39
-12.9764 -21.0709 12.4539 64 78 71
8.44073 -21.5233 -8.03423 159 178 156
-0.615189 -4.06224 -18.2003 55 65 42
-1.39193 9.86074 19.4376 52 66 54
-5.25571 -0.377239 -10.0245 25 41 23
0.84605 2.7568 -17.6231 34 32 3
0.48185 19.4306 -0.944458 1 6 1
5.87646 3.64819 -2.47541 1 40 17
-4.62391 6.60835 0.0368829 0 0 0
-2.19713 19.0564 31.8726 62 69 57
1.45681 -14.2243 -30.8938 105 91 50
-5.41565 5.27106 5.65455 13 42 28
0.374805 17.0686 4.40824 12 26 20
-0.521584 12.1022 4.21993 61 52 22
7.63484 -13.2299 -6.82005 136 135 103
0.315269 23.7755 27.6279 93 100 83
1.34846 16.3247 -4.07333 9 19 0
1.13321 15.1613 -0.711834 4 18 4
-3.35951 15.6277 32.4436 72 85 73
3.89308 7.95667 0.228693 4 9 2
-1.2334 16.7138 23.5753 99 88 54
0.968155 -17.9297 -31.829 70 82 71
-10.8588 -20.4156 12.9539 61 71 63
9.37628 -20.695 -6.09932 70 53 21
-4.45128 6.07218 -2.99885 0 16 3
0.312962 8.27097 -18.7194 21 18 5
6.95135 -14.4688 -8.34428 177 155 98
-9.27163 -17.9869 9.19267 78 92 83
-0.981982 15.6305 37.5682 63 74 66
-5.11497 5.71216 -1.48306 4 10 1
-9.3313 -4.09517 -1.37647 0 36 22
-3.20072 8.19943 3.3589 15 6 0
-7.59032 -9.83955 19.9883 76 92 84
0.0790396 23.1173 25.793 106 105 77
-5.03763 1.43037 8.32528 65 79 65
-9.84184 -11.7669 7.71169 82 96 84
-4.73082 6.0491 8.70938 0 8 3
4.69256 -15.912 -27.9235 99 51 2
-0.466511 6.67112 -13.5441 73 78 58
-8.5102 -6.8356 18.3135 120 97 32
-0.146526 19.6337 -8.27203 62 40 0
1.38887 22.0988 -11.7471 72 50 6
1.88257 7.87152 21.1261 70 82 71
1.09299 10.8482 -9.86787 91 73 18
-7.85255 -5.17706 7.57117 81 65 38
-5.64361 -0.58049 14.3098 65 39 4
-1.16141 10.4164 -3.49327 85 55 8
3.30371 -8.58698 -17.4844 53 40 3
-1.30176 12.9588 25.3302 55 65 50
-5.50625 3.35092 9.56845 1 34 20
1.12808 13.8445 7.85303 63 61 33
-0.873322 13.8078 -5.02507 44 58 30
-0.821022 11.413 -7.39698 64 62 36
3.09257 -10.6469 -23.854 67 29 0
-7.64875 0.650841 -3.64685 15 43 26
-3.07061 7.98199 -1.27253 0 15 6
-2.96452 4.90452 -8.41202 12 40 37
4.24193 -15.8769 -31.3555 69 34 3
-1.27878 17.8502 24.717 101 87 47
-6.49167 0.113701 12.2905 61 43 4
2.91418 2.93089 26.7606 60 63 52
5.63324 4.80239 7.24268 25 58 47
-0.268917 -5.60355 -21.4889 141 140 103
-0.584244 -0.657906 -17.5999 71 56 22
1.10322 3.01594 19.8349 59 72 65
-0.647069 21.1475 35.744 67 80 71
3.61447 0.552231 29.7317 73 89 79
1.87666 2.35429 -13.9581 28 54 38
-1.46854 10.986 3.25362 52 27 0
2.76286 -4.91338 -16.8999 10 42 20
0.932639 17.4134 -16.0114 81 70 46
5.50696 -19.7092 -37.8871 76 48 2
-0.666698 17.336 -8.98024 34 59 42
-5.44847 4.98906 -2.39028 10 24 4
-0.573334 11.1868 14.4081 2 22 18
-1.18694 -7.33307 -20.9682 98 83 36
-0.880753 16.3435 4.40672 1 18 3
5.83616 -1.85154 -11.2714 19 67 51
2.37157 -6.98156 1.27595 68 83 74
2.38531 19.2138 21.1614 138 137 105
-8.03821 -0.029541 -1.54716 56 38 1
3.62955 -6.00082 -14.5776 0 44 17
0.0237923 18.5265 3.1719 31 59 35
-0.167776 11.7683 -11.93 37 27 2
-6.32766 0.436138 11.9257 31 41 28
-0.605467 13.7668 -8.48642 23 39 17
8.3007 -2.04324 -3.51739 24 48 36
7.41635 -7.81679 -5.51755 69 130 110
4.54094 8.62934 7.6656 21 52 34
0.894577 11.8949 13.0537 141 94 51
1.62957 15.1657 -9.65675 10 20 14
-0.12471 24.5542 -1.04574 13 10 6
0.683537 16.805 -14.9273 59 28 1
0.964775 0.474159 -18.33 73 65 33
1.52156 14.9678 -3.09565 15 29 18
7.34032 -19.2172 -2.94613 60 46 19
-1.72829 7.85585 15.3866 67 50 10
3.85748 22.3719 29.1008 83 98 85
2.64388 20.0954 22.2706 119 121 93
-5.88679 -9.20533 20.0603 79 93 85
6.09325 -9.22533 -6.64446 152 171 143
5.53092 -10.9176 -7.61686 164 163 116
-0.206868 10.2436 24.5174 67 78 69
-7.32547 -9.3586 18.0235 143 125 73
2.20059 -7.90972 -21.6874 111 50 9
1.31076 16.2728 32.0328 66 79 71
-0.451996 3.22503 -18.0687 21 50 27
-0.952797 14.2949 20.6305 72 64 27
2.68605 16.0781 18.5569 110 107 81
5.88482 0.411057 -9.61021 8 56 32
6.29629 -0.589241 -0.585289 3 43 31
6.73304 -1.64861 -10.0939 9 47 32
-0.620296 18.4578 7.48445 31 32 8
-4.87263 5.74857 -2.83485 14 32 14
-9.68825 -8.26051 3.97395 130 161 140
-0.421005 20.4339 24.1445 88 86 57
-5.26601 -2.83888 7.65544 69 77 71
0.707626 18.1821 36.8635 67 82 73
3.9781 3.41592 -8.36448 0 28 19
7.35854 -21.2507 -0.160812 59 51 33
4.93229 -20.6355 -8.70043 141 175 155
1.98976 -18.0113 -35.93 86 89 60
-6.89841 -20.6356 12.9801 65 80 70
-1.16278 14.5943 21.912 84 68 30
2.63654 -16.9929 -36.4561 100 99 80
-8.02145 -18.723 6.77086 117 135 124
5.22662 4.22705 -4.21223 21 53 35
-0.776131 3.17873 -14.062 60 63 41
10.0246 -22.4692 -5.21536 125 146 123
-0.905691 21.7354 34.1442 67 79 71
-1.66923 18.7706 25.9179 99 91 58
1.87453 -14.5584 -31.8312 125 109 82
0.94224 14.3424 -15.9609 2 33 10
3.69083 8.73308 17.8018 66 74 66
1.13534 6.48292 -20.0956 106 79 11
-2.62004 0.995209 15.004 70 70 48
3.06207 -21.0747 -46.306 64 72 58
0.914703 10.7885 -18.3586 64 62 27
2.12205 23.5022 27.5261 64 68 56
-0.198448 13.3047 16.3403 16 23 6
-2.33685 9.35622 -1.80894 0 1 0
0.782997 12.8436 -16.7631 46 34 19
4.28003 -5.25291 -12.183 0 68 46
0.485493 -8.64796 -23.8783 130 73 12
-1.38176 8.60182 14.884 44 47 22
1.04156 11.7147 -18.7936 4 40 9
-2.45649 9.43085 -0.629929 0 11 3
-8.83422 -6.09867 7.74911 77 75 58
4.51502 3.03804 19.6336 67 79 68
-1.16931 21.5741 -1.7374 0 3 2
-9.7363 -18.4722 9.41008 78 92 85
4.28112 7.68307 4.82211 41 57 42
-1.34254 10.0515 -3.8327 77 34 0
-0.76741 13.9552 -7.15844 2 6 0
4.10651 5.22717 18.9536 69 82 71
1.80023 12.4465 10.9246 69 67 46
0.385756 18.0101 7.88419 18 40 30
-0.198029 14.0986 7.00296 58 50 28
1.09262 14.473 -5.40038 66 43 7
-7.65758 -6.53055 8.14971 76 88 78
2.0926 15.25 -14.3474 2 25 3
-2.751 8.72529 4.03059 3 29 13
-13.347 -21.1278 10.9261 71 83 71
0.798164 17.337 -5.69236 57 38 5
-3.89835 7.25639 0.042099 0 0 1
-0.931765 17.307 -5.91562 0 36 3
-1.86372 23.0908 28.3628 87 100 82
-11.3465 -17.0253 7.6901 70 86 75
-7.66362 -21.3176 14.5864 51 63 53
1.02794 7.56463 -12.5477 43 34 0
2.28563 13.1026 23.6104 68 79 69
-1.96029 -2.53639 -15.2471 0 51 25
6.18634 -18.9081 -9.32368 178 208 183
-3.06002 -5.52164 -15.1348 22 67 39
0.971165 2.30204 -19.9668 98 65 6
1.21044 14.1332 5.06923 2 33 19
-1.38629 9.66747 20.8185 56 60 45
-4.96558 -3.21975 16.6597 63 74 64
1.55465 15.2711 -13.0236 40 35 5
0.885704 13.1715 -16.4043 74 48 1
1.08528 13.0179 -7.9972 57 42 16
-0.384071 11.3426 14.326 4 21 10
-9.37107 -12.2241 7.91111 78 94 85
-0.983635 23.0994 -0.593701 73 43 0
1.94761 21.3071 -13.116 12 17 6
0.672987 20.8576 -1.46534 29 32 26
2.13805 -11.51 -27.1241 102 46 8
-0.00105286 17.94 21.7383 110 87 29
-0.62137 17.7921 5.78436 1 18 3
-8.68921 -15.888 8.25939 76 87 77
1.15403 -1.21126 -18.0322 63 41 3
5.10112 -20.5135 -45.2254 106 81 13
2.58519 -14.5437 -31.9703 111 61 10
-2.64274 6.06509 13.1023 22 45 32
-2.14497 14.5415 30.4707 62 76 65
5.08743 -11.5985 -2.20592 74 88 78
-4.53872 5.40659 -4.71619 5 3 0
-1.09708 22.6688 -3.19235 27 16 0
8.83166 -20.2272 -1.96739 52 40 21
0.995732 23.1145 31.8693 63 77 69
-4.85087 5.13737 7.00236 11 43 27
3.58204 -22.7333 -0.833191 57 70 61
4.29799 7.84038 4.27954 13 30 13
-9.08177 -6.82489 7.77319 78 93 82
0.330937 9.36631 23.5832 71 83 73
-2.20216 18.2125 31.3013 69 82 70
0.0104752 12.3085 -13.5025 11 20 9
-0.0828934 23.9769 -8.40564 63 55 0
-0.338322 20.1667 23.7483 95 91 56
0.1517 22.2631 -0.832047 14 19 16
-0.929665 14.9203 -3.54725 5 15 0
-0.802893 11.6638 0.830002 77 53 7
-6.43931 -2.11066 5.60384 69 57 26
-5.20457 0.0462799 -9.80843 9 47 19
-1.68135 14.6914 26.4068 58 70 59
-0.315436 25.0544 -5.58085 62 26 0
-4.93111 -1.69221 8.30972 64 74 64
-0.0336666 10.38 -15.4086 0 16 4
6.7258 -13.5496 -8.07848 154 113 31
-0.945204 -0.644218 15.5437 72 88 78
2.5683 15.3539 24.5844 67 81 72
2.20857 3.99117 -12.2709 39 50 11
3.37792 11.6875 14.8608 11 61 42
-12.2896 -21.8427 14.3744 67 83 75
-2.43454 9.40759 1.74518 4 21 8
2.97149 10.6326 2.4268 1 16 2
-9.36237 -11.7534 7.81448 80 95 86
-4.94269 2.84346 -7.42162 10 39 22
1.06117 -1.02619 -19.3849 55 40 13
-4.99726 6.25332 0.0295272 0 2 0
-10.8769 -16.3902 5.57694 104 131 115
-6.73947 -3.35911 18.6612 67 59 37
-0.688332 3.3405 -14.6003 20 43 29
3.38798 22.0625 27.6126 105 124 110
-5.63035 -4.64018 18.4514 68 75 66
-0.559119 24.9341 -7.6721 29 50 39
1.71031 -0.612841 -15.8502 123 88 9
3.98452 -19.8524 -45.0418 87 60 22
3.89867 9.3667 16.1455 43 68 55
-0.18707 22.581 1.08576 34 27 15
7.12254 -18.289 -5.92877 66 56 33
-1.50416 9.83328 -4.17529 60 22 0
2.82134 0.228235 -12.862 15 36 12
4.96184 5.62392 14.6699 59 77 65
-0.634434 15.1373 2.93039 42 41 18
-3.20238 16.6441 30.9901 57 65 52
2.11847 11.7272 12.1179 78 58 18
1.16365 14.469 3.97878 12 26 12
-7.15336 -0.283669 2.21914 68 53 16
-7.14108 -20.3729 12.9103 62 76 66
8.88251 -3.82652 -3.12428 47 65 48
1.50264 18.4931 -9.14571 5 16 4
4.8213 2.59776 16.4562 62 74 63
3.78526 -12.0532 -19.4005 70 47 12
1.88527 16.0216 -17.4787 94 103 54
1.41863 13.2136 5.43407 63 51 20
-1.33064 10.2812 7.27229 36 19 4
-3.04802 8.17036 6.02157 44 36 13
-11.8728 -20.3428 12.1257 63 71 63
2.48726 11.6018 10.3318 44 39 27
-1.52427 14.0407 25.809 54 64 54
3.11001 -22.6307 -46.4829 48 59 53
-1.66094 2.02969 15.5176 67 77 66
2.68573 8.1242 19.8446 68 81 70
-4.75726 6.86736 1.64204 0 1 0
-8.18122 -17.582 7.73376 69 81 70
2.32994 -17.4152 -36.3767 89 91 80
-0.395733 16.5533 21.7502 92 74 27
-0.609634 9.78899 -10.1758 82 67 32
0.180447 21.6443 34.7013 66 77 68
-0.342609 1.23842 -17.3941 57 60 42
2.87603 16.3653 28.7365 59 72 63
-0.21682 18.7202 -8.55512 16 13 3
1.55431 11.3001 -13.1254 0 33 4
-0.620468 15.9308 -8.883 0 35 13
0.150154 15.0959 -12.3275 5 40 15
1.35939 21.8997 -9.05599 18 19 14
-0.76721 -5.99043 -20.401 68 44 0
-2.85798 16.7903 27.3796 81 93 78
1.40534 -2.05135 30.5485 75 92 83
3.16188 18.8805 26.2461 144 171 154
-0.144043 -1.46463 28.9811 83 84 58
1.26302 -10.3789 -26.0353 138 69 14
6.81819 -0.411522 -2.06294 0 17 4
-1.03725 15.3375 1.19401 0 19 2
-5.49427 -9.39551 19.9326 72 90 78
1.7716 2.49657 20.5894 57 66 57
-4.79877 6.28666 6.69532 0 22 0
1.59484 16.3171 -7.80643 3 27 12
-10.8564 -13.8234 6.8724 68 81 73
4.52247 3.57499 -6.99838 39 59 32
0.38568 17.8222 6.99914 2 20 5
-0.0611801 11.4998 13.9133 34 52 49
-5.46236 4.24605 6.17864 14 51 36
5.153 2.71711 10.039 64 75 63
-6.65121 1.75188 -1.08618 60 72 55
1.45364 13.102 11.2701 52 51 42
-2.31678 9.83122 1.58158 0 23 6
-0.614456 13.6169 -6.02537 54 48 25
3.47746 1.9306 -10.9216 31 45 20
-0.842697 16.3242 4.08672 8 21 6
-1.59999 8.58783 12.1011 1 26 10
-0.0312595 21.0039 -9.54857 20 19 1
-10.2103 -9.08444 6.89012 67 77 68
-5.84278 4.96217 4.44326 5 51 40
1.33583 22.7533 24.1237 112 106 75
-1.34456 20.104 3.42449 0 9 4
0.458695 18.5037 37.4309 68 82 75
-3.88483 7.32718 0.560282 2 2 1
1.29338 13.3414 -3.68961 3 24 0
-1.26625 11.2886 17.5707 71 50 5
-2.66135 16.8127 37.2516 49 61 52
1.93535 1.42856 -14.4965 136 81 2
-2.6799 0.685961 15.074 70 69 50
-0.578804 1.75821 16.8467 59 73 63
-6.45411 2.40409 1.30877 1 52 37
-1.24931 23.4645 29.2578 64 72 60
-0.690304 2.91633 -16.7997 2 39 24
3.44771 -12.0929 -25.4694 82 39 7
-10.4369 -11.2512 7.06135 71 83 73
-10.3447 -4.88914 5.66479 70 72 58
-12.3125 -20.337 11.5287 66 75 67
1.92638 -18.8735 -36.838 88 101 86
4.42135 -20.2273 -45.7898 77 62 18
-0.914265 21.171 -6.23946 4 25 8
-0.940627 2.57508 -13.3383 89 78 49
1.27739 -18.7371 -33.1705 64 79 69
0.0201683 17.3326 -11.0639 58 46 8
-0.795609 11.1216 15.2236 54 39 1
9.72317 -20.9246 -1.91579 62 60 45
-5.81403 5.16681 1.38123 2 20 4
3.26849 -12.5456 -17.2103 67 66 49
0.323473 14.4614 35.1983 60 77 68
4.50025 2.1493 -9.61126 18 54 20
1.27109 16.67 -3.35435 7 15 5
2.73096 -15.794 -34.1847 108 72 23
-1.14602 17.933 -0.232407 67 42 0
1.04778 23.2856 -9.13727 68 38 5
-8.1055 -19.2396 10.675 51 56 48
5.16609 -20.7981 -0.665955 55 62 52
-2.40901 9.36209 -1.06723 0 6 1
-5.14925 -4.48467 7.8059 60 69 62
1.58114 19.4577 33.9696 69 82 74
-0.323036 14.511 18.7631 80 59 7
-7.00793 -4.10593 19.4119 67 67 47
-7.89185 -6.29674 8.07238 83 79 59
-6.03393 -20.3268 9.23232 110 134 121
3.34826 10.1524 2.95768 17 41 26
2.21776 -16.6989 -35.1718 102 100 73
-8.57054 -20.5182 14.4928 53 63 56
-0.925884 15.0291 21.7641 86 81 53
-0.964001 11.3722 0.880273 73 45 6
2.47726 2.66761 23.2316 60 64 53
-10.2685 -8.17797 6.78762 70 84 73
1.1693 13.2566 -7.56683 62 51 4
0.509136 16.4137 4.49146 4 24 13
-3.77787 -1.50183 14.6703 65 77 67
-1.45824 10.9781 3.59339 57 29 6
-2.12463 17.4586 39.0574 55 70 61
5.92951 5.73818 3.75974 24 51 44
0.437683 19.4634 -13.6902 55 51 19
-4.54366 6.95442 3.57959 2 0 0
3.68298 -7.67043 -14.7432 41 60 44
