ply
format ascii 1.0
comment Created by Open3D
element vertex 1400
property double x
property double y
property double z
property uchar red
property uchar green
property uchar blue
end_header
3.29935 -18.6618 -40.9624 121 111 86
-2.01586 18.18 38.3455 61 70 60
-7.65758 -6.53055 8.14971 76 88 78
1.75324 12.9264 4.66518 58 46 14
1.10207 14.9581 7.00646 20 45 31
-2.99014 2.81757 -10.3563 19 54 48
-0.357792 13.7291 -9.72784 3 11 0
-7.29834 0.644207 -0.390651 67 46 4
0.811888 20.0727 21.6088 121 86 2
-5.04348 -0.18502 8.58095 77 88 71
4.56596 6.71187 16.5061 18 54 40
0.934963 14.0695 -15.8625 6 32 10
0.661488 23.9172 -9.90339 89 52 6
-0.935877 16.1318 38.6134 69 83 75
1.22673 -10.3331 -25.9805 134 67 12
-0.199831 19.63 -9.8558 49 42 10
-1.20056 16.4315 1.81552 6 30 17
1.50406 1.46562 28.9886 66 67 55
1.01641 2.13045 -19.8046 79 55 8
-2.78009 16.01 28.4891 67 81 68
0.702843 21.4816 34.6323 64 77 67
-3.11047 -9.89687 -11.0638 58 71 64
0.0975761 22.1893 -0.770531 17 27 27
4.47244 8.92498 12.3839 20 60 46
-4.54918 -6.13956 -11.9572 59 90 80
1.94761 21.3071 -13.116 12 17 6
4.16442 -20.7557 -47.8928 94 65 22
-1.7552 21.241 28.9712 58 67 57
0.200278 18.8526 5.45936 15 29 25
-1.16731 10.7588 5.84064 61 29 0
4.35101 -21.1305 -48.1106 75 52 10
-1.98138 18.5908 38.0321 63 74 65
-8.36212 -3.03014 -5.26437 8 97 80
-2.21249 22.8493 29.0028 59 71 59
5.08743 -11.5985 -2.20592 74 88 78
0.985073 8.63087 22.4927 66 78 67
3.58204 -22.7333 -0.833191 57 70 61
-0.34602 15.9048 20.5304 86 65 3
3.21763 3.8835 -8.82886 9 25 2
-0.797474 -1.0256 -16.6717 62 72 35
-0.0840836 -15.9888 -27.2185 70 79 65
-0.700272 11.8358 0.697207 82 61 17
-12.2288 -19.4991 8.75072 70 84 74
-1.26831 21.0941 -2.08231 16 33 17
8.02745 -1.22536 -5.3737 3 17 10
2.22125 20.8477 22.5508 118 120 96
0.626736 -2.30089 -20.6614 103 97 57
-3.82578 7.68257 5.12297 19 8 0
-5.15382 6.14674 2.90085 17 37 22
-0.0450382 1.43792 -20.5955 101 85 41
-0.802601 7.35008 -12.7637 2 22 11
2.8025 -21.5607 -43.8598 64 79 67
-2.43563 19.233 28.4662 73 76 60
2.99068 -20.9707 -45.3302 58 65 50
1.62004 3.6478 20.5744 66 77 68
0.493279 20.8147 -14.0713 12 10 4
7.13721 -16.2277 -9.06033 136 120 72
-1.06544 24.7222 -0.288955 71 34 0
-3.8314 2.37054 13.0759 66 71 61
3.93979 21.8095 29.9183 69 81 73
-4.99726 6.25332 0.0295272 0 2 0
0.289295 23.9376 28.2628 70 78 66
-1.0418 14.4135 -0.902903 4 26 10
-1.48203 22.5043 0.779412 2 6 1
-1.1556 17.7606 -0.0654488 62 40 2
-0.865753 12.3981 -0.654701 13 30 7
-4.26974 7.06828 2.93341 1 9 0
3.6379 18.6315 28.0566 64 76 68
-0.196459 -3.96723 -20.4742 95 82 48
-6.56253 -2.1998 16.9698 62 55 29
3.32346 -5.72363 -15.4673 52 62 37
-1.25888 17.6216 1.67088 19 27 4
3.88028 2.66013 -9.48734 7 9 1
-0.0951233 -1.74678 28.878 88 96 69
2.28112 20.3054 31.3907 60 73 63
3.78526 -12.0532 -19.4005 70 47 12
1.06752 13.5985 -17.4493 43 25 0
-5.92144 5.03732 1.04144 7 23 10
0.36702 18.428 37.7248 68 83 74
3.98212 -12.4272 -22.9764 83 47 0
-1.72189 10.339 5.98731 39 21 2
-1.06416 22.4905 -3.03454 34 21 2
-4.83942 6.28328 -0.788284 7 13 10
-10.5544 -9.33848 5.73829 69 82 71
3.11001 -22.6307 -46.4829 48 59 53
-6.28491 -3.73144 -9.2318 81 102 87
-3.16087 8.03841 6.87085 0 9 2
2.06336 18.8788 33.3617 67 81 70
0.852829 -1.16748 -20.5432 69 39 1
1.17924 20.6789 -15.0419 101 139 111
0.875135 6.70926 21.8872 66 78 66
3.44096 -8.12227 -16.522 27 51 52
1.61328 11.4548 -12.9514 0 18 3
1.35097 9.2476 -14.1082 2 24 8
1.37475 9.9542 -20.535 85 80 51
-8.23971 -12.948 7.47966 73 83 73
4.72438 -17.1137 -33.7324 90 48 2
-2.94793 8.30438 6.87284 0 3 0
-6.325 -1.37082 4.90001 69 64 44
1.83917 23.2017 31.3683 58 71 62
3.76943 22.4358 28.9996 87 97 84
1.67978 10.8122 -8.62178 0 30 9
7.19747 -12.5042 -6.92104 164 133 79
-10.7413 -14.8239 7.72892 75 86 74
1.03894 23.6842 30.5763 54 63 55
-0.872269 11.8581 -7.2051 15 37 16
5.31085 4.60668 -2.97304 3 55 32
5.89139 4.71203 6.08877 14 58 44
-8.58817 -0.906715 -2.55811 33 74 55
0.0808258 -2.14906 28.7219 96 111 80
0.349377 12.102 8.1875 65 50 21
-8.21323 -0.889648 1.6201 68 47 13
0.786871 16.313 6.69408 5 15 7
-4.98469 -0.713993 -10.5755 6 36 2
-0.957649 13.2154 19.0364 84 57 1
-0.0796871 14.6167 17.6944 77 51 8
0.83226 7.40117 -11.4501 78 62 27
1.55549 13.7794 -2.8384 8 19 12
1.61754 8.29279 -8.52852 95 64 6
0.747848 12.266 25.6458 63 76 68
1.80023 -5.30831 -19.2784 109 66 3
-0.122202 25.5568 -1.80598 31 24 4
-2.27738 9.19129 7.10291 7 22 13
-1.13285 18.2671 4.06362 2 20 4
2.52347 14.4359 23.9516 69 83 72
4.22161 9.65376 12.3062 3 36 27
0.623955 22.1769 23.7959 123 110 65
-0.888985 16.5301 4.39067 0 16 2
-3.48269 3.21316 -9.18026 40 75 48
5.54715 -18.515 -9.43272 177 205 179
0.133728 -15.2978 -28.2844 82 85 64
-1.88416 19.4321 33.4033 58 69 58
1.54633 14.0919 14.9926 145 88 15
-5.31191 5.61932 5.46658 16 51 38
2.12757 10.5202 -2.95003 77 49 7
-9.68194 -16.225 8.66766 82 98 88
1.46725 6.82785 -10.2815 105 59 4
-1.48513 10.529 22.8214 50 45 22
1.13414 -5.14291 -20.8633 73 41 7
-1.58243 7.99628 14.4769 1 24 14
-2.66135 16.8127 37.2516 49 61 52
-0.231846 18.4344 -8.31499 26 19 1
2.68439 14.6681 16.8979 23 64 42
0.00948715 21.5487 -0.109856 66 45 9
5.40782 6.08895 5.6726 9 37 26
5.08808 3.23586 -6.75151 5 20 1
0.145004 19.7709 -11.408 8 32 14
2.69339 -2.50376 -14.7093 8 58 32
-4.13399 -5.64007 -13.1734 5 57 39
-1.52047 -6.48393 -19.2165 3 51 24
-9.92302 -21.2384 14.7826 64 78 71
-7.82377 -4.5182 7.18489 79 64 38
-5.52393 3.8185 10.9258 4 27 14
0.694805 15.9989 2.84139 5 13 3
4.68629 -16.2886 -30.6926 71 31 4
-4.97217 5.77446 8.89564 2 6 2
2.36908 -20.6423 -39.5848 71 86 74
3.03899 10.1337 1.16115 15 34 21
-2.56728 8.77681 6.2836 0 4 0
-7.91705 -5.20663 18.0545 86 95 73
-1.45027 10.9845 0.40185 64 25 0
2.2072 18.8609 -15.4244 70 31 0
-2.02415 -12.3105 -18.8168 81 91 76
-0.504189 16.8164 -8.09618 0 5 1
6.46014 4.08884 1.59578 28 61 45
0.62566 21.0749 -1.80837 11 21 10
-0.171034 -0.249846 16.0943 72 88 78
1.27739 -18.7371 -33.1705 64 79 69
-2.77926 16.2447 33.5572 55 66 55
-2.0242 16.3131 38.6018 63 76 66
3.23339 21.3119 25.858 95 111 97
2.46258 13.3093 14.6265 119 76 16
8.19452 -6.56784 -1.4959 66 80 69
-0.319741 17.4485 39.0911 75 88 79
-3.84099 1.30496 13.5117 67 64 46
-0.158806 15.4458 -10.6345 0 7 0
-1.18385 11.2432 3.68801 59 27 0
-0.939499 16.3988 -3.40446 65 49 3
-5.76941 4.91688 1.73741 26 48 33
-3.43528 -4.35143 -14.1365 2 59 35
-4.79216 -2.78027 8.62335 62 71 65
1.08411 14.9213 -5.68659 54 33 2
2.52226 -9.98763 -24.1691 92 49 5
-1.18018 16.2119 -2.16721 0 27 8
2.74972 -8.2144 0.306587 74 88 79
-7.0084 -3.21174 18.2032 66 52 21
-6.03393 -20.3268 9.23232 110 134 121
2.8866 9.48891 -2.60323 2 21 3
4.60698 7.31964 4.37079 50 57 41
-0.253189 14.6996 6.10419 0 11 1
-3.07321 6.91566 11.9796 11 21 7
7.45981 -15.517 -8.28069 125 133 102
0.697618 -2.43274 30.2403 71 87 79
3.62348 3.1498 22.1824 65 67 51
-8.74559 -14.8167 8.0706 71 85 75
4.91205 6.82697 0.725925 3 12 1
4.4994 -21.5862 -48.4341 80 57 17
6.02337 -0.0690231 -9.77638 12 56 43
5.86652 -16.6921 -9.75652 186 212 178
0.0441189 14.0547 16.8269 37 42 12
5.62468 -21.4565 -42.7016 65 61 40
3.1414 10.9228 11.2825 3 17 2
2.19729 12.9969 13.9189 113 72 23
-1.45167 15.798 23.6597 89 92 67
1.26144 23.9317 -10.4851 37 24 8
3.43468 12.2208 15.488 15 68 51
4.43262 9.4987 11.5743 2 34 17
-1.6606 10.504 4.79354 48 27 0
4.55534 -15.5282 -24.7509 61 65 54
-5.7467 4.67023 4.98706 2 39 26
4.75048 5.49413 -3.10789 32 33 10
5.03467 -10.1427 -7.66238 159 170 130
-1.26625 11.2886 17.5707 71 50 5
3.57269 -10.6015 -18.6125 68 55 32
4.9141 -9.95975 -0.997574 74 89 79
-4.83811 3.1987 12.3312 65 71 61
1.80581 23.7964 28.5734 50 57 50
0.568436 16.929 2.54586 9 18 18
-2.22369 -9.08082 -18.7793 80 82 66
0.324579 21.6508 -11.881 0 36 16
2.42588 -8.88229 -22.4743 119 71 16
6.77544 -8.52341 -0.855118 74 90 79
-5.44632 -1.90968 7.27409 70 75 59
-0.163739 13.7308 6.07944 10 20 2
-1.12411 4.32195 16.0091 61 73 61
-10.2473 -5.07425 6.25157 70 72 55
-3.72464 -0.114571 -11.4718 35 55 35
-0.775536 13.4679 -6.82463 0 7 1
5.26926 -18.4569 -34.8152 79 44 0
3.7345 10.2851 16.3904 21 62 49
-7.85287 -21.8181 15.1817 57 65 60
-0.510445 16.985 39.2945 78 91 83
-0.615852 1.93095 -16.3538 68 75 59
-1.42311 20.7438 31.4428 74 91 77
-0.362759 0.489388 -18.8844 67 58 35
-6.88439 -4.45499 -8.12271 68 100 82
0.972855 19.5594 -14.8599 7 36 11
-2.36523 9.76142 2.91501 2 11 2
0.423676 15.137 -13.676 60 36 0
-0.645867 22.8431 2.70882 36 26 6
-0.648834 15.8843 -6.33523 76 65 22
0.161289 5.96986 -19.387 0 17 12
5.15627 -17.2874 -29.7043 68 47 15
-2.1395 8.35842 10.9216 27 38 19
2.46019 15.878 -15.7515 2 11 5
-6.1897 4.16277 2.7676 2 40 32
-0.922043 24.8248 -0.811337 65 33 9
-5.09982 6.29227 2.69982 9 28 9
-0.874296 13.5507 -4.93951 37 53 24
-8.17869 -21.5488 15.5072 45 53 45
4.58414 4.38956 -6.10545 1 8 0
4.8833 8.62273 9.78658 1 42 31
-1.83449 -7.1338 -19.0555 69 96 80
1.23002 15.1577 32.7572 60 70 61
-0.561794 9.48423 -11.573 0 14 2
5.98761 1.69233 -3.84604 1 28 12
3.95994 0.671394 28.373 78 94 86
-0.852571 -14.1215 -24.0856 75 84 70
0.260947 16.8864 5.65503 31 49 36
4.52201 -21.2785 -47.6678 112 92 22
4.35119 -20.8961 -47.7027 105 78 13
-0.730808 12.2071 16.7766 35 33 11
3.26954 18.0111 22.8017 71 80 72
-1.75425 -12.6243 -19.9802 67 78 65
7.63504 -1.27335 -2.39154 0 24 13
-1.95757 2.88571 14.9727 65 72 62
-5.23363 -2.15322 9.76072 80 97 76
0.46743 -16.2203 -29.7479 71 78 62
1.58839 22.1216 -9.65482 27 35 20
-3.70252 -2.78398 -13.1439 5 58 42
-6.01399 0.667168 4.36652 36 58 47
-2.01886 9.75643 -2.48574 29 15 0
1.39677 -0.128197 -16.1959 91 74 33
-1.012 23.9153 -1.23644 59 27 0
0.798073 2.11578 18.968 57 68 58
-8.02145 -18.723 6.77086 117 135 124
3.09345 -17.7946 -38.6133 107 96 63
-0.173109 16.9121 21.1934 75 57 17
-0.0393543 16.1146 8.21655 60 56 39
-0.894434 14.8498 2.10239 9 30 15
-5.69557 5.28654 2.06131 4 38 26
0.250017 14.5873 16.8093 8 27 15
5.86092 -16.1933 -9.74242 195 205 159
1.43455 22.0165 23.1223 142 125 80
-4.51396 1.45182 13.0209 66 66 51
-0.463158 20.1387 24.1103 84 83 55
-0.13488 12.9153 5.77907 57 37 3
-1.16207 11.6757 17.8328 76 56 3
-11.1416 -14.91 6.93498 71 83 73
-0.352654 1.25383 -17.5789 56 59 39
-9.98077 -2.86183 1.10157 71 78 60
-0.767021 11.1637 -2.13438 63 44 6
1.60775 19.5467 33.8244 69 83 74
7.32954 -22.447 0.67778 60 63 51
-5.1626 -9.03817 19.4608 53 66 59
1.3386 11.9918 11.9066 59 36 9
-2.85679 0.151787 15.0105 74 83 70
1.08347 -14.2305 -30.3812 105 97 61
-7.20858 0.894829 -5.571 2 40 30
-3.23557 5.24939 -7.33669 7 22 7
0.445051 22.5413 32.9633 65 74 66
-0.649714 10.4641 24.7385 67 78 69
4.81063 8.61494 8.69046 1 52 31
5.63043 -20.8933 -42.404 75 56 21
6.08818 -8.0035 -6.52659 123 151 130
1.19368 -6.56699 -21.7775 133 86 15
-2.29168 9.92017 1.38945 4 28 8
4.787 -4.50413 -11.7606 5 100 76
1.93988 -17.6204 -35.4404 76 82 66
3.54872 4.56517 20.2136 74 87 74
1.57889 19.965 -8.7773 20 24 14
4.07443 22.0352 29.4577 66 79 69
-0.137478 11.8462 -12.611 0 20 6
6.93324 -11.0322 -1.9236 75 89 80
-5.42993 -21.6953 13.2673 61 70 61
1.91176 21.5393 -13.1743 34 31 19
3.15825 9.84193 19.6278 69 83 73
-0.261124 19.268 -9.33519 9 18 3
-1.55973 20.646 30.3999 62 74 63
-6.16599 -0.165962 4.09711 8 48 37
-0.193657 12.5611 5.80369 72 43 1
0.21376 21.5897 0.361015 96 44 0
4.85144 2.72716 -8.51283 6 16 3
2.53774 -0.389427 -14.2532 4 32 12
0.605856 -17.4857 -29.1061 52 61 52
-5.44922 -0.561996 14.3561 72 44 7
3.37905 12.5655 20.2724 64 76 67
-2.97923 -4.75496 -14.7854 21 57 26
-2.82087 -10.9945 -12.5017 61 73 65
-2.63942 18.2683 34.182 59 70 61
-1.21372 21.5697 -2.71218 2 11 0
5.8053 3.83824 7.22761 4 44 32
-2.17424 -12.163 -18.3866 80 91 78
1.97456 2.63449 27.8635 66 68 53
-1.58041 14.2614 25.7326 58 67 56
1.90421 17.9005 -11.9751 8 33 16
-0.960175 5.83132 17.6592 56 67 56
-0.687962 18.6522 -6.7412 45 48 11
-8.58897 -11.8253 7.69019 73 83 74
-5.67049 -8.54611 20.0711 74 89 81
-0.831741 2.08686 -14.4965 25 28 3
-5.92348 5.03357 2.39636 10 42 18
2.83607 12.7225 22.2125 63 74 65
0.438991 13.0978 8.6727 63 49 25
6.67943 0.911201 -3.06655 2 15 0
1.96627 17.5753 19.0733 124 99 45
-1.5607 9.99579 16.948 81 70 32
2.72047 -10.4842 -24.6977 105 41 7
0.356852 13.9967 -14.6553 51 45 31
-11.8643 -20.2831 7.32732 110 140 122
-8.56417 -12.0664 7.7084 75 83 75
-0.813217 19.0105 -6.4605 4 28 1
0.88438 19.9972 -6.19661 53 37 0
3.18982 -3.33872 -14.1898 31 55 39
-0.0219536 22.558 33.0386 65 79 69
0.871498 13.5752 -19.0739 4 4 2
8.77025 -19.6809 -7.00894 128 108 65
-9.94233 -5.25346 2.98903 69 88 76
2.36369 2.96421 26.0711 67 67 54
0.645042 20.7802 -1.38943 25 27 23
0.579849 20.8735 -14.372 12 3 6
0.754856 18.205 -0.82465 11 38 15
5.03505 -4.55744 -11.5832 0 101 75
1.04306 16.9571 -3.2737 4 16 12
2.85447 -7.03357 -18.4509 7 10 0
-10.6535 -17.4743 8.55786 83 97 87
0.0265198 21.5505 -10.4749 2 12 2
-3.62362 6.53745 11.8763 0 17 5
1.06542 21.8638 23.1326 132 114 60
0.935707 1.40724 -19.7612 67 52 19
-5.22157 5.99802 0.0268388 0 7 2
-1.11357 11.279 1.72144 68 31 0
1.19382 14.0605 1.71812 19 28 13
8.0384 -3.38822 -1.46104 0 39 24
-0.387423 14.3933 -9.23852 87 72 21
6.51894 -18.9926 -2.33546 52 47 26
10.294 -22.3496 -4.31639 110 126 109
-2.06094 10.0699 0.0535765 31 38 19
3.33671 -11.616 -25.0394 82 43 8
-7.34407 -19.5846 11.3739 51 55 45
6.04679 4.44005 -0.595581 21 50 23
4.12194 -17.4531 -37.2551 84 40 1
-0.817139 20.7161 5.39787 50 40 3
5.53503 -19.8691 -36.6841 66 45 3
-2.49312 9.1075 5.70183 1 16 0
-1.97129 6.97943 13.7379 7 35 20
-0.112436 20.6905 -8.76158 60 31 0
1.66227 12.7902 3.99806 79 49 0
-1.15623 17.7679 -2.62879 2 27 8
0.507561 -9.40957 -24.7048 128 67 9
-7.34011 -3.91903 18.9729 60 53 31
-8.2335 -6.6519 20.0907 68 86 73
-6.26081 2.23519 3.40319 0 45 29
4.97792 -17.8542 -34.9551 89 50 5
-5.80957 -4.59111 7.61994 69 80 69
5.46628 -5.07533 0.152 66 81 73
-2.20197 17.2923 25.7877 96 101 78
-5.7291 2.00968 5.90388 5 42 27
0.415535 22.6424 -4.11555 94 56 4
-0.00662994 5.31107 -18.5627 4 15 3
8.37952 -19.7828 -8.16187 120 108 71
1.05471 18.0045 19.5516 118 78 16
-7.36114 -0.901955 2.82109 63 52 4
-1.9181 -8.50995 -19.8262 91 90 57
-1.62571 19.7077 36.8105 64 76 68
0.115583 1.72483 -20.9531 128 124 92
-1.22762 9.53508 10.6795 2 17 7
0.0289698 14.7287 8.15951 61 63 52
0.353065 11.3204 -15.6567 22 22 9
-5.17437 2.87365 12.1517 56 68 54
2.41445 -1.93488 -15.4744 0 34 21
-5.20264 2.01759 8.5895 80 91 77
-0.437012 22.7028 1.43475 31 40 35
4.99694 -0.776222 -11.6057 21 60 29
1.38107 6.02179 21.4346 68 83 71
-0.643787 6.60135 -13.0079 45 63 45
-2.55379 -11.5508 -17.1072 66 80 68
3.84564 10.4225 8.5281 2 18 7
-1.90086 1.29761 15.5419 69 74 61
-0.0325451 25.3769 -8.43827 60 67 58
-0.182365 9.5901 -13.3085 62 59 35
-1.5153 2.50248 -12.9661 23 42 11
8.28123 -21.5484 -8.11739 158 184 160
1.8146 12.35 3.59384 72 36 0
5.38668 -19.3329 -2.92748 45 49 37
3.09298 -15.5305 -33.6377 106 84 28
-0.561768 2.34894 16.9096 63 70 58
3.11096 -8.20148 -18.3861 0 35 22
0.145842 13.0941 15.2903 4 41 10
0.69289 16.5124 -2.89733 50 56 48
-0.826836 7.35601 -10.6511 59 56 38
-7.77044 -8.31056 20.1866 78 90 82
-0.67791 16.401 -8.39619 0 5 0
2.43766 -17.4969 -36.7205 82 81 58
2.2442 -17.8864 -36.9716 74 78 48
1.36107 -11.0164 -26.926 137 78 14
2.39054 17.1908 -17.0763 103 73 21
2.81107 -5.4133 -17.296 0 22 12
7.24982 -0.514864 -7.86935 30 96 70
9.08816 -20.8494 -1.24378 48 41 24
-3.68012 6.71327 -3.40112 6 18 5
4.87165 -18.3602 -6.73334 75 78 66
5.34924 4.54367 8.72619 66 76 65
1.32164 20.689 -8.12925 49 27 2
0.545143 0.153393 28.0498 101 87 43
0.231056 11.7123 7.98495 64 48 13
0.594408 25.2498 -6.30367 16 32 18
-1.11911 9.71941 14.8697 52 39 4
-6.22183 -10.3997 19.7035 66 81 72
-6.25061 2.89643 3.01538 2 49 28
0.181458 11.7773 9.06326 62 33 0
2.17224 -0.920231 -15.5423 51 80 52
-7.45354 -21.2904 14.2638 51 62 52
-7.01397 0.851055 0.482882 63 56 26
-9.78851 -7.1408 7.38448 75 88 76
-1.43253 13.637 24.8629 62 72 62
1.22365 15.9289 32.6805 58 72 64
2.83817 -20.9808 -5.41998 78 87 70
-8.1831 -5.50948 18.6371 88 84 53
1.00803 5.62981 21.3573 64 73 65
1.37828 14.0135 0.397346 43 49 39
2.88955 18.9646 31.6276 65 78 67
-9.12654 -17.6447 9.04607 78 93 84
-8.60257 -4.79644 -4.35113 11 82 67
5.08735 4.89931 11.5719 1 50 33
2.46161 -18.8617 -39.1001 81 86 65
-4.19518 5.04038 -5.57689 8 16 1
8.14782 -19.1393 -3.69442 53 39 27
3.46996 9.97918 13.7361 55 59 47
-0.152767 25.777 -1.96339 41 30 11
-6.15847 -4.00573 -9.7191 85 94 76
-7.93047 -1.36655 2.94695 66 40 2
-6.15728 -0.633286 10.5078 93 86 48
-0.791762 11.5901 2.63023 63 37 0
-10.2376 -7.09941 5.05424 81 98 85
3.96664 3.42554 20.8682 69 74 62
-1.46965 14.4878 24.3785 78 86 70
6.35552 -16.736 -9.66669 185 200 161
-5.54021 5.3693 4.95251 5 41 23
-1.39325 9.85105 20.4683 62 66 51
-7.2621 -3.43709 6.5577 72 48 6
3.29911 15.6087 22.0396 64 76 68
5.33484 1.89182 9.57832 63 78 67
-2.92491 -0.790096 15.1166 75 87 78
5.41487 -4.66666 -11.1751 1 80 60
-0.553268 12.6295 -9.39798 0 8 0
4.28606 7.83389 5.16169 27 52 29
4.41089 -13.9928 -23.2886 76 53 26
3.82204 -14.461 -29.4198 79 37 0
3.67981 10.1154 17.7455 60 75 67
1.18021 -17.8386 -33.1371 67 73 59
0.20623 -15.3699 -28.5173 86 86 64
-5.21684 5.99577 -0.311273 1 16 2
-0.477813 20.9289 4.65823 2 8 1
4.4369 6.30199 -2.55138 9 25 8
-0.590515 3.71738 -14.762 5 38 30
5.6328 -21.3557 -43.1192 72 60 21
2.67203 -21.6666 -2.26942 53 63 49
5.22253 5.9458 7.62865 1 42 26
-0.982437 16.7829 -3.08743 66 47 12
-2.41675 19.534 30.2669 63 69 59
5.8784 -18.8602 -3.29546 55 54 39
-1.66336 -8.81076 -20.8757 91 89 61
4.7667 8.91396 8.9079 5 35 23
-6.42871 3.47131 0.539635 2 29 15
1.30828 15.246 -3.83297 6 27 2
-10.2336 -20.8829 6.43449 160 195 171
0.0188675 21.9418 -8.49072 108 71 27
-1.46107 8.71265 15.6489 77 46 4
0.774647 23.2804 -8.2744 83 46 2
-0.0643592 10.294 -15.3533 0 19 7
-1.74303 -11.0034 -21.1726 72 82 66
-0.229538 15.3699 7.49315 58 44 9
-2.20445 9.66654 0.0529494 10 10 5
4.11861 -13.6056 -25.322 80 52 18
0.236225 8.08849 -18.5619 21 27 8
7.38906 -0.565544 -7.40071 1 59 31
4.22862 1.55685 25.9155 70 82 71
-8.45696 -17.3979 8.26848 77 88 75
-7.73553 0.476978 -3.48498 22 39 29
-0.670204 14.0316 -6.85262 0 12 1
-10.348 -8.42708 6.42415 63 79 67
2.93555 1.22894 -12.06 21 52 40
-0.258537 11.8729 -11.3037 78 61 20
4.06624 -12.7657 -21.2791 66 53 26
1.11058 17.88 -3.68921 4 4 0
5.72521 5.01326 -0.593452 39 47 36
0.482357 -0.418858 29.5933 70 77 66
1.76695 12.0907 11.7078 58 43 21
-1.34343 21.9132 33.1253 66 79 68
2.11571 12.4094 7.61841 59 36 0
5.48346 -19.6951 -38.2733 68 43 4
-2.95597 13.5131 36.2467 53 62 52
-1.97381 22.4796 31.456 62 71 62
1.68826 23.435 -11.5044 83 54 19
-0.633564 13.6835 18.3075 78 54 7
6.20636 4.82475 4.42904 3 28 15
8.22822 -9.58804 -2.01698 74 82 76
1.20652 16.426 17.5969 133 90 17
-0.415061 22.5231 2.62879 21 29 18
1.86449 -17.0524 -34.8564 85 88 71
1.82051 11.9959 1.54586 71 38 0
-0.794075 14.4759 -5.52223 75 73 31
3.42769 -1.25967 -13.1337 0 43 3
4.22975 -10.9693 -1.96 68 81 72
3.34983 10.3451 4.28493 12 38 27
2.81368 5.65913 -8.62553 0 23 0
-1.01561 16.2603 -0.39608 33 31 6
4.46674 -18.2622 -7.60882 72 75 62
1.92678 3.39477 20.8828 68 80 70
-2.14399 -12.4766 -18.0191 61 73 63
0.0303802 3.50807 -19.5574 75 80 60
-0.657219 13.1807 17.9332 100 69 8
-2.30475 -1.49833 14.1992 73 87 75
-3.01991 15.4393 30.8816 60 74 63
1.01863 16.4003 2.43659 33 52 45
-6.1229 3.1917 -2.39623 8 40 30
1.79042 8.67759 -18.9432 19 34 17
-1.18886 12.1286 18.5912 90 63 4
-1.4023 1.57395 -13.5771 33 68 43
0.263945 12.4686 -14.4661 3 32 6
2.32233 15.3399 -15.0092 5 11 0
2.01602 -12.3797 -28.6443 115 54 11
8.42491 -1.96863 -4.28883 21 35 26
-0.160347 7.33786 -16.4701 3 14 5
0.868656 19.9799 36.191 67 82 73
4.84368 -1.42307 -12.0643 11 76 50
0.954437 -15.8181 -31.0405 79 87 63
-0.187668 -1.45485 -19.5084 64 51 18
-7.03549 -19.9412 12.3245 54 58 45
2.39408 -22.1115 -4.31567 90 103 84
0.428955 17.7624 0.55732 62 40 2
-0.838448 11.1474 15.3802 53 37 3
-4.70911 6.20617 10.7573 8 34 24
0.448875 11.9763 -15.1681 80 72 29
-0.262802 14.9451 -10.983 4 20 7
0.0714951 10.0817 -14.3509 32 34 4
-2.26134 17.8898 32.1734 56 65 55
0.985462 7.04309 -19.9224 140 133 76
3.05305 -22.5758 -45.5605 48 57 53
-1.27854 21.8605 0.187413 7 26 4
0.955931 22.7397 -5.47851 28 38 27
-0.150008 9.81474 24.1841 71 82 72
1.30837 13.2561 7.81455 73 60 38
-0.605015 12.3372 -9.87254 0 31 12
5.50696 -19.7092 -37.8871 76 48 2
2.83361 -20.4676 -42.9487 59 64 52
-5.5657 -4.51996 18.2121 67 75 65
-1.63579 19.3421 37.9851 58 73 63
1.59592 -5.4212 -19.7166 95 60 4
6.37249 1.4598 -1.22913 75 81 63
-4.36286 0.0351334 -10.4053 25 55 38
2.74877 -21.9447 -42.2087 59 72 62
-1.24472 11.7825 18.2206 94 64 4
0.89814 18.6301 20.5067 112 80 9
0.676319 19.5616 36.6367 68 81 73
-4.13076 -6.7601 -12.5834 3 59 38
-7.39294 -10.2949 19.9528 76 93 83
5.42962 -19.6879 -39.038 77 45 0
-2.40294 9.16737 6.01013 0 2 1
6.03908 5.62576 3.58071 19 42 33
-1.52436 23.0634 1.41745 3 2 3
-4.45315 7.31398 1.36784 1 2 2
5.10369 6.57046 5.23721 8 26 12
1.16285 14.4932 7.1548 14 38 30
1.48 -3.72481 -18.5099 110 70 11
8.62612 -3.08395 -5.7683 0 49 38
8.95659 -5.01855 -2.86013 63 79 64
1.3581 18.6557 35.1559 65 79 70
0.631974 15.7866 3.19189 47 40 16
0.750843 20.1491 -1.55079 10 20 5
4.92292 -14.3246 -9.32896 216 213 177
0.53212 16.8053 -13.458 0 33 7
-0.65111 13.6397 -8.3033 7 29 11
-1.05704 23.1331 -1.36411 48 28 1
1.5017 12.6901 -19.4969 37 83 46
2.46893 20.8825 31.302 64 76 68
0.405323 17.0397 5.43314 10 30 24
5.64027 -19.8055 -35.9549 79 50 1
-0.807602 2.53148 -16.1014 43 80 66
7.19464 -0.856621 -1.97234 3 19 1
1.45837 7.63496 21.7009 67 83 70
-2.09463 -9.76851 -19.4918 88 92 72
0.767719 21.2899 -14.2928 38 18 0
0.147867 -9.83549 -24.9755 120 84 13
2.26604 16.8812 -15.686 10 19 1
-0.803284 7.95304 -9.5528 69 45 0
-0.353485 -12.0014 -25.9384 86 73 42
-9.19444 -3.07285 -2.51854 31 96 75
2.56278 -22.306 -2.09094 55 63 51
-8.78965 -7.26677 18.6955 86 92 72
-2.41872 8.13552 10.5593 12 19 2
-0.748943 21.8129 -4.67361 63 37 0
-1.25525 18.7801 -2.64703 0 28 10
4.21412 2.68596 23.3853 79 83 66
-8.60357 -0.706482 -0.273035 65 37 0
-1.40894 8.67888 15.3209 66 41 0
-0.502941 -3.75087 -19.151 81 84 62
-13.0141 -20.8725 11.865 64 76 66
-8.19029 -21.9052 15.562 49 56 49
-0.600516 15.9334 -8.9282 0 34 12
-0.294472 16.3908 5.77731 0 18 3
4.19377 7.21861 -0.904681 19 44 16
-3.18581 -3.09938 10.9272 69 82 72
-6.43854 -5.12685 -8.51328 48 72 61
3.27987 18.3885 28.807 58 70 62
3.65524 1.14685 29.3032 69 83 72
1.57426 20.2931 -9.01293 14 29 10
-1.04876 16.8176 -2.76654 48 44 14
2.31776 -6.82892 -19.7127 29 41 42
3.37871 -14.3295 -30.315 91 42 4
-0.266403 13.181 16.4648 28 29 7
-3.2985 14.1089 35.7216 61 72 63
-3.79077 7.43532 6.19514 43 53 34
2.08028 7.58882 20.7797 70 82 71
5.21434 6.92849 2.12619 4 27 10
-6.43946 -6.51344 20.5276 74 87 79
-5.97425 -19.8258 10.4643 75 77 59
-1.02146 12.5955 26.3556 52 66 56
-3.56393 7.80373 5.50339 15 16 5
1.53195 12.5326 -5.82169 8 30 12
-1.01719 12.1308 -3.5878 1 16 1
-9.18928 -6.48671 -1.1197 0 38 27
1.37579 21.74 33.7178 66 80 69
5.7064 -12.879 -8.49942 168 128 59
-5.72108 3.50441 -4.46355 3 68 53
0.756393 -13.8755 -29.4263 93 80 54
-2.19613 -11.9186 -18.3907 80 89 76
0.593388 17.231 -13.653 0 28 5
-0.603275 -15.1279 -24.6211 76 89 77
-0.126961 22.7538 -11.3824 10 6 0
-9.80285 -8.35381 7.48074 76 90 80
1.75542 -18.9042 -36.0807 64 66 45
3.09097 -19.8335 -43.1065 68 77 60
0.548132 -5.24251 -21.733 158 159 122
-1.3823 9.82896 21.3341 58 63 50
-0.859953 25.0847 0.849884 42 44 32
-0.748165 8.91438 -9.4758 78 67 38
0.0737419 15.9339 -12.1306 54 58 34
-0.802853 12.9396 1.12089 9 26 11
9.33172 -20.8838 -6.82992 104 109 89
3.04837 1.57323 29.4381 68 79 68
7.91985 -5.62868 -7.03492 6 89 73
-1.54271 14.0527 25.3043 60 70 59
0.713295 24.1115 -6.74755 29 32 16
0.877838 1.07891 27.9303 99 86 46
-5.08306 5.13096 6.71023 4 44 31
-5.72738 3.12769 4.9437 0 46 28
-0.0937653 20.1893 23.1835 94 76 37
-3.36444 5.47677 12.806 58 61 44
-5.32344 4.78868 6.41473 26 58 48
-2.94167 15.4911 35.1112 61 73 62
2.58932 23.2421 30.6749 54 68 60
0.0161533 16.3814 37.3727 64 80 72
0.1315 13.21 -13.6194 1 21 7
0.532646 2.30194 18.6376 56 67 57
-0.541367 17.8182 -6.79933 97 69 17
-0.804413 18.2996 -4.38894 1 4 0
-4.2439 -7.11071 -12.1533 1 58 38
3.9366 2.17448 26.4851 66 76 64
-1.09317 20.657 25.5168 96 99 72
-0.85218 11.4057 0.399703 70 35 0
3.26378 -20.476 -6.09605 71 79 66
-8.96969 -16.9564 8.80118 76 89 79
2.7758 11.1678 10.9835 6 18 5
2.82402 -22.1208 -40.7512 45 57 49
1.85987 1.69234 -14.3615 94 70 2
3.52398 22.1673 27.9751 113 133 117
2.23463 2.38051 21.9295 61 68 59
-1.58443 4.02094 -11.721 60 41 0
5.95866 2.03264 -4.70518 2 32 12
0.88312 -15.1626 -30.5371 81 74 54
1.37763 16.1195 -3.95698 7 14 1
-1.15076 17.7569 0.255546 37 39 13
3.42253 10.3116 5.04049 1 24 11
8.22516 -6.13176 -5.67764 4 74 55
-0.999914 4.41164 -13.1674 13 42 28
0.235263 23.6377 30.8769 61 71 62
5.9056 2.99646 7.25159 35 57 41
-7.45812 -4.53424 16.716 96 112 95
1.71462 13.0307 -9.71131 3 29 14
-0.0774078 21.0641 -9.1197 60 31 0
7.39096 -0.791367 -2.80589 40 57 44
-0.538857 19.9151 -7.24358 61 54 5
-0.892715 5.35083 17.4043 53 64 52
1.31045 17.2564 -9.40408 46 53 24
6.17628 -14.5335 -8.81867 166 156 95
-6.45578 2.20254 -3.15997 8 33 19
-9.73891 -4.81257 6.73674 73 64 40
-0.297653 9.69913 -12.7923 24 46 21
-11.8743 -18.9411 8.53013 68 84 73
4.66087 4.90343 -4.65189 15 41 6
-7.95527 -9.51411 7.18218 67 74 66
-1.67282 -6.99422 -19.3802 28 48 23
-0.891426 14.702 -0.245759 37 34 6
-0.151359 25.1376 -8.40917 47 55 39
5.62315 -15.9505 -9.72202 200 197 159
0.0721931 26.1005 -3.58904 55 29 8
1.21215 5.15282 -13.8875 50 31 4
10.1122 -22.5057 -1.22062 70 82 73
-0.449154 11.4189 -10.7699 60 62 30
-9.61363 -4.56214 0.209096 48 75 63
-0.0806046 26.1172 -2.3985 26 21 8
-0.361076 8.71492 -13.196 40 37 12
-10.6781 -20.4272 6.42989 147 180 157
-0.53543 10.3005 10.2392 40 20 0
-10.9396 -14.5821 7.30536 73 86 78
-0.300194 3.59851 17.4848 62 73 62
7.36415 0.0287552 -4.01705 12 51 36
0.929249 15.636 -0.882912 16 28 14
3.78301 -20.3725 -7.6321 82 99 84
-5.43742 1.76673 6.65915 66 73 67
-0.644669 17.1617 -8.58746 1 3 0
1.94067 18.9983 -11.6831 39 49 45
1.36142 14.6344 -16.8296 72 62 20
-1.09724 17.375 -0.366759 50 36 1
4.02966 2.92368 21.9384 65 66 50
-0.249542 6.75562 -15.275 0 11 0
-2.15316 7.53184 12.0631 50 53 36
6.45321 0.346298 -8.98196 32 69 32
-7.35012 0.8424 -4.94447 1 23 5
-0.748131 9.562 -7.77717 14 32 20
-6.12838 -21.1933 8.64095 133 161 144
0.819038 16.9436 -3.193 17 36 35
-9.60707 -11.9915 7.82673 83 97 87
0.571068 20.6052 -12.8222 65 36 5
4.26067 -14.1151 -22.8417 70 58 33
-1.88284 1.74342 -12.984 12 49 16
3.29959 16.2457 20.8645 73 81 67
5.03003 -19.5788 -41.5772 81 43 3
-1.23573 19.7109 2.83551 40 30 2
8.64252 -2.64032 -4.90646 3 51 40
-1.72757 6.86862 -8.59967 70 35 0
4.96977 -3.25036 -12.0412 3 106 83
-0.210023 25.3375 -1.50964 34 21 5
1.02085 19.3776 35.2866 64 78 71
4.73206 -0.397125 -11.6502 14 51 24
-3.4968 15.1555 33.8217 61 74 61
-0.742599 13.8786 -5.35802 80 71 40
0.692314 12.8104 9.81018 64 57 36
0.595436 18.4838 20.8961 110 82 3
0.508366 16.2724 -13.5509 28 40 18
-7.62507 -12.5408 3.52483 127 159 138
-4.55768 -6.49271 -11.637 51 87 75
4.24793 -17.1734 -36.5444 89 38 0
1.02034 12.7647 11.0945 63 43 5
-0.533603 11.346 6.15472 64 37 0
-9.29169 -22.4157 15.51 69 85 76
-1.00005 16.2394 -0.152218 53 41 6
-1.05017 11.6406 25.0691 55 67 57
-6.16865 1.48389 11.218 0 19 6
5.70929 -1.57359 -11.3005 25 82 61
0.0626373 11.6128 8.6558 59 28 3
0.465263 13.7929 -15.1217 7 48 25
-3.32348 8.17114 1.57568 30 12 2
0.814209 -17.4712 -31.0807 72 74 58
3.40279 10.096 4.36553 21 46 39
3.12941 -11.1856 -25.0344 101 43 2
-2.74934 17.7669 37.0594 54 65 56
-2.0621 -4.98729 -16.4251 4 60 42
3.60138 -12.8949 -26.5695 97 41 4
4.37313 6.81196 17.4175 66 78 67
-0.702805 11.8952 3.43242 66 36 0
-9.81912 -3.73009 4.91337 67 39 2
-0.490547 22.4201 25.5902 121 118 85
-1.0137 13.8316 -1.04683 4 23 7
-2.7521 18.0234 27.1003 87 90 66
5.30274 -8.30498 -7.15099 124 147 126
-6.30392 2.71983 2.67835 0 36 20
-2.38008 16.7005 34.9136 51 64 54
-10.7732 -11.4029 5.19827 95 116 99
1.01883 9.52378 -12.9051 22 26 8
-0.0476446 -0.857521 -19.8825 83 75 49
-2.91431 -9.97839 -16.2735 76 87 74
-0.291054 -1.69661 -19.0963 78 59 10
0.106615 18.1652 6.47168 11 8 0
-1.41494 1.07227 -14.1603 4 36 9
2.57134 -15.3152 -33.4042 117 87 37
0.388439 22.8745 -4.605 64 68 58
-0.0575714 11.2899 8.3313 59 29 1
0.999592 16.1786 -16.5395 6 28 14
0.0610809 12.8639 -13.6376 14 27 9
0.213327 25.3494 -5.54541 65 32 0
0.649681 16.7403 -14.9907 58 27 1
7.50353 -12.6764 -6.74906 152 119 63
-0.358077 25.0875 -4.84284 115 74 27
-1.15773 24.3642 -0.110344 44 31 2
0.352509 6.14879 -20.2041 3 6 3
0.187317 -7.85526 -22.9045 148 101 17
-6.48176 -1.10797 -8.19077 16 69 48
-0.592392 11.4776 -9.43702 0 28 13
-5.5322 0.339989 9.4947 86 100 79
6.94529 -8.7466 -5.74571 134 163 136
-3.70111 0.187958 -11.1492 68 75 52
1.63282 23.1853 -11.5533 95 63 10
4.27023 -20.5874 -1.90813 56 58 44
6.19538 -13.874 -8.55643 183 159 94
2.36722 1.3025 22.2349 54 63 52
-0.968666 17.9534 5.00589 20 32 6
-0.278301 18.0421 -8.01394 54 34 1
-3.31808 8.07929 2.67433 43 48 27
7.81334 -8.61764 -1.24038 67 80 71
0.214287 17.9233 5.51456 3 29 23
3.28289 -20.5262 -4.25617 55 56 45
-0.0268669 16.9319 -10.9296 58 49 14
-1.04968 -8.27128 -21.9295 110 91 42
-2.34417 17.3992 33.5722 61 74 63
4.89571 -18.9909 -5.7384 55 61 54
1.28234 14.424 9.84806 83 65 20
4.67013 -21.6958 -47.7051 99 87 44
4.29516 -22.55 -0.45554 61 77 68
5.37495 3.44135 -4.45135 23 44 30
2.34253 -19.0288 -38.8711 80 87 69
-0.634132 11.4184 15.5503 29 29 10
-5.50674 -5.75187 -10.4027 73 84 72
2.45508 -20.3684 -40.6654 75 90 80
2.79049 -14.3941 -31.4022 99 48 1
-1.64508 10.2442 18.9247 53 58 43
0.68993 17.9029 -3.4691 19 30 26
-2.85795 8.45588 4.99788 14 18 5
-1.05257 8.21282 21.3898 46 60 54
-0.0444641 18.6289 22.3028 115 88 29
2.97293 9.00691 19.5917 68 82 72
1.16992 19.0744 -7.15086 64 32 0
6.78858 -1.68772 -10.024 10 41 26
4.40023 -21.3605 -48.5172 80 62 12
8.40937 -2.39389 -6.19694 2 41 22
4.02892 -3.10204 -12.6343 18 108 85
-4.0657 7.509 4.79719 9 5 1
3.8501 8.31941 1.56151 18 44 23
2.36145 -20.9325 -35.504 54 63 56
0.120445 11.6364 7.58466 65 60 35
0.638069 -17.3303 -23.8321 51 64 58
-1.42621 16.3747 23.8779 77 76 56
-0.763191 -13.7781 -24.7068 75 87 72
4.75622 -10.976 -8.16149 169 176 142
-0.879164 24.3829 1.65732 58 45 16
4.07961 -5.33552 -12.7643 8 66 44
6.23154 3.06912 -1.39315 10 48 28
-0.278168 16.339 7.51224 49 36 7
-2.18733 9.83938 4.95893 1 3 0
3.54813 10.4003 5.88811 2 41 24
-0.217743 -2.15508 -20.5237 107 102 61
-0.920929 24.1883 1.79385 61 44 22
-10.7283 -16.8697 5.45336 110 141 121
-1.99675 -11.8301 -19.4403 77 84 68
-7.67404 -6.08657 17.8388 118 134 113
-0.860275 19.8913 -4.5573 33 24 0
0.381031 18.0116 37.854 67 82 73
1.70492 12.7712 9.72863 65 50 19
-6.50177 -19.8032 11.8054 49 45 31
4.71823 -18.3555 -38.8162 70 29 2
-8.62822 -9.2653 18.3593 116 116 88
-0.241791 14.1761 -9.68913 14 19 4
-0.425898 18.1695 -9.26962 53 60 27
4.77626 7.51665 7.45515 19 58 45
-4.92362 5.26439 8.55643 0 18 1
4.70898 6.7793 -0.480522 0 9 5
-1.66553 -2.80206 -16.0315 0 55 20
0.670354 15.07 8.74149 60 50 30
8.86814 -21.4189 -7.72209 152 173 141
1.8321 23.7029 27.5555 55 61 51
-10.3549 -8.37209 4.9474 89 105 89
-0.250183 25.4092 -6.3266 63 25 1
0.824398 17.8776 -0.621132 16 27 10
-10.6624 -10.3023 6.21111 71 83 73
-0.505981 16.8645 6.35852 0 12 2
-0.0387344 19.335 5.94795 18 31 13
-0.299036 1.79503 17.2085 62 71 60
-0.51207 12.3654 4.26232 58 51 25
-11.4019 -18.4264 6.83313 103 135 114
-1.40886 21.9854 2.19305 43 39 11
-5.17706 -20.4314 11.4301 64 74 62
-0.514422 20.8154 3.67988 65 39 2
1.98243 23.696 29.0116 44 52 46
-0.7883 18.8343 24.6155 98 93 69
-9.458 -16.9046 8.90665 82 99 88
-2.46582 18.3442 35.8141 56 65 55
1.16698 15.8388 -6.09292 47 25 1
-1.80108 10.0834 -1.4332 42 22 0
5.452 -12.8279 -8.63297 171 139 67
2.72478 11.7956 8.16903 25 23 2
-0.988762 18.7261 -5.96213 4 23 7
-0.799084 13.9924 -7.48539 0 11 1
-0.688301 -13.6155 -25.0119 69 79 64
5.35593 -20.5198 -44.5515 64 47 11
-1.05357 10.1792 8.90474 29 24 5
0.286594 21.8777 -0.900452 11 15 0
-7.23289 0.982414 -2.74805 35 31 1
-2.98911 5.15322 13.3059 66 71 55
-2.40457 0.19706 -13.0615 3 42 21
-9.91811 -8.85729 4.18266 127 146 130
2.21318 17.3212 19.2057 123 111 73
-5.63316 3.19568 11.4327 20 53 42
-3.62454 -4.95307 -14.196 0 52 21
9.97962 -20.5704 -2.45866 61 49 22
-5.97723 -3.96327 18.8594 65 71 61
-2.21724 9.10116 8.66321 0 0 0
-0.855888 12.911 18.2703 86 66 7
5.18528 4.85906 14.464 67 78 68
-2.34464 8.51968 10.1709 1 13 0
7.2218 0.439331 -6.64949 10 30 15
-9.86349 -2.7165 2.01074 63 45 9
0.0372283 21.7094 1.18631 45 55 48
0.708096 19.8423 36.6172 68 83 74
6.21334 -19.2357 -1.88087 57 48 28
-1.67981 20.0276 28.745 69 79 67
2.50749 11.8219 5.52362 12 17 6
3.58692 10.7908 6.84797 0 38 25
0.124237 13.7862 -12.4044 68 56 19
-9.6993 -17.1569 8.87113 83 100 90
-0.908512 18.214 -6.1234 1 34 8
-0.132225 10.0491 -13.4798 70 62 30
-9.31678 -4.10889 -1.55128 1 29 15
4.00341 -6.23127 -13.2942 2 46 27
5.16627 -21.8475 0.0137029 55 64 50
2.81189 4.84732 -9.28217 4 25 4
-0.483212 14.1408 18.8921 79 54 8
-1.52506 20.7047 0.716514 1 6 0
1.63127 19.8539 -8.9896 16 24 14
-2.31098 9.71683 5.46339 3 0 0
3.5664 13.0673 17.1591 20 66 52
1.73221 0.581541 29.7722 67 77 68
-3.9209 -7.96335 -13.2606 0 69 46
-6.5518 -3.18226 18.525 72 62 38
-10.1935 -17.4693 8.76337 84 98 89
0.901409 18.1066 -1.74559 18 24 10
-1.60768 10.6724 4.50175 56 26 0
1.86771 8.77225 -7.53658 116 84 46
-6.15341 1.91758 4.30159 0 43 32
-9.23573 -17.8355 9.13488 77 92 84
0.841618 4.22588 -18.52 5 13 2
-4.20741 3.96105 -7.16581 0 28 0
6.70303 2.65038 1.45344 85 86 62
-0.937998 26.2469 -2.51677 63 37 4
-11.8998 -21.2241 13.8483 63 71 62
3.26572 18.288 29.7387 96 115 101
-0.508343 -15.4561 -24.1443 57 69 60
-7.05554 0.376503 -6.28559 31 71 53
0.049921 -13.4345 -27.562 95 93 63
3.73952 -20.3538 -3.20047 48 51 36
6.2843 3.81157 5.45693 4 41 27
-0.850967 16.7819 22.6914 95 90 60
-7.47516 -5.98282 -5.05522 7 64 48
0.121931 -14.9118 -28.1636 75 82 68
4.13067 -19.4243 -42.9452 84 59 15
-0.552589 21.8534 -7.28145 8 23 7
-1.92516 -8.88927 -20.0085 74 78 54
-1.18023 24.7704 0.53062 10 24 18
2.3998 -21.7959 -4.31715 82 90 71
-0.788017 6.89218 -10.4694 61 50 25
1.44346 21.7869 -11.4365 75 52 0
-0.515335 5.97293 -14.4623 0 14 1
2.45031 -19.5314 -39.6786 72 88 72
1.46169 13.7184 -2.52406 24 35 17
-6.71223 1.27432 0.656093 61 64 52
-5.86935 -3.45601 18.3531 69 71 58
-0.766129 2.94774 -14.6221 13 30 12
-0.220085 9.24397 -13.6931 42 43 19
3.59535 19.7271 29.3372 71 83 75
-7.45002 -4.50211 -6.95931 9 83 65
-2.58683 19.2805 29.2381 60 64 48
0.468395 17.1053 -13.4252 4 33 2
1.42181 -1.52827 30.6049 68 77 70
1.11486 18.3376 19.8953 108 75 14
1.9009 12.1215 11.1714 65 74 60
-8.76219 -7.05341 19.5998 54 63 53
-1.45428 11.1235 18.1248 96 69 17
0.606418 -0.159134 29.5112 68 75 65
-1.19004 16.5655 -2.05099 4 33 11
-0.235058 -15.8834 -25.9895 64 71 62
-1.48891 18.9554 0.954277 1 18 5
-0.0536625 25.1488 -1.5176 23 13 3
3.23457 -2.13539 -13.5369 18 90 63
-2.11132 19.3222 27.4079 80 85 66
4.8794 -19.1783 -40.797 84 43 9
7.35432 0.138046 -4.31969 2 34 23
5.80373 -10.2928 -7.23337 163 172 141
-8.02357 -1.43527 -5.62826 5 64 55
0.861722 15.0268 8.19299 63 58 36
1.57771 0.22551 -15.7072 122 103 58
1.07799 -16.6933 -32.0477 77 76 60
3.09051 20.0947 25.6446 73 88 79
-12.7886 -21.8744 8.91359 97 120 105
-0.0571404 20.3332 4.9824 6 23 13
-8.63875 -6.29639 19.2943 56 57 44
8.36835 -7.58988 -1.84355 65 78 67
2.5929 -6.4261 -18.9266 3 21 16
-9.52032 -6.01692 7.36806 82 86 74
1.47377 13.0406 -6.40152 18 32 21
-2.11721 -8.12753 -18.992 100 96 67
0.273748 11.0392 12.4026 61 33 1
-3.08564 17.1162 28.0926 67 74 60
-8.17651 -3.66863 -5.45308 8 66 56
3.42247 -19.485 -43.0031 99 91 62
-8.72429 -2.01053 -4.19611 43 93 74
3.74509 -5.22577 -14.0931 11 45 14
-1.74601 8.68881 17.3106 62 62 46
-9.08351 -2.41762 -2.68796 18 54 35
0.317785 -2.3503 28.6697 101 109 86
-0.0290833 -3.79479 -20.7347 114 98 54
3.79023 22.6548 30.0095 54 66 59
1.75695 -7.09985 -21.48 119 57 7
-9.33001 -2.16621 -1.43375 17 53 35
-5.74142 2.74181 -5.39553 32 86 64
0.495411 -14.9513 -29.4914 93 89 64
2.15846 22.495 32.3706 67 83 74
-8.34537 -22.3226 7.06908 145 176 158
-2.6854 0.971313 -12.12 8 52 33
0.415194 -14.6048 -28.8522 91 92 71
-1.13358 10.3323 15.4511 77 50 5
-8.73622 -6.81245 19.5308 51 59 54
-2.59617 16.7434 32.3973 61 71 58
-0.201767 14.5323 -10.0097 4 12 0
8.48067 -7.91157 -2.2572 64 78 67
5.62307 -20.9088 -40.0795 68 52 22
-10.4229 -5.28206 5.57567 64 77 65
10.1281 -20.8411 -4.62949 131 133 105
-1.11523 15.9431 -2.26282 4 31 14
1.66248 1.66849 26.5334 91 89 66
-0.0232468 23.2688 0.172096 101 49 1
-5.67763 -1.76974 -10.0903 0 69 50
-1.70328 -8.38523 -20.5939 89 78 44
-0.126221 2.06279 17.5265 62 73 64
-0.318376 2.25701 17.324 62 71 60
2.27622 20.992 22.8259 109 110 88
-5.92673 3.70945 4.25994 0 47 31
-0.698013 18.5678 6.32715 2 9 1
-1.70585 -4.45912 -16.5904 4 40 16
2.18242 12.4093 -19.1541 92 87 55
1.73268 14.6251 -9.85342 15 11 6
-1.64672 -0.369623 15.7256 69 82 74
-0.976494 16.1941 2.32951 26 37 16
-6.40781 -21.3632 8.31734 130 156 142
4.31835 8.01528 5.55887 22 36 7
-0.00976562 0.609617 16.8029 69 85 75
2.2924 -20.848 -37.2233 52 62 55
4.1289 5.0509 -5.34007 42 30 4
-0.349392 -0.96917 -18.4213 74 84 60
1.84269 18.161 -12.4315 2 22 11
-0.786807 22.1619 -5.87961 0 8 0
9.98268 -21.6044 -1.44719 71 78 62
4.45882 4.57199 18.3921 67 78 69
-3.26145 4.12734 -8.53882 28 63 49
-0.109108 13.0914 6.60984 59 56 38
1.44053 2.84822 -14.2411 7 17 3
0.346687 17.1987 2.60606 13 12 3
-8.73816 -10.2177 18.3162 87 91 66
1.26336 13.8598 5.04771 7 38 21
4.69176 -17.7011 -35.9635 80 45 0
-0.839302 6.83093 -12.0955 1 29 14
3.6985 10.5062 16.0679 6 53 42
0.124667 0.341829 -20.3801 119 126 100
0.229509 8.25189 -19.5308 6 35 22
3.40325 6.09517 -5.84693 18 46 20
4.03896 8.383 16.6415 63 76 70
1.78618 -19.7623 -35.2551 53 67 55
-0.858624 21.0751 -5.10052 15 10 0
-2.03775 18.8534 36.5183 59 71 61
7.90038 -1.6424 -3.16728 5 24 20
-11.6329 -20.8527 7.03221 112 141 123
4.72685 -12.316 -8.63353 175 160 114
-1.25019 12.7136 23.7166 56 66 52
-1.39073 20.2747 36.5183 59 72 64
-11.2164 -15.7883 7.27306 72 86 76
2.16933 12.3148 8.67126 58 35 0
0.498505 16.8395 1.28158 62 43 15
-5.06453 5.75457 9.11203 0 4 0
2.26733 11.662 2.90454 4 9 0
-3.43818 14.7905 35.0058 60 72 62
-1.15591 22.7177 -0.071907 40 48 13
0.410023 16.7355 2.75511 13 17 0
-6.53144 1.80823 -4.90532 2 18 1
-8.4468 -6.08227 18.7427 104 83 39
-1.29014 19.5751 3.86409 1 16 3
4.82575 -16.8014 -31.3742 83 44 0
0.782603 15.969 7.65352 2 22 9
-10.5692 -19.8748 11.5072 58 72 62
0.369862 7.39184 22.3687 69 82 68
2.53925 14.8876 24.1789 64 76 67
2.87812 -5.02735 -16.6156 42 43 7
0.355435 14.2993 16.3815 17 14 19
-6.55742 -19.3936 9.7576 67 71 57
-2.04015 19.0813 26.9371 82 84 64
1.20951 3.28863 20.0608 57 75 66
-0.370679 19.599 23.5389 79 77 50
0.657135 17.5715 2.17701 23 45 43
-1.79551 -4.32953 -16.3748 2 56 37
-9.36734 -4.61864 -2.11007 4 53 39
0.715607 13.2655 -15.3597 0 38 12
-2.6947 0.600044 15.0775 72 70 54
-10.0138 -4.73839 6.42152 71 66 45
-4.45233 0.802555 -9.83698 0 76 49
-0.211369 18.6502 -10.496 2 34 14
3.38114 9.65051 3.07121 2 36 23
3.88662 9.27954 16.3735 57 77 68
-4.01047 6.95322 -1.21731 0 7 0
0.221027 22.5982 -1.04842 11 9 1
1.15561 16.4458 -4.53444 1 16 1
-1.39781 10.2795 21.028 59 62 44
-6.94987 -20.4885 7.57673 126 147 135
0.94799 20.267 35.9222 66 81 72
6.7177 -20.7855 0.318901 63 60 43
-5.17188 0.159786 8.97337 78 84 61
2.02372 15.5047 -13.6171 9 7 2
2.16808 19.583 32.348 65 78 69
0.325066 19.4269 -11.8678 75 52 19
0.863842 3.64463 -17.4441 17 35 21
4.0426 -6.34402 -12.9514 19 68 48
-1.50198 8.52316 18.2624 57 64 52
-10.413 -9.12301 6.14441 65 76 65
9.76405 -21.5951 -5.68541 91 101 84
0.645235 16.2924 4.0388 12 32 25
0.727585 12.6868 -18.6442 3 13 6
-7.00418 1.5135 -4.24502 4 20 5
-2.31099 8.73719 -4.52046 0 7 2
-0.046257 21.2175 -8.64378 80 56 20
2.43036 17.8235 -15.5371 13 8 0
5.01652 4.90439 15.9915 59 76 67
4.43369 4.86912 18.3189 64 79 67
-0.690693 16.8465 22.3905 100 81 40
1.52914 8.64435 -20.0803 98 96 46
2.31288 -3.9377 -16.837 1 33 14
1.34642 15.2021 32.5433 60 72 63
-0.388321 10.7643 -12.2071 6 28 12
2.1432 -0.278175 30.4366 71 86 76
1.37327 -18.8125 -33.9943 65 76 64
3.3435 3.12666 25.6255 61 66 50
-6.33996 3.63976 0.400373 10 33 16
4.90793 7.88536 12.0841 14 56 47
4.92195 -19.7942 -43.5518 63 36 7
0.300228 6.73221 -19.4125 61 52 25
-10.3178 -4.21799 4.37306 66 74 61
-0.956234 11.1401 4.49799 63 28 3
-0.422098 0.578739 16.5718 72 86 76
-0.6912 12.5662 1.48683 26 32 14
-1.28286 18.7342 25.3895 119 111 68
2.05463 21.3801 -13.6425 27 34 8
4.53387 2.34873 22.1047 62 71 62
5.56289 -9.32724 -7.0984 169 180 157
0.814766 -17.7768 -30.7079 65 74 61
-0.269485 20.162 37.5465 66 80 71
-0.787253 20.1101 37.5716 69 82 74
3.38722 2.71738 26.8454 59 69 56
-3.17018 -10.9066 -15.2197 70 85 72
1.06831 6.73155 -20.0401 125 98 35
2.04407 -16.9276 -35.1086 97 103 79
-1.21104 18.3307 25.0267 108 101 60
-10.9998 -14.2129 5.76773 82 98 86
2.43113 -10.5843 -25.0847 128 61 7
0.247337 22.9472 -10.3598 53 23 3
-3.02871 15.3063 35.3474 58 69 57
-13.1047 -21.291 12.681 65 75 71
0.453403 23.5002 -3.9887 77 42 0
8.04509 -1.33931 -4.07194 5 18 11
0.129501 6.29503 -18.5529 58 57 37
4.47483 2.41202 22.4727 65 72 60
6.46401 2.19028 -0.175797 87 86 69
9.32911 -20.1289 -2.4686 56 39 8
0.820942 21.2318 -6.85004 69 34 3
1.96356 -18.6934 -36.877 92 103 84
3.8583 -11.7919 -19.7362 74 51 15
-1.62859 21.3436 30.8506 55 70 60
-6.3503 1.63903 2.5691 5 51 39
2.22995 3.40905 21.1175 74 87 74
5.04544 -18.351 -36.9399 83 41 1
-0.541424 12.2704 -10.2127 1 27 9
-1.52367 17.4477 24.8372 104 92 49
0.270897 14.4657 -12.8753 58 44 14
2.31021 2.58628 22.0809 64 69 59
0.383331 12.6046 8.25262 62 56 29
-0.393089 14.5491 19.0701 91 66 9
-1.39389 19.652 26.0567 95 97 72
-2.35213 18.641 34.2416 54 66 57
0.502874 14.4672 -14.9907 39 37 6
-1.71531 7.7724 -7.34752 86 50 0
-1.47812 -7.65653 -20.5784 82 57 20
-1.67065 -9.96819 -21.2961 83 93 71
-3.09723 5.9447 -6.0732 78 107 86
-1.04665 19.2726 -3.33389 82 67 24
1.22929 1.75077 27.6915 85 79 52
3.99828 -20.3063 -2.97368 46 48 36
-1.93858 8.42828 11.2911 0 14 2
-9.12705 -2.10152 -2.40711 24 70 57
-0.18961 11.077 8.0428 58 28 1
1.34167 14.4634 -18.943 4 1 7
-3.5121 7.45248 7.39311 10 23 2
1.43392 -8.25354 -23.1028 115 60 5
-0.48156 16.71 -6.97894 81 57 7
1.86243 15.7826 -17.4844 104 90 30
0.404648 12.1974 8.98351 59 40 1
-0.132158 11.2147 7.33672 65 39 5
-0.253883 14.307 36.4649 68 84 72
-2.11303 -1.83632 -14.7583 10 67 47
3.33979 3.65022 21.3375 72 78 63
7.77144 -0.355843 -5.77929 0 9 1
6.16151 -18.3355 -9.47261 182 210 182
0.00386429 -15.8489 -27.7624 74 80 66
3.21739 -14.253 -30.4687 94 48 6
-7.8278 -0.244732 -5.58087 10 71 54
0.189949 13.1773 -13.964 35 45 17
0.377077 17.9881 -0.162609 33 59 58
3.24542 -0.361614 30.3184 71 88 77
4.35899 -21.2079 -48.333 71 55 11
-2.37179 9.42519 5.55406 0 4 0
-0.126703 16.6449 38.4491 64 79 69
2.51318 8.37658 -6.61123 97 49 1
0.387833 12.0965 -17.1288 4 25 15
-1.47473 10.9168 0.0568447 62 27 0
-0.406588 23.5577 1.76321 12 20 7
-7.44289 -18.9751 9.4275 57 57 42
1.61808 -2.03005 -17.2331 117 92 24
-0.567307 19.7503 24.449 87 88 66
-3.83455 -7.58396 -13.7847 1 64 43
-1.69807 19.4234 37.6279 51 64 53
0.0378265 8.67083 -15.4999 34 55 34
-1.43221 -13.747 -21.0506 66 78 67
0.999153 -5.0591 -21.325 104 87 47
-9.47772 -3.04918 3.89365 69 41 0
-1.33903 20.445 1.68075 3 1 0
3.73969 1.73013 28.1826 65 76 68
-2.23106 15.0454 36.8018 61 72 63
2.21981 11.1037 0.57132 9 17 2
-10.3249 -14.4342 4.3252 127 154 135
2.96661 11.5899 8.81227 7 38 19
3.31276 15.7727 21.6095 65 76 67
-2.93874 7.16837 -5.23346 25 61 48
-2.07886 19.9354 29.7433 55 59 49
6.60371 1.9474 4.5064 60 74 65
-9.8193 -2.67692 0.595981 75 72 53
5.17148 -13.8832 -9.17572 183 156 77
-0.29097 1.69003 -17.8774 73 73 51
3.4837 2.722 -10.0784 1 21 4
0.586399 17.8333 -0.222519 13 40 36
-8.69417 -16.8854 5.43077 126 150 134
-0.172102 -10.4391 -25.1611 103 89 48
3.76688 -20.0606 -5.04074 55 61 49
6.57807 2.83595 0.994614 79 80 57
3.92385 -4.92413 -12.9364 57 84 69
-10.7029 -11.5068 6.53265 71 85 75
-7.20401 0.869118 -0.765995 60 41 2
-2.89912 4.29785 -9.42255 3 40 27
-0.635797 0.794669 16.496 74 86 76
0.47838 11.3296 25.0724 60 74 65
-7.59466 -10.5685 19.7521 74 92 81
2.46776 16.4411 -15.8746 9 8 0
2.06484 1.29082 -14.4862 141 82 4
-5.78517 5.03409 3.44751 40 42 27
0.682697 24.4559 -5.64912 20 29 19
-1.30341 21.2616 25.8404 97 102 74
-2.06621 -7.54252 -18.9112 56 84 62
0.447792 -9.95153 -25.3121 116 73 6
1.38158 16.635 -9.98054 49 66 56
-0.712605 22.3848 -5.77623 1 5 0
4.43108 -4.17191 1.63589 60 74 66
0.176239 -14.1736 -28.3256 96 101 76
1.2745 13.7261 14.7854 119 74 16
1.9597 19.1337 -15.8178 91 55 23
-1.25092 9.34714 14.2519 0 13 5
-0.0473099 12.6665 6.82807 62 54 36
-12.6033 -21.5168 13.6402 66 77 66
2.78841 -9.77429 -23.089 86 46 4
-0.414442 21.0664 2.83335 3 13 10
-9.91294 -12.3788 3.87487 122 144 124
-1.59839 4.67245 15.2511 63 70 60
-1.92225 -11.0125 -20.0937 80 88 70
0.764618 13.4312 -15.5202 1 38 14
-8.52822 -6.85903 19.9332 66 79 68
-5.04273 5.60748 10.6069 4 18 3
2.11121 11.7804 2.26976 34 19 0
-0.166939 19.4404 6.40902 36 34 10
3.02852 16.264 19.8835 96 106 88
-0.17762 13.5729 -11.3904 2 36 10
0.24926 16.6891 19.5857 92 64 8
3.0275 -14.0644 -30.4253 102 43 3
7.2408 -0.843674 -2.29465 1 19 2
-10.8122 -20.0125 11.923 59 71 62
4.57503 -20.8781 -47.2418 68 48 12
-7.43423 -0.579441 2.28452 66 44 0
-1.98155 4.05447 14.714 64 75 66
-0.00275803 10.4538 -15.8141 0 27 14
-1.14305 19.6853 -3.1197 19 34 14
6.22849 -19.79 -9.06168 176 210 186
3.98547 4.74812 -6.60147 0 24 9
1.46198 21.8071 -9.20583 17 27 18
6.01376 5.57451 3.03428 9 47 26
-3.91178 6.77402 7.55387 3 19 3
-9.20517 -1.58042 -0.237446 70 64 44
4.73341 -17.0282 -9.51188 149 175 150
-3.09078 -10.4492 -13.239 54 64 59
3.08867 17.9175 26.0969 117 141 123
1.02702 15.3246 4.91401 25 39 31
-1.74139 9.73781 8.76604 1 1 0
-0.611084 14.157 2.78446 58 44 18
2.25772 1.44888 21.4087 52 62 52
3.58325 -7.40895 -15.2514 1 49 32
-10.414 -10.9896 4.65345 117 140 120
1.26465 -12.1162 -28.2691 126 74 5
-0.088501 12.5324 -11.888 57 44 10
-1.68801 19.7948 36.398 63 75 66
3.53164 -0.55101 -12.6901 0 47 29
1.88248 12.5391 4.77841 65 46 11
-6.92066 -2.29653 5.42934 70 53 10
0.640203 -17.5356 -29.7923 61 71 61
3.05858 19.2365 22.2953 96 109 93
7.66444 -2.50997 -8.61758 47 93 76
4.42347 -18.2275 -39.1106 73 35 0
-6.65902 -21.798 13.8361 61 74 64
4.63291 4.99249 17.7262 67 81 71
5.04552 7.31546 11.736 2 50 37
1.06073 -15.4914 -31.2213 89 91 77
-1.20957 24.9094 -2.73791 1 7 2
1.62369 13.1517 -2.85201 0 15 0
7.93701 -0.83329 -4.28381 6 25 14
-1.16436 26.227 -2.97225 40 31 11
-0.82814 16.8002 -5.98107 21 38 3
0.730934 -17.6918 -30.2523 65 74 62
-0.784775 13.4074 1.25545 2 21 3
-5.67851 -6.65325 19.8583 61 72 64
-0.763573 10.5261 8.31153 53 28 0
-0.737778 15.932 -6.00729 76 66 25
2.26191 23.1991 31.0346 58 71 63
7.49321 -19.5535 -2.41727 62 49 26
4.92537 8.03923 11.9 8 51 41
1.79103 19.4364 -11.6998 37 61 57
0.414667 0.133087 29.215 65 64 54
2.65748 8.07033 -6.10858 42 28 3
4.00234 5.91148 18.7474 70 85 75
-2.03713 19.1651 33.1114 58 67 55
1.40234 11.8067 -19.0948 80 104 66
-6.24414 -4.27077 -9.61679 92 106 89
-6.41403 -0.693363 13.7708 61 36 4
2.17462 1.99732 29.0527 67 74 62
-0.29319 14.016 -9.85968 1 11 2
8.21122 -7.69014 -1.40697 74 83 70
6.22149 -1.69512 -10.8381 24 67 46
9.07332 -19.9571 -6.1988 64 53 34
-0.916917 15.4494 37.376 63 74 66
0.308849 22.7098 -2.36445 18 26 2
-6.78382 1.57644 -2.64104 21 33 14
-0.270447 14.5721 -10.3369 0 11 0
3.65574 -11.6388 -23.41 79 38 1
-8.17762 -0.502159 0.523178 69 43 3
-1.16372 5.02537 -11.2725 105 86 24
-1.21333 19.7075 0.00361919 20 21 0
-0.360813 8.2871 22.989 64 75 64
-2.16114 -7.56297 -18.3516 22 62 50
-0.824577 2.76685 -14.9654 0 13 3
0.547134 19.0618 -14.0521 18 27 0
3.77894 -14.1545 -29.0097 92 45 2
-10.0877 -15.8997 4.50608 142 173 153
-2.7948 3.55573 -10.1946 22 47 28
-2.69975 15.6091 35.4699 63 75 65
4.74845 -19.6846 -42.7409 87 65 8
-0.754387 12.144 1.01018 60 50 20
-2.34037 17.3332 31.5581 60 73 62
0.58847 18.5946 37.0632 70 84 76
-3.32967 7.42308 -0.993561 41 26 3
3.83998 9.75139 16.143 48 66 58
-9.0755 -17.7547 5.7155 133 161 143
