ply
format ascii 1.0
comment Created by Open3D
element vertex 1405
property double x
property double y
property double z
property uchar red
property uchar green
property uchar blue
end_header
-6.36256 0.467602 11.5651 23 46 39
3.79072 -21.0803 -48.9597 120 132 104
2.20427 1.21482 20.8814 52 64 56
-1.55543 8.76083 16.0557 86 54 7
3.73965 10.4395 15.4316 3 52 41
0.282006 21.2598 35.5098 64 77 67
0.577994 21.0287 -1.31726 13 24 16
-0.57193 25.178 -7.06317 22 19 5
0.0738297 12.8558 -13.4703 7 24 7
0.112816 -8.03705 -23.0114 150 106 24
-4.17849 7.35968 3.58252 9 40 21
-0.313515 14.2772 18.1127 88 55 7
-2.96491 16.3228 28.3951 68 81 68
-7.26684 -2.75415 15.9251 58 66 56
2.46584 11.7618 4.89075 1 7 0
3.26496 -20.4674 -6.05743 90 98 84
-4.64598 0.780319 -9.62042 0 77 49
-2.43593 -6.21169 -16.5271 36 80 76
-2.73179 -5.41412 -15.2456 53 108 79
-2.9071 -10.3509 -16.3424 75 91 76
-5.17933 -20.8788 12.0205 67 76 67
-1.97171 -11.7988 -19.5716 81 89 71
-0.810738 12.1696 -0.643404 25 38 16
4.2563 -3.06761 -12.5486 4 96 69
-8.89218 -12.7267 7.94744 78 91 82
2.45761 3.93536 -11.7078 82 65 18
4.91184 -18.4817 -38.6541 73 32 0
-2.62263 5.16837 13.6495 65 70 58
4.47985 3.81286 18.4251 74 87 77
2.52039 -21.9377 -2.32064 52 62 49
-9.94373 -9.09437 4.19708 118 142 123
-8.10256 -9.69495 7.25835 71 79 70
4.52282 -14.4421 -23.937 72 48 17
3.92467 -16.8298 -36.246 93 43 1
-5.68066 0.0448837 13.2434 64 46 3
-5.83148 1.87403 4.85975 1 35 23
-0.162699 -12.2865 -26.5381 103 100 74
-1.91367 18.9733 37.0823 58 71 61
1.46198 21.8071 -9.20583 17 27 18
-1.18148 24.6995 -2.875 1 8 1
3.70414 1.07547 29.2922 68 82 71
2.3586 -15.8455 -33.9974 114 96 59
3.19429 7.51897 -4.5992 6 26 6
-8.97207 -9.73304 3.55014 151 179 154
1.07355 -8.95935 -24.2488 177 106 40
-11.5198 -20.0546 11.6737 60 70 61
2.60037 21.907 -14.4123 48 40 37
-2.13477 10.1122 2.43651 6 8 1
1.86466 19.8608 -12.0743 42 51 46
-1.4168 4.93217 15.5655 59 71 61
-6.76695 0.475685 1.64923 65 66 45
2.1258 12.363 9.47837 56 45 17
1.47236 18.4427 -17.1317 59 65 46
-2.7817 17.5761 29.9753 63 72 62
7.07498 -19.9787 -1.08435 61 54 33
-2.25513 18.5694 36.0825 55 65 57
1.00104 7.46862 -12.4315 50 37 0
-0.17868 9.62535 -13.3245 63 60 36
-2.60133 -9.30753 -17.2454 85 97 80
-0.78727 2.96714 -15.524 2 10 0
-1.09115 11.1765 16.9307 98 62 12
2.25033 11.4596 2.00388 6 8 0
-6.13389 2.3628 -5.27786 0 24 5
1.44073 17.9218 -17.3449 93 106 95
-2.06789 -1.56797 -14.7364 5 76 43
2.83094 -6.92931 -18.4148 6 14 1
1.13597 19.8087 -4.36058 3 11 5
3.89523 9.35477 15.8486 8 59 46
7.14098 -0.702637 -2.51822 9 32 24
5.02625 6.59087 8.10748 5 47 35
2.36841 -22.0943 -2.54378 56 65 52
-2.4134 13.0579 36.9258 53 63 54
3.82158 4.01192 -7.75245 0 20 4
8.51691 -2.18722 -5.20103 2 50 38
-0.598734 12.6665 -9.74878 0 14 1
5.23546 -17.8168 -30.9993 76 46 17
-5.53526 3.395 9.42633 2 35 24
-0.983894 2.24632 -15.1521 0 21 7
-1.94767 19.7618 30.6387 60 69 58
-5.75848 -1.35559 -9.68338 19 73 57
-1.51289 23.2511 0.963528 8 11 0
-2.3605 5.3955 13.9061 61 66 51
1.95015 -5.97857 -19.3942 47 72 68
0.957054 10.3602 -18.931 63 36 3
-2.37244 19.525 29.2739 64 70 54
3.37515 -9.36465 -18.1177 81 62 28
-10.462 -18.4378 9.13576 77 93 83
0.214678 10.6093 24.5884 67 80 70
2.48268 11.2453 11.6363 45 42 18
2.50027 -21.5933 -2.76934 57 63 52
8.75654 -2.85017 -3.70535 30 56 43
6.54807 2.7225 0.699665 77 80 64
1.46883 6.80228 21.5169 70 83 71
-1.01247 9.11499 -6.40253 100 69 19
-1.86324 20.0828 29.7395 64 71 60
-0.988552 23.5684 -1.07875 63 30 0
-0.644718 -15.2385 -23.4446 59 70 59
-5.96053 -20.0166 9.84532 84 96 83
-0.853263 3.14611 -16.1459 2 25 11
-9.07402 -1.92936 -2.29607 4 33 24
5.94545 2.53588 7.61278 8 47 35
6.14921 1.13313 -2.81301 2 30 15
4.31096 -11.2016 -2.21481 64 78 68
-1.40387 24.0751 1.0037 0 4 6
3.00239 -8.67985 -19.8512 2 11 2
1.72631 -10.5285 -25.9713 116 50 6
-8.85293 -15.5416 8.30477 77 90 81
-5.49101 2.98652 -5.91273 16 78 65
0.231451 2.1396 18.0704 59 70 60
9.44456 -20.0815 -4.90372 117 103 60
5.29555 -11.2451 -1.8522 71 86 76
-0.678638 25.0629 -0.0776749 18 11 0
1.07447 8.02721 22.1177 70 81 70
6.6246 -0.774887 -9.38429 5 47 22
-9.58578 -17.8669 9.13558 79 94 85
-5.88049 4.99761 2.91077 19 52 37
4.14155 1.97194 25.7561 68 77 67
1.29334 -17.9543 -33.6108 75 84 73
-9.3096 -2.17243 -1.63532 6 39 25
-0.384953 10.8392 -11.1478 58 42 4
-5.94479 -2.46602 6.63098 71 71 49
-4.40346 7.13486 1.99895 0 1 0
-8.30093 -17.7842 8.10747 71 83 70
2.34647 22.9883 31.5732 59 71 63
2.56962 14.4247 -17.7461 13 6 0
0.619596 18.3589 37.0083 70 84 75
4.34185 -18.2845 -39.3615 80 37 2
-2.54398 6.82664 -6.93253 0 6 0
-5.05487 -0.383743 -10.1746 24 48 27
-8.12423 -1.80027 3.3711 68 46 4
-1.05406 0.992055 16.2842 72 83 72
-1.33066 18.0792 1.57017 18 27 3
0.553469 23.991 28.6655 59 67 57
-1.23729 11.9598 22.9499 61 67 51
-0.810566 7.86697 -10.1521 38 34 8
-5.3569 3.69626 8.72951 28 61 54
-2.98167 -11.0926 -15.6423 81 97 82
-1.06145 15.5368 0.854622 3 24 3
1.82323 8.9617 -19.0077 5 24 3
-8.23151 -2.49689 -5.63428 3 39 18
-8.41175 -7.26215 8.12917 81 91 78
-2.76954 16.5779 27.2785 78 88 72
-2.39758 17.2485 34.237 72 88 75
-6.38992 0.173798 11.1671 61 68 51
4.77104 -16.8681 -32.3744 65 35 0
5.73625 -20.0527 -0.862801 64 67 51
6.98704 -1.20681 -9.01462 10 60 40
0.166348 10.5069 -14.4492 48 54 18
-12.3897 -20.4367 11.7671 61 69 60
-0.491058 12.3162 4.3687 57 49 23
1.81578 -19.5874 -36.441 65 76 63
2.69694 10.0442 -1.61638 0 5 1
-0.218567 3.4625 -18.9847 42 72 50
3.83493 1.00046 29.0939 68 82 70
3.24269 19.2116 30.6737 67 81 71
-0.975363 -12.705 -24.0792 65 71 61
-5.76337 -0.503922 9.84648 91 93 70
-0.400085 17.9254 -7.28323 79 62 21
-0.975272 17.3208 4.75336 3 17 2
1.44616 11.2937 -18.9537 128 121 85
3.11874 9.95836 1.90126 14 42 26
0.00987244 25.7021 -2.38319 16 11 4
-2.0976 9.7851 6.02331 19 41 28
-0.505095 11.5549 5.55774 54 34 0
0.956511 19.4089 -5.20656 18 30 12
1.61737 13.3607 6.41203 68 51 3
-0.65247 12.0179 2.20066 66 49 15
-2.63305 18.7645 28.2381 80 85 64
-1.06514 17.7052 -5.3445 17 27 8
3.13209 -15.9236 -34.5201 103 60 4
-5.00778 0.832169 -9.30381 1 60 31
-0.457199 -6.60226 -21.539 127 115 69
-1.8147 8.77254 -5.71844 86 61 15
-2.7998 8.54028 7.29489 1 3 1
-7.6569 -7.53457 8.05678 77 87 78
-9.72618 -14.1074 8.2254 82 96 88
3.3904 21.8269 30.5508 59 71 64
-3.01521 17.2009 30.224 59 68 58
1.70316 0.189255 -15.51 114 95 55
1.56628 -6.39645 -21.161 99 61 11
-0.712212 12.5184 -6.03336 4 15 2
-1.42539 9.30283 15.902 82 61 10
-1.26093 9.48915 15.4977 96 71 6
-7.2477 -5.98441 8.08528 77 75 60
1.82009 10.0212 -19.9027 94 58 0
5.21343 4.39641 9.29446 65 75 65
-5.48754 -0.0209122 5.75644 21 51 35
-1.95168 3.06214 14.9521 65 72 61
-3.92294 3.63503 12.7361 64 71 62
-0.0932045 15.8606 -10.5132 27 29 4
4.50953 7.56181 2.92576 6 20 2
7.45184 -0.0491104 -4.55581 2 31 17
-8.19765 -0.574086 -4.38985 7 56 34
4.04778 1.52154 26.7568 64 78 67
2.52002 12.5412 13.732 106 64 2
2.47029 14.9688 -19.0533 62 42 14
-6.34735 2.1515 2.95049 3 40 27
-0.164275 15.48 35.873 59 73 64
-0.665375 12.0975 -5.19261 64 53 29
1.07163 12.9779 11.0482 61 44 6
-10.2916 -5.89232 4.81881 86 106 90
-5.88856 -20.3269 12.2784 55 63 55
-3.33413 -4.12395 8.43211 73 89 80
-1.0949 -5.31467 -18.8238 39 32 0
-1.43028 12.2819 19.4193 78 66 34
-2.10588 18.2015 38.1979 59 69 59
-6.73082 -4.07763 -8.63485 87 120 98
-1.73565 9.57812 -4.1769 60 26 0
-9.56625 -3.37925 -1.23364 60 97 96
-1.17941 21.2224 -3.1696 8 29 9
5.3194 2.84669 9.48389 66 75 63
-7.3505 -7.48557 20.4602 74 90 81
-0.569262 22.7906 2.67374 29 22 5
1.02118 16.606 -16.1637 50 41 8
-3.66382 3.90581 12.8258 63 70 58
2.95987 -19.0829 -41.0264 75 79 60
0.333942 14.0565 9.39986 60 35 0
-8.23675 -6.18388 19.9942 63 76 67
3.09275 7.89566 -4.39033 1 19 2
-0.672066 12.2742 1.72164 46 44 17
-0.571106 12.4438 -8.8985 11 19 4
1.48019 -4.5693 -19.2218 130 107 68
-0.484169 9.81436 -11.7385 4 18 5
-0.114474 12.7098 27.5249 66 80 68
-9.15074 -13.6657 8.12156 78 93 84
-1.86685 19.3036 35.7551 60 73 64
4.01638 -1.70077 -12.7859 0 96 70
1.49375 22.0569 -13.2419 57 34 10
-1.54264 15.1887 24.4822 64 73 62
2.2905 21.083 31.5117 62 74 66
-2.49816 14.9014 30.5388 64 79 65
-0.756453 11.6908 -7.57857 83 82 50
1.23791 -18.5095 -33.2723 66 81 66
-0.551722 24.6136 -5.86741 58 27 3
3.61518 -20.0468 -6.52577 65 75 61
-0.418194 15.2585 -9.07838 1 28 6
-5.76385 4.7598 -0.883914 7 34 21
6.3509 0.948067 -8.60105 62 74 36
0.565528 17.0844 0.345071 56 62 46
2.33507 11.2357 0.996987 9 12 2
-12.2354 -20.5978 7.7162 114 143 125
5.00175 6.3691 13.4111 23 60 47
-2.30766 8.09722 11.048 36 32 6
-6.61478 -4.45812 -8.85342 96 117 100
-3.80925 5.8183 -4.69589 28 34 14
-2.77934 0.070816 -12.3074 6 65 45
-7.41549 -7.29079 8.07429 73 88 77
-4.61681 6.93486 4.22517 6 25 16
3.65101 -19.9109 -44.8331 84 81 55
6.68056 3.05482 2.64867 71 73 59
-8.41853 -0.630981 -1.38441 61 49 9
3.05302 -0.272491 -13.0262 27 86 59
2.58484 2.78626 27.5848 63 71 55
-1.58405 21.0959 29.0574 58 68 59
1.28318 23.6726 30.4755 53 62 54
0.245419 8.41013 -19.1121 5 13 0
-8.84435 -10.1314 7.41824 79 92 83
1.81143 12.4571 11.2215 67 64 46
-0.64994 12.6548 0.35638 64 51 21
-1.69068 20.1278 32.8685 66 79 66
7.18547 -21.6101 0.354576 61 59 46
-0.860405 11.5762 3.76242 67 34 3
-1.11612 15.1185 37.377 69 83 75
-1.02415 16.5181 -2.64041 41 43 17
-1.55723 -8.64198 -21.0671 92 101 74
7.56868 -3.14668 -0.783287 4 29 21
5.5776 -19.3061 -33.8544 69 52 8
-7.74078 0.13773 -5.23393 16 43 29
-1.33765 13.3624 25.7156 55 64 55
1.15206 17.7301 35.7801 65 77 70
1.36704 11.1261 -7.71168 31 55 39
0.879313 21.6266 -6.09896 11 20 4
-8.3136 -1.66582 -5.08393 7 52 36
-1.19171 19.1819 -0.445967 56 35 0
0.44799 12.7415 14.7167 21 31 23
-9.22404 -5.43455 -2.39923 11 78 62
-8.38446 -10.2419 17.9023 147 130 78
0.616829 12.0649 11.26 66 33 0
-0.781764 4.76551 17.0317 57 67 58
-2.56363 8.30653 -4.14545 0 8 3
-7.22994 -19.3169 7.93317 88 106 96
-0.630974 13.4035 3.83571 2 26 7
-1.20023 12.397 24.9986 54 60 50
1.22229 -17.3456 -32.8821 71 76 57
2.88497 4.50169 -9.42673 0 39 16
-1.6181 20.0623 32.3117 63 71 60
3.10181 23.1254 29.5515 60 70 63
-8.70724 -10.526 19.1222 64 73 67
-0.905891 19.056 -6.30034 3 33 10
5.3721 -18.6877 -34.5056 72 46 0
-7.42594 -21.5657 7.46747 135 170 150
0.610161 23.1698 25.2592 100 102 75
-7.26144 0.867195 -1.94757 56 37 3
-8.09809 -9.11337 20.0188 77 91 81
-6.21976 4.40434 2.40999 2 28 12
2.83728 -16.4649 -35.6317 111 79 49
2.88641 11.3916 9.5235 6 26 18
-8.23606 -0.36438 -1.09401 58 41 0
7.70017 -2.94657 -8.71184 69 96 77
1.73988 5.21497 -11.8493 50 44 5
2.6811 8.57363 19.7997 68 80 70
-1.48221 18.7302 1.09938 0 10 0
-8.29058 -0.311604 -1.78822 53 37 7
3.40715 3.23106 22.3747 62 66 50
-1.69533 -3.8287 8.87428 72 86 76
-0.945946 14.8159 -2.59026 66 51 16
-6.25975 2.71032 -3.16297 2 64 48
1.57964 7.28484 21.454 68 81 71
-0.769529 10.5868 7.84642 58 26 0
-1.06435 14.5716 -1.31519 0 18 4
0.282643 22.5356 -1.14684 16 13 2
-7.73125 -6.53837 17.9046 147 150 125
-2.27391 16.3098 26.0898 86 97 82
-0.929825 10.4728 -4.00067 94 74 18
2.53663 -21.2718 -41.6127 56 68 59
-7.34824 -3.40237 18.0313 61 48 19
-0.624521 15.0108 -7.26071 0 7 0
-0.384071 11.3426 14.326 4 21 10
-9.46711 -2.29175 2.0269 65 49 22
-3.50225 1.06888 14.1412 68 57 39
5.10418 -19.275 -40.4842 79 42 6
0.971227 2.05344 -16.1208 45 40 0
4.0393 -16.1074 -32.671 89 44 0
-1.62865 -10.6369 -21.7182 85 93 75
-1.36858 24.2196 0.545539 1 5 0
1.73271 19.9815 21.1426 157 134 72
-0.167267 1.95754 -19.1868 73 50 17
3.28149 1.78485 29.1052 68 81 70
2.16696 -10.9943 -26.2236 92 41 5
0.197089 19.0991 5.48595 14 30 22
-7.66696 -18.8183 7.31616 96 116 104
7.01074 -12.0841 -6.98061 149 146 108
3.9141 4.95334 19.5508 72 82 71
7.50921 -1.40883 -7.81579 11 44 32
-0.414635 17.5103 -7.23883 84 63 20
-8.73051 -0.849094 -0.239508 64 42 4
2.9288 8.80991 -3.77613 4 20 4
-1.31647 11.302 21.7797 62 66 44
-1.1227 17.7514 -2.78757 18 33 11
-3.19868 16.6239 31.0754 58 66 52
-9.02845 -21.6126 15.4986 69 84 75
-1.51032 6.84192 16.7517 54 68 61
-7.85801 0.235737 -4.19987 1 34 19
4.28958 4.5253 -6.42715 12 9 3
1.90243 -2.40857 -17.0359 105 78 27
3.32259 9.87997 19.3302 66 81 71
0.0976257 21.3279 -11.6345 5 32 10
-4.00748 0.45365 14.1733 70 60 26
5.45874 -19.7507 -39.4385 65 42 0
-7.7264 -4.86929 19.6262 57 57 39
0.393003 -8.43688 -23.6137 133 79 13
0.0210266 22.6102 32.9112 65 78 69
6.87799 -15.6841 -5.95412 74 85 74
1.26026 19.9107 34.9388 64 77 70
-0.81995 14.8704 2.28968 19 35 15
3.07945 -2.74228 -13.739 38 85 63
-2.49664 -5.45901 -15.6486 1 67 41
0.568939 9.7809 -17.376 66 57 23
0.61902 16.4923 2.68768 5 17 9
-5.94745 3.96475 4.16838 0 40 27
-0.521919 -0.473728 -18.0578 77 59 26
1.3941 -1.77987 -17.5753 94 52 0
-10.8968 -12.6931 6.07056 66 80 70
3.89031 3.7132 20.5638 73 80 68
-0.175423 15.2718 -11.4676 39 51 29
2.92452 9.99321 20.1394 65 78 68
0.470348 9.16078 -18.9579 0 12 0
-6.07999 -6.25917 20.1977 61 72 66
2.11681 17.4737 19.2023 124 107 55
3.35502 -16.5075 -35.7206 99 57 18
1.67766 5.14541 -12.3581 35 67 47
-8.02589 -0.0908966 -1.09297 59 41 0
6.38279 -2.15644 -10.7038 23 90 58
-1.77409 -6.3524 -18.6663 29 73 67
6.7857 -1.41718 -1.33572 1 38 28
2.45287 2.7294 22.5881 62 67 55
3.13802 -20.9757 -6.08303 94 107 89
4.05394 -19.2177 -7.57372 68 81 72
5.60246 -21.2364 -44.2093 61 40 0
-3.70541 -8.45735 2.04842 66 81 71
-0.235992 -14.93 -26.9173 92 100 81
2.55257 -21.2944 -2.99929 53 61 49
4.93607 6.06036 14.4376 39 68 56
-1.50267 7.58161 -7.97648 93 49 0
-0.596497 14.5563 -6.84596 10 15 0
7.39247 -22.1735 0.504925 59 62 48
-0.135979 7.10513 -15.2583 1 20 9
-8.18982 -17.7966 7.84908 69 82 69
1.76307 0.891499 26.5564 96 102 77
3.25952 -4.98717 2.17999 56 69 59
-0.521362 -5.39651 -21.0393 71 51 21
6.30474 4.61366 1.50628 0 34 21
0.776543 3.93614 19.8695 56 64 54
-2.12237 -4.15461 8.41264 71 87 79
-1.15313 24.8317 0.867975 22 36 30
-6.98078 -6.48162 20.5248 77 91 83
0.735352 11.4967 -18.0885 7 41 24
-3.98537 5.52276 -5.04067 8 20 0
0.784449 15.759 5.3616 6 32 26
-2.43245 -1.50912 -13.8941 6 59 35
-6.37893 -1.55674 15.8794 65 36 2
-0.299301 11.9212 6.3463 65 46 5
2.66569 -2.48647 -14.762 13 60 38
-1.90631 -8.84507 -20.0958 77 79 53
-4.18768 6.99239 -0.227506 0 1 5
-10.5441 -11.9135 7.09224 75 87 77
2.55249 22.0682 32.3487 67 82 73
-3.88912 2.20979 13.0809 67 72 61
-0.397423 10.5674 -11.5326 0 22 5
-9.67007 -15.5166 8.54211 86 100 90
3.62087 22.5486 28.8631 87 95 83
1.82791 -16.3019 -33.8397 63 56 31
3.62973 12.7341 17.6487 7 48 34
-8.75176 -8.36929 18.6125 100 112 87
-0.835854 9.81623 -6.22499 87 77 54
-1.77909 13.6029 31.4605 60 76 64
-0.736163 24.829 -7.06312 23 30 12
5.02205 -17.327 -32.455 68 34 1
-7.60603 -4.39504 17.1988 77 87 73
2.47935 14.646 -17.6414 41 20 1
-0.977824 7.19903 -9.54097 92 69 25
-3.22317 7.97776 1.14223 24 12 2
-1.65974 8.29521 15.9552 69 54 0
-1.62921 21.265 29.3413 57 67 58
-4.18389 0.260059 14.2319 69 60 28
1.50952 11.4681 -4.55503 22 20 6
6.18562 3.63175 5.99083 33 74 64
0.420885 15.1993 -14.0794 50 28 0
-0.772423 7.31502 -12.904 1 34 20
-5.63376 -8.71143 20.0572 74 88 80
-0.0273399 21.1149 35.8302 65 77 69
-3.0024 7.64427 -3.52227 32 58 45
0.726038 16.9465 7.01967 0 17 8
-2.84624 -4.1428 8.39177 72 88 79
-0.131512 10.0746 -15.1601 0 19 10
-9.503 -2.56455 -1.26333 21 76 57
-1.89854 10.0479 6.84058 1 6 0
0.712418 9.69476 -18.4477 30 26 1
3.86919 -19.6109 -7.16544 66 75 56
-0.666664 2.05952 16.7507 63 69 58
-1.20687 15.7331 23.0262 92 92 60
-2.14763 17.7307 38.7927 54 65 55
-6.39368 -3.95545 19.1369 71 72 57
4.92917 -5.01959 0.423172 64 77 69
3.19954 11.0933 9.6229 0 17 6
1.66539 -18.0266 -34.9949 76 82 66
1.685 7.92305 21.4483 68 81 70
-0.716187 4.47436 -14.5156 25 54 39
0.117012 6.7337 -18.6829 30 54 32
-6.04179 -3.02373 -9.37072 0 77 55
6.20423 3.35179 -0.394047 37 52 37
1.06774 15.3882 -0.554378 14 27 14
5.43377 5.00375 7.64308 28 61 51
2.63087 2.77422 23.6145 61 67 55
-6.61234 -0.614204 -7.6901 7 52 32
1.32548 24.0089 -11.1716 40 36 22
-5.7249 -5.58566 19.272 63 75 68
1.68813 22.2853 32.8618 69 83 72
0.387923 23.4905 -4.87294 51 63 45
-1.63546 -12.6881 -21.1097 85 96 81
-5.73941 -0.97361 5.45239 58 74 63
-0.736816 14.9755 4.03847 1 20 5
1.09086 14.122 9.24627 99 67 7
-4.35813 -0.0626907 -10.725 4 47 29
0.436706 7.62093 22.4168 68 81 70
-4.69719 -22.3697 12.5429 66 81 70
3.00226 3.31534 22.2197 70 78 67
-0.994217 16.2487 -4.37878 3 23 9
-5.4544 -0.285286 6.31573 66 76 64
1.05936 -3.57314 -19.6204 87 66 25
-5.01513 4.45549 11.896 37 68 54
-0.467314 20.9283 4.8057 2 14 4
3.63864 6.95163 18.998 70 85 74
-3.0999 6.79143 -5.03584 24 50 33
-4.55617 -0.73423 14.6824 82 82 67
-7.82637 -18.9816 9.76636 57 57 44
-0.0990982 25.636 -4.74037 130 74 10
-1.60567 10.8791 1.55827 61 26 0
1.82992 -0.854847 -15.953 116 101 54
-3.28101 7.53266 -2.11055 4 28 14
2.46069 9.46321 -4.42182 66 38 1
2.31208 21.0716 -14.354 51 38 21
0.707878 -17.4996 -24.6147 57 72 65
1.91991 18.4237 -11.3344 29 44 41
-5.01601 -4.76975 -11.973 56 96 73
-2.88344 -6.62205 -15.9443 1 53 32
3.29642 17.5966 22.479 78 90 79
0.934729 18.5866 -5.32392 12 18 4
-0.82531 11.5428 -6.2019 0 22 4
0.160541 9.87573 24.0562 71 83 73
-8.29604 -17.2881 7.91348 75 83 72
3.83682 -22.5311 -49.7598 185 229 201
-2.72466 7.60573 -5.293 7 19 4
-1.18752 17.4158 1.87558 20 28 7
-0.704331 23.6265 29.7109 61 70 59
-2.32511 18.858 31.2216 63 71 59
2.4825 5.14611 -10.5646 109 73 24
-4.29381 -7.68172 -11.1024 4 46 34
-8.46352 -8.88394 18.1895 143 125 82
2.40094 12.8065 13.9028 94 61 9
0.917126 16.4813 -15.8473 57 55 18
-2.1583 18.3501 26.4057 106 108 77
-0.82032 8.15577 -9.20945 64 51 19
-11.0456 -15.2662 5.68602 95 115 101
4.86206 8.85682 10.9128 2 45 34
3.54912 7.16514 -3.65892 12 37 12
-4.1716 7.18316 5.78658 22 22 3
0.915592 13.8822 -19.0571 1 4 1
-5.20289 -21.377 12.9144 54 59 49
0.530161 21.1791 -2.26252 38 43 29
1.20916 10.6728 -18.9849 85 59 12
-6.28774 2.29168 -4.19141 0 30 6
0.953125 21.2424 34.7729 60 74 64
-5.37605 4.62165 6.39182 12 57 42
-9.57154 -4.59821 -0.843667 7 39 27
6.03873 -18.208 -5.8712 69 75 61
0.740163 24.7106 -6.16649 33 48 46
0.39875 13.9457 8.95148 68 41 1
5.09025 -18.892 -5.63107 53 63 54
-8.32158 -21.6947 15.6456 47 54 45
1.45262 23.3896 -9.89742 8 10 0
0.137955 10.2838 -14.813 0 9 0
-5.78016 2.2423 4.95087 1 38 27
-0.59853 -8.55351 -22.9133 111 86 33
2.94474 -18.6699 -40.3983 83 88 70
4.26866 -1.1427 -12.6085 0 62 14
2.29328 2.60782 24.817 63 64 52
-6.65698 1.68962 0.286688 40 67 51
5.49652 -1.25459 -11.2982 25 69 50
-0.805904 18.3125 -4.24723 18 17 0
2.72967 -21.2687 -43.4625 62 74 64
-9.18043 -3.69885 5.73542 69 45 7
-0.25011 21.476 35.1823 66 78 70
-1.35418 11.098 20.9842 56 59 52
-2.21693 18.8119 34.0666 56 68 59
0.476196 11.7526 11.2766 67 40 0
-11.0853 -15.7607 7.5948 72 86 76
-4.9763 -0.235355 8.3317 79 90 76
-5.33343 5.90978 5.06364 18 47 34
1.01641 2.13045 -19.8046 79 55 8
-1.71459 10.7442 2.90912 54 22 0
-1.99357 16.1455 38.4284 62 74 66
-0.28611 -1.7347 12.5213 72 88 77
-8.76788 -1.61831 -3.03951 0 46 34
-0.559776 17.7434 22.7488 93 87 53
1.82403 22.1277 -13.6817 59 43 19
-8.28915 -2.75997 -5.45146 21 71 50
4.31342 -17.3008 -36.7155 84 37 2
-0.903961 17.462 -3.58002 60 41 4
-1.48609 16.5142 24.3736 84 83 60
3.05317 4.4043 20.7807 74 86 72
-1.70488 8.04233 17.0911 58 66 53
-8.0961 -0.00575256 -1.84881 61 46 16
-8.42604 -1.13804 1.69659 62 43 5
-9.92317 -16.5617 8.69041 82 98 90
-1.30021 4.55487 15.6638 64 77 64
4.44352 -21.1451 -1.05733 63 65 51
-1.38386 21.1797 4.04826 2 10 5
-5.48678 -6.8167 19.6385 63 74 64
1.01375 13.425 -17.1242 51 28 1
5.0719 6.40132 12.1644 16 51 41
-4.20175 2.04523 -9.03163 4 51 29
2.19707 -13.9325 -31 127 64 12
5.61778 -19.5827 -34.2652 75 49 0
5.26518 -21.6505 -45.9005 138 136 94
3.64676 3.39648 21.4916 68 71 57
-9.29248 -4.62044 -2.41896 4 67 51
-0.759995 24.4578 -6.85162 15 21 11
-0.616119 19.6078 -7.08937 53 50 9
3.98389 -14.3091 -28.4209 67 30 3
-9.76017 -6.94615 3.88275 92 112 100
2.16364 15.4572 -17.7521 77 57 20
4.58062 8.18433 7.14266 9 50 38
-0.791718 13.5334 -7.52455 0 14 0
1.77231 21.8509 -14.5256 99 100 78
6.95661 -2.50732 -0.967966 2 32 22
-6.906 -5.38964 7.83398 76 76 56
-0.748157 15.6347 4.91755 41 45 20
2.58678 11.1107 21.7248 71 83 73
-10.6391 -9.90932 5.19925 96 118 100
-1.45245 13.8133 24.733 63 72 61
-0.89105 2.30577 -15.8374 38 69 53
-2.91258 5.60331 -7.81425 17 54 21
-0.649031 23.2494 26.9734 107 114 89
0.375175 19.4908 -12.7208 9 8 0
-5.73069 4.6815 -0.458556 26 46 36
5.11913 4.53265 -3.91681 1 20 5
-1.24688 12.2133 23.7076 63 62 46
-9.33059 -10.1124 7.44 76 93 83
0.422394 22.7949 -1.45697 11 23 9
10.2705 -20.5083 -2.93086 59 58 39
-0.866337 20.0738 -3.80676 91 63 15
2.66728 17.7393 20.4914 127 136 108
0.781405 23.9394 -5.64644 13 20 8
3.18871 -17.4741 -37.9616 108 85 43
-10.1278 -8.91104 7.0656 68 80 68
-0.604431 12.5982 16.8909 41 35 3
-1.66658 18.5443 38.8581 64 77 70
-1.73842 16.3147 38.9115 71 85 75
1.30266 18.6098 35.2887 64 79 70
-8.64486 -13.017 7.83042 71 87 77
-11.8839 -22.2708 7.47758 127 150 123
0.942124 17.8846 -15.7685 56 26 0
-6.08682 1.82915 11.4336 2 29 18
2.85324 -9.01518 -21.6937 65 32 6
-3.28156 6.53795 12.3443 0 20 7
-1.28888 18.5676 -2.47533 2 23 4
-1.01121 3.84191 16.1475 62 73 63
1.21729 17.5719 18.8881 134 86 15
2.91784 6.98645 19.8675 70 84 73
0.943027 20.6837 -14.9104 67 106 73
-1.05997 16.9947 0.296732 57 50 15
5.14734 -17.6182 -30.7966 73 50 23
-1.1496 10.4179 24.0263 56 66 56
3.44615 18.1516 28.2706 61 73 65
-3.08265 17.2795 28.387 67 75 60
-9.31851 -2.51588 3.23452 66 44 4
-5.19464 5.31281 6.52894 8 53 41
-3.55908 7.88556 1.60404 5 1 3
0.73133 17.1122 -14.119 44 50 25
-5.8018 5.35797 4.41666 6 29 15
2.03412 9.73164 -4.79068 82 45 1
-1.48242 6.93647 -8.85328 82 40 1
0.915263 22.1153 -8.51759 64 36 3
0.255091 25.2924 -5.30804 62 35 5
-8.61978 -4.29432 -4.36506 16 88 69
-0.636436 10.7959 14.2697 39 34 5
6.97754 0.813828 -5.36675 3 31 7
-6.76848 -9.34073 20.268 78 95 85
-7.33932 -3.94376 -7.39889 15 91 72
0.798061 13.1508 -18.1953 4 7 3
1.9202 -19.7505 -37.1842 75 90 76
-0.802853 12.9396 1.12089 9 26 11
4.48962 9.37811 8.45402 0 44 25
-5.21687 -1.1495 15.3891 69 48 1
1.67333 13.7034 14.492 175 115 58
-4.36327 6.83854 -0.12676 0 3 0
-8.55766 -21.4125 15.6006 53 67 57
0.85459 16.0492 5.16882 9 38 27
2.14777 1.78582 24.9564 66 73 58
-3.45323 7.65797 7.10753 13 21 0
2.7704 -7.5951 -19.3356 0 5 3
-0.407131 18.9303 -7.30418 98 68 9
0.067894 10.3665 -15.143 0 9 3
2.39458 15.1168 -18.579 65 38 13
6.68254 1.27982 -5.86078 0 9 0
-1.01463 -9.10461 -22.65 98 86 47
-3.92832 -0.322926 -11.5207 79 116 96
-0.24218 9.26344 -15.2498 8 45 19
-8.13133 -14.4559 7.24494 69 81 70
-5.72775 -0.167679 9.78815 80 83 59
0.00621033 2.3945 -20.0428 61 41 3
-0.6141 17.1074 6.91201 3 21 5
-0.219831 23.1539 0.931404 58 44 21
7.73959 -1.76253 -7.14122 9 40 24
-0.245209 -8.24482 -22.9818 149 116 33
-6.27852 -2.60776 17.7618 69 55 27
0.775864 10.2653 -18.0484 67 52 22
3.92395 -18.3231 -40.013 89 51 0
3.6602 8.69923 1.39828 0 29 6
3.12974 19.1178 26.243 128 153 139
-5.46466 4.01294 5.75931 5 42 31
-0.842117 10.8183 -4.00232 97 93 52
-13.0847 -22.2747 10.3738 73 95 79
-1.03095 12.3207 25.8197 55 67 58
0.344222 19.181 5.26547 8 28 27
-0.512093 9.83286 -12.08 0 28 11
5.41387 -21.066 0.0368962 51 57 45
5.75805 5.62104 1.0311 26 47 34
-4.50657 -2.05503 -11.8181 2 75 49
-4.80247 2.66512 -7.83551 11 34 8
-9.3541 -11.2811 7.72256 79 94 84
0.810947 21.2652 -13.4286 58 30 1
-2.18626 -9.52468 -19.0903 84 89 73
1.44901 13.2729 -2.22279 52 42 13
4.41966 -4.5277 1.32218 60 74 67
-1.16509 12.1088 24.9342 57 66 56
3.55998 19.4692 27.0473 113 133 119
-2.71256 5.86704 13.2457 25 42 29
2.91543 11.2158 20.917 69 82 73
-5.63528 3.97369 -4.36543 20 42 22
3.2816 -20.6716 -46.9593 64 74 58
-0.65036 12.8707 -6.36647 0 9 0
1.16892 24.0363 -11.547 72 69 45
-0.416836 11.7172 5.95719 62 40 2
-1.55437 7.52153 17.219 59 69 58
-2.14604 -7.83813 -18.7664 61 68 37
-6.71181 1.11645 0.854497 62 66 50
-1.36741 20.0728 3.65204 1 7 2
-6.16273 -20.792 12.8216 66 72 62
3.09258 19.6804 23.3414 73 85 73
-2.50999 -11.5776 -13.1454 60 73 64
-0.18235 14.8513 7.73509 60 39 1
-1.44939 8.65189 14.3645 0 10 0
0.00954628 20.0986 -11.2116 0 28 1
4.27721 6.52177 -2.33814 14 24 1
-2.49504 -7.2597 -16.9394 20 68 48
-5.61837 5.00045 5.14413 6 32 17
-0.23114 -12.9186 -26.6251 89 96 69
-2.24241 22.1209 28.3635 75 88 74
-0.423119 -3.51827 -19.5198 72 74 53
0.938313 17.2114 -1.75198 17 23 7
-0.481087 12.2001 -10.4295 7 33 15
-2.1087 -13.0946 -15.0651 55 67 59
-1.90248 -1.39287 14.22 73 86 79
-6.09437 3.21762 4.05217 1 36 24
3.26192 -22.1498 -6.08193 83 99 83
-1.70423 8.45469 17.3628 61 67 54
1.59356 16.4334 -17.4472 0 36 12
-4.56103 6.52491 9.21255 0 2 1
-1.15476 -3.39815 -16.8895 34 47 3
-0.833302 11.6408 1.35473 57 43 12
4.64578 5.73594 -3.59586 7 20 3
-8.98261 -1.66213 -1.87496 9 48 32
-1.41997 7.63889 17.5779 54 64 55
-2.67736 5.64893 -8.16666 0 12 0
-6.21523 0.653458 3.62698 8 53 44
-9.16953 -1.61166 -0.579667 78 75 61
-0.547052 16.8376 7.07221 0 23 4
-9.81273 -3.38318 -0.548697 72 110 95
-1.36972 -13.6446 -21.6345 69 79 68
2.17061 11.056 -1.05049 73 41 7
2.6106 3.96877 -10.8342 33 37 11
1.15609 14.375 3.68925 28 25 0
-1.99291 19.2532 32.9659 57 66 54
-7.71856 -4.04514 18.008 57 58 40
1.28017 13.8213 -3.73885 5 24 1
-0.779587 13.6867 1.9673 6 33 20
1.47011 8.59408 22.0136 68 81 70
-8.73042 -12.6905 3.19626 168 199 175
-0.802567 25.2835 -4.1631 69 49 9
-8.53987 -1.47346 -4.19738 3 54 42
-0.0819244 13.2669 7.10197 59 51 34
3.80116 -7.17189 0.527367 74 88 78
-2.75948 17.5438 35.3604 60 72 62
-0.743455 21.8843 -4.81106 61 35 0
-4.59786 4.48676 12.3179 45 64 50
-0.343353 24.4478 -8.07623 0 22 3
2.41031 1.13194 23.2765 70 81 69
3.78579 -22.3335 -0.707579 63 78 72
2.87933 9.29142 -3.04041 0 8 0
3.32942 10.3559 19.4716 67 81 71
6.24949 0.585846 -1.91552 31 53 44
-2.47832 9.23432 1.58174 12 23 6
0.68322 12.7435 -18.2952 1 10 2
-1.86136 7.11098 14.6099 14 42 24
-2.79192 8.60658 7.54427 1 2 0
-4.14782 -2.29444 -12.3072 8 71 51
-6.91173 -8.66937 20.4261 79 94 84
0.556053 21.5957 23.3427 120 104 56
-5.55384 2.18464 6.44672 47 66 56
-0.786118 13.502 1.31036 2 21 3
-3.62288 7.75777 3.26384 0 6 2
0.527405 -15.101 -29.5785 82 82 59
-10.3876 -21.7484 14.8062 74 90 80
-2.43588 18.5162 34.503 56 67 57
1.58836 14.8594 -18.9572 38 23 10
1.94761 21.3071 -13.116 12 17 6
-0.266754 9.88328 -12.7833 2 41 19
-0.0100479 3.8702 -19.6725 52 73 52
3.70608 -14.3833 -29.544 89 38 12
0.487175 -13.208 -28.5914 95 82 42
-11.0318 -14.3775 5.80293 87 104 91
-0.93914 5.84618 17.7512 56 67 56
-0.751407 9.8144 24.1128 61 71 60
-2.47429 9.24079 -0.96318 1 12 5
-7.28051 -3.67803 15.9459 84 101 84
-5.42381 -20.6862 12.2328 60 70 61
4.96538 -19.7845 -2.74961 48 53 41
5.8534 3.25918 7.72819 12 51 38
-2.03893 22.584 31.1609 62 75 64
0.298306 11.7615 13.9117 50 61 29
4.09966 2.3553 25.2012 63 76 65
-1.52436 23.0634 1.41745 3 2 3
0.464176 11.7179 -16.0453 6 10 0
0.53466 12.2035 -16.2831 28 27 7
4.32593 -16.6006 -7.79764 64 76 64
-0.641228 11.8596 2.93269 68 40 0
-2.13348 -12.4851 -18.2208 64 75 65
2.58314 23.2248 27.6554 58 71 57
2.99745 -20.9748 -45.7961 61 67 54
3.09532 14.9834 22.9363 64 79 70
3.86659 -14.7516 -29.8463 76 35 5
-1.83202 21.627 29.4207 56 67 57
-2.18057 -3.81352 8.89732 74 90 81
3.07924 22.6123 27.3108 56 66 57
-0.607815 9.266 -10.8949 0 28 14
1.27099 18.9324 -4.37279 20 24 13
-1.97357 18.9778 36.5286 60 72 63
1.74835 12.5427 10.5258 63 62 45
-7.05519 -3.31337 -7.7352 2 73 53
-2.51402 -11.5502 -17.3021 81 101 85
-6.15629 1.77679 -6.2839 3 32 4
4.2453 9.91211 8.53489 2 28 9
-5.422 -20.3581 11.8747 62 69 55
3.47589 9.97511 14.0724 59 64 50
-1.16406 20.5524 36.3999 61 75 66
-2.40359 18.2741 37.4148 54 64 55
-4.00914 7.41032 1.9041 3 4 0
6.8849 -1.01234 -8.88853 13 63 44
-5.32323 3.29583 -6.25658 12 62 38
1.10231 14.4805 5.56786 55 61 41
-1.39826 -10.6832 -22.5111 94 101 78
-5.33267 5.02927 -2.83506 8 31 8
-0.478333 12.6771 16.3769 18 25 2
-7.7012 -1.24236 2.95636 68 44 0
5.2742 -18.0322 -31.7463 68 34 1
0.402832 0.329224 28.4018 93 74 35
0.996765 23.7943 27.0807 77 84 67
-5.50867 0.673397 9.39605 85 97 75
0.356995 3.42827 -20.0859 122 123 81
-5.11674 -1.53485 9.16793 86 94 78
-2.12272 16.1436 38.1835 56 68 61
1.70766 15.3102 -13.2069 26 24 4
-9.37126 -19.8951 13.1298 56 68 60
0.157829 7.45455 -18.8543 15 41 27
-1.26255 19.3357 3.89193 0 17 1
3.83728 9.34619 14.7219 4 49 36
-2.83825 -0.285286 15.1454 73 85 75
-1.40443 11.1651 23.4456 60 54 36
-0.23592 19.3036 -9.0583 2 11 0
3.29432 12.5414 15.5155 8 59 39
3.11021 15.6545 23.1924 62 75 66
-4.83638 6.67171 2.85593 1 12 0
2.25647 18.6748 -16.9998 89 84 66
4.53515 9.35823 9.17786 3 47 29
8.36944 -22.752 0.102341 50 60 46
-0.339628 16.7165 38.9678 69 83 75
2.80169 15.5286 18.0418 96 100 78
1.32941 16.8172 31.7278 59 73 62
0.605865 20.8328 -12.3845 86 59 15
-0.747601 1.43975 -15.2854 59 69 53
-1.32729 12.7523 21.7591 57 63 51
-6.03486 -4.25287 -10.138 91 110 90
9.80804 -21.566 -1.0721 66 78 63
-10.0805 -20.4889 13.4365 61 73 65
-1.50598 10.7284 -0.631715 81 34 0
-0.10497 7.24297 -17.9461 8 26 21
-6.59268 -1.33397 -8.23525 23 62 42
4.3795 7.68442 4.44875 22 41 28
1.17654 13.9428 0.975945 71 52 21
-7.02681 -19.747 7.85988 101 127 109
2.67315 4.79948 -10.0753 38 38 17
-2.84466 8.46329 0.575521 0 15 1
-6.69512 -4.66599 -8.44899 71 95 81
-2.53511 7.078 12.6411 7 12 0
3.54781 10.1193 13.1877 38 53 39
-0.681755 12.8856 17.7924 92 65 4
4.83634 8.78109 9.58514 2 45 33
-4.95849 6.46855 4.4759 31 46 26
-0.769146 -7.58803 -21.8559 114 93 43
-10.2995 -16.2384 8.49269 83 94 87
-2.62193 6.59898 12.894 7 30 23
-3.10161 15.8522 30.08 70 83 70
-1.19005 17.4291 -2.30151 1 27 7
-5.32478 0.552742 9.18131 85 98 71
6.8066 -15.0862 -5.4103 70 82 69
6.27873 4.06052 5.35079 2 26 11
-7.7606 -6.93515 20.317 74 89 82
0.189652 24.5539 -3.27841 63 33 3
-12.3916 -20.2823 10.935 68 80 71
5.13223 4.70392 -3.29467 10 40 17
-5.55018 -21.8713 13.376 64 73 64
-0.131399 19.9672 -8.61475 55 30 1
-0.508125 21.5612 24.7576 108 105 68
1.29735 7.53713 21.8464 72 81 71
4.96348 4.81419 16.7759 64 77 67
-3.02631 2.16205 13.8685 70 76 63
-1.23693 -8.40413 -21.6724 103 88 55
1.38686 15.1155 32.3511 57 70 61
0.825682 16.2213 -2.448 93 63 20
-1.24292 8.55023 20.5727 57 63 49
-0.889578 23.4845 30.4569 55 66 55
8.14702 -18.6671 -6.52802 63 36 1
3.85852 -13.5784 -6.13462 61 70 62
1.04431 -15.0256 -30.9247 77 72 49
-6.30962 -2.64495 11.8062 55 66 46
2.91478 -15.269 -33.2731 106 66 15
-4.44489 -4.18722 -12.3838 39 82 68
0.745859 2.10808 -20.8073 89 73 23
0.843991 17.5213 -1.61892 9 30 19
-0.664505 23.9051 -7.22641 2 18 4
0.304893 18.9991 -12.104 41 35 10
-5.92606 -22.0132 13.6173 63 74 64
-0.996002 -8.05307 -21.8641 99 83 41
5.97922 1.75246 -4.0893 0 25 7
-0.573814 18.1159 -6.81881 91 68 27
-5.92707 4.31911 4.37569 0 36 23
-0.934576 -2.84028 10.7306 69 84 73
4.87342 6.64014 -0.371181 1 8 1
5.95628 4.45817 6.04378 12 56 44
-3.99677 1.45013 -9.97092 3 25 5
1.285 22.6271 32.6034 65 80 72
-2.58855 -10.3744 -17.3907 89 105 86
2.52219 -17.2835 -36.6472 92 86 66
-5.41587 3.95084 11.2712 8 29 15
-3.30416 15.8785 33.2396 59 66 56
2.75771 10.1268 -1.14796 0 11 5
-0.683113 7.67495 -12.7137 0 8 2
-1.38374 11.3651 23.0963 67 58 35
0.234921 14.9608 -12.5206 3 28 14
8.22301 -19.6581 -2.56995 51 37 13
4.66175 -20.1377 -45.2511 97 59 10
-3.41342 8.05642 3.58243 1 2 2
2.53844 -21.0891 -40.8508 61 70 62
-7.33794 -3.05176 -7.3686 0 77 57
-1.95412 9.58228 -3.58433 74 36 5
-1.47305 10.9392 0.203801 64 27 1
-0.573944 25.1406 -7.48312 27 48 33
-0.109291 7.5091 -14.8768 60 59 43
-0.610165 16.0425 -7.94695 1 2 0
-5.5286 4.48154 9.47126 1 28 16
-1.16229 17.9816 -0.808231 16 16 0
-1.00334 23.7934 -3.57469 10 11 3
6.64758 3.06264 2.24026 68 73 54
0.370004 21.6132 34.6746 66 78 68
6.12716 3.34996 6.35282 46 79 68
-1.09617 22.9074 -3.11726 50 29 2
-2.63713 19.1324 30.0445 62 67 56
-3.19565 8.02155 6.09897 30 20 2
1.10059 16.9816 -16.7674 19 30 16
-1.37833 -12.3965 -22.5121 83 93 80
3.60491 20.7729 27.709 84 99 88
-0.0545862 17.4791 8.05838 46 53 38
3.49363 -3.23586 -13.1933 0 77 57
-1.51416 4.80728 -11.1329 95 56 2
5.32661 4.07222 8.90636 65 77 65
4.69634 -17.4226 -35.5286 106 55 0
-3.6495 3.13625 -8.90357 37 54 24
-1.8022 7.06516 15.8486 60 62 40
5.01628 -18.5964 -37.5964 94 44 0
-0.314564 13.4715 16.8864 9 24 12
-2.37355 16.517 34.9803 63 77 66
0.4715 17.3198 0.947651 68 43 11
-5.21595 0.206207 7.01014 69 82 74
-6.46264 0.522697 -7.23816 1 46 21
-2.30157 9.52599 0.731299 8 17 0
2.14417 12.4269 7.27435 53 37 1
-4.82785 5.6675 8.58876 1 10 1
-0.456467 16.3334 -7.3119 55 41 3
-2.21278 15.9714 37.7018 53 65 59
2.72059 13.3123 14.9759 70 67 34
0.330538 19.8532 -0.99654 6 7 0
1.47909 13.4249 6.10724 80 57 1
-6.66578 1.69614 -1.25912 63 66 53
3.21955 1.68896 -11.3977 28 51 11
0.779678 23.5123 -12.0223 97 127 83
-0.689601 10.2493 10.021 38 19 1
-2.2464 9.58299 -1.40685 2 9 2
-1.72004 8.05732 15.7013 66 46 6
5.47565 2.6278 -6.92695 11 39 21
-6.68394 -1.15424 4.18558 70 60 30
-5.11745 -0.11845 8.83396 72 81 64
-5.23857 -2.39031 9.96794 78 94 79
-2.31776 9.24377 6.74998 9 26 14
-9.55326 -20.7986 14.5154 58 70 62
0.990447 15.0508 4.41394 6 25 17
2.66061 -8.46523 -21.5767 77 42 8
7.83954 -18.1035 -7.05668 69 61 35
-0.129501 5.16759 -17.5625 4 32 22
-0.140484 19.6292 -8.42697 54 34 0
0.554499 20.4444 -13.2128 22 12 0
3.77701 2.48264 26.5546 63 73 60
-1.39383 20.7159 4.18791 0 13 3
1.23229 5.11703 -13.1108 69 62 19
8.91302 -19.3946 -4.23141 66 41 0
-8.14127 -14.9256 7.35898 69 81 69
-3.30251 -8.34877 -15.2185 6 63 43
-10.3315 -14.1458 4.33106 126 154 135
1.38256 13.4646 2.13224 34 43 24
-8.61296 -10.8552 7.53327 73 88 76
2.51664 0.7062 -13.6478 3 21 3
2.43735 12.0163 9.31863 59 43 10
-3.75517 5.27066 -6.07815 17 42 16
5.96476 1.86039 -7.32913 2 33 20
-7.89964 -7.27156 8.10412 79 94 85
-2.35946 -4.15792 8.36849 73 88 80
1.58784 13.4531 14.3312 156 94 30
2.30236 18.037 -17.2458 114 99 69
4.3155 -14.4466 -25.3061 88 57 7
3.55072 -22.0484 -6.76128 106 130 114
-2.07016 23.0362 28.8394 69 82 70
-1.09838 17.009 2.23033 15 31 12
7.01504 -9.96861 -5.54154 128 145 122
3.14781 3.86575 -9.22605 7 36 20
-0.732361 -11.5946 -24.7324 92 102 84
-5.31781 -3.2962 17.4883 62 67 55
-8.8608 -8.77604 7.8844 77 96 84
0.840309 0.316109 -19.5666 59 43 15
4.65888 -16.9253 -33.6489 91 46 0
5.36286 -22.2939 -8.23338 135 163 146
-8.60285 -10.3888 7.41256 77 89 78
-0.854729 12.2037 -2.83631 33 29 5
3.90496 -7.10453 -13.6636 0 45 16
-1.42031 21.489 1.30191 0 2 2
-1.71721 10.4481 5.29095 47 22 0
4.20734 2.98531 21.1997 67 72 59
3.40192 9.46764 0.458475 20 44 26
-9.87633 -13.8968 8.126 83 97 87
-0.375832 6.84377 -13.889 81 81 60
0.588722 10.1759 -17.3399 29 49 20
0.0741005 11.1268 10.1736 65 42 0
-2.96598 3.12968 -10.0983 7 50 27
0.42253 11.2861 13.1614 98 65 12
-1.78999 19.6856 34.2628 60 72 62
3.00792 -7.96658 -18.6292 1 27 20
-4.14083 -3.28819 -12.8651 0 53 31
4.35392 7.61829 0.886782 3 24 3
-0.98578 17.8373 39.5098 80 95 85
0.345829 17.2411 8.15471 34 52 41
-1.85382 23.1214 30.5723 59 71 61
-1.28096 13.097 23.547 58 67 53
-12.7345 -20.9966 8.83273 115 141 122
-0.207886 4.96839 -17.1433 2 28 16
-9.7437 -6.03828 7.26043 81 88 75
-0.656067 -13.3605 -25.1866 67 75 61
-0.349033 21.2881 24.366 108 103 60
-0.981982 15.6305 37.5682 63 74 66
-9.3313 -4.09517 -1.37647 0 36 22
-1.73255 20.2895 33.6031 64 76 67
0.626544 7.11524 22.0785 67 79 69
6.5412 3.70564 2.79272 38 58 39
-7.59032 -9.83955 19.9883 76 92 84
-9.14521 -18.8479 10.0162 65 73 67
4.07147 2.74765 24.8787 61 73 60
1.0597 15.7648 32.9987 64 77 68
-6.80132 0.263115 1.97996 68 62 39
5.06487 5.35137 -2.53811 17 25 5
-0.159164 10.4239 -13.1018 0 33 17
1.87892 7.63629 21.0739 70 82 71
-4.82092 -2.55532 9.3036 64 77 63
1.55408 -1.19426 30.6331 66 77 67
-0.257549 13.4135 16.5781 9 23 12
-1.30293 9.90683 -4.51423 79 35 3
4.201 -14.0379 -25.1345 91 68 36
-0.73341 24.7196 -7.34896 32 64 48
1.32355 11.8214 12.5713 92 55 19
-1.98703 6.63979 14.0179 10 40 28
-2.51313 8.86864 -3.33332 1 9 2
0.788998 17.4874 -14.2791 36 38 24
-11.3518 -17.2985 6.51096 92 112 99
1.46194 23.8634 -11.6103 74 70 66
-12.4083 -21.2778 13.1803 75 89 81
-4.24891 4.79103 12.4518 54 66 54
-1.38362 9.97028 8.29223 0 1 0
-1.83805 7.65983 13.0455 11 21 0
2.6406 11.9213 8.80066 49 34 2
-5.42749 -21.4711 13.1569 60 68 56
-0.883255 11.2128 4.48186 61 29 2
5.38323 4.77569 -2.7711 5 47 25
8.38118 -20.3404 -1.6469 47 41 25
6.71916 3.75385 3.33836 0 29 14
-0.858032 20.4934 25.1471 96 100 71
-2.35152 16.8117 38.5096 55 68 60
-3.38218 -7.22275 -14.9393 0 67 41
-1.12341 15.3927 -1.26866 4 20 6
-0.247643 14.1417 -9.78978 3 10 0
1.17605 -11.9242 -27.971 131 78 3
-1.38084 -5.67509 -18.8394 2 22 3
3.98212 -12.4272 -22.9764 83 47 0
-2.93136 8.11267 0.0749011 4 18 2
-1.16771 21.5974 33.9778 62 74 65
-5.82671 3.68455 -3.50975 2 19 7
-0.428509 14.0119 36.7496 77 89 81
-0.52494 25.0505 0.713295 28 39 17
2.12042 18.1542 -15.0802 56 23 0
-9.86074 -9.71488 4.06653 118 146 127
4.99175 -19.4292 -41.2199 91 47 5
-2.54367 17.7839 26.503 91 95 66
0.412422 2.61975 18.5529 60 68 59
1.90487 23.6924 29.6492 44 51 44
-0.936058 14.58 -3.72355 1 24 6
-1.38128 17.7436 1.22986 1 16 1
0.418777 11.9684 13.9872 60 57 11
2.65986 2.18153 -11.9711 27 79 55
-1.72298 22.8602 31.392 64 78 67
1.9393 11.4391 -0.255444 59 35 7
-0.866837 6.09555 -11.7356 39 60 42
1.31076 16.2728 32.0328 66 79 71
-0.23275 11.2491 6.88116 64 44 10
-1.78963 15.8091 38.2468 62 74 67
-1.50572 10.4329 17.1719 101 76 22
-5.3354 1.89864 8.9329 83 88 71
-9.95459 -4.08362 0.972992 75 90 78
-2.08892 15.9742 37.9882 55 67 60
-3.28969 -7.0483 -15.1252 0 60 38
0.275777 24.2551 -1.35638 25 23 13
0.0370636 -8.78524 -23.765 197 158 96
-7.7967 -18.7603 7.06951 100 119 108
-6.44986 -5.7127 20.2596 67 78 66
-5.6106 1.85928 12.1101 36 55 37
4.47894 7.99964 14.7997 6 48 35
-0.748138 6.87386 -12.7571 1 41 21
-1.31968 11.0969 1.56803 61 27 0
0.992936 18.5246 -3.81853 2 6 1
-1.46597 10.4354 -1.80396 82 31 0
4.74841 -19.1023 -40.8678 89 49 6
3.79713 -12.5955 -25.5215 80 36 3
1.29651 21.7675 -8.8908 21 15 8
-1.3459 -9.40009 -22.1039 85 91 55
2.58612 10.3018 -1.21699 1 2 0
-1.64342 22.7422 31.7343 66 77 68
-1.25719 17.6387 -1.18778 0 13 3
5.63741 -20.4934 -39.0152 78 51 18
-0.867111 -6.28118 -20.679 98 77 20
5.90874 5.84113 2.9266 4 26 3
-1.24926 13.1806 26.055 55 63 54
-4.33197 -4.04595 -12.9121 3 77 58
-0.436234 24.9584 -7.90836 23 48 34
-9.11262 -11.2846 7.73593 79 94 85
-0.992702 11.651 -3.73466 6 33 11
3.2331 -14.7959 -31.8712 92 39 2
-1.36245 20.702 26.0324 92 95 70
-0.962653 16.8411 2.67658 52 45 18
1.03142 13.0324 14.3746 105 74 25
3.69083 8.73308 17.8018 66 74 66
1.40429 13.3986 5.86673 78 57 9
-0.719536 8.52495 -10.4039 9 23 11
-2.88986 4.50919 -9.24048 7 34 12
-2.7427 8.61143 -2.65519 0 24 4
3.46434 -11.9525 -25.1031 87 44 2
5.55376 -19.7905 -37.1 66 40 0
-2.56748 -6.01565 -16.1024 39 84 68
-1.37882 16.9806 1.40309 1 20 3
-7.1059 1.03888 -0.903771 60 40 2
0.131416 17.8453 -11.5122 52 45 15
-9.49711 -18.4725 9.43533 74 93 84
-9.93569 -20.1288 12.8802 59 71 63
4.10651 5.22717 18.9536 69 82 71
-8.74484 -9.40833 18.542 104 113 87
-5.75631 -6.40238 19.8174 59 70 62
-0.495533 19.6496 38.3666 68 85 73
-1.26755 7.36483 17.6482 54 64 55
4.74325 4.33516 -5.73935 1 15 0
-5.17665 5.33721 -2.49579 12 46 28
3.08867 17.9175 26.0969 117 141 123
-2.6925 8.57895 -2.99322 17 59 37
5.50993 -19.2726 -35.9553 85 50 0
1.30773 22.1802 -9.13989 11 14 4
-1.78047 8.22346 16.8039 58 51 26
-12.5815 -22.1584 8.57949 100 129 110
7.20629 -15.2805 -8.61322 123 107 54
5.23562 4.40776 14.5178 68 78 69
0.308226 18.6656 -13.2421 52 58 19
-5.06371 -0.396584 8.69343 77 87 70
-1.25888 21.1848 25.7579 97 103 74
4.06157 3.61196 -7.91773 37 51 13
4.78701 -17.8672 -36.4277 67 32 0
2.28563 13.1026 23.6104 68 79 69
-2.15742 18.9816 27.1751 79 86 66
-3.11047 -9.89687 -11.0638 58 71 64
0.0327606 2.82748 -19.45 72 72 43
2.77041 15.3131 17.6676 83 99 78
-6.06688 -4.97157 -9.79853 78 103 87
-7.61535 -4.25923 -6.66873 6 83 63
6.43996 -0.0370941 -1.52666 20 57 48
-0.0183296 12.1914 14.5471 1 39 22
3.20916 21.8328 30.7646 64 77 69
4.51932 2.8952 20.0335 64 75 65
-0.737572 12.9269 -7.87278 11 44 22
5.08743 -11.5985 -2.20592 74 88 78
0.130245 19.9449 22.5492 109 87 32
3.58204 -22.7333 -0.833191 57 70 61
5.46817 6.25394 1.21775 28 61 47
0.0179405 21.4145 -9.96637 10 10 0
-2.69784 15.5909 35.5403 63 76 65
0.339925 9.57049 23.7096 72 85 74
-1.30835 -3.64953 -16.9224 4 45 6
-5.30388 4.29931 11.2448 1 37 21
-10.3858 -9.591 6.7426 73 85 74
0.153763 13.9793 -12.4538 68 58 24
0.564384 -16.9161 -30.0912 72 84 71
1.74028 22.7293 32.2875 68 79 70
-2.54406 1.49568 -12.0409 6 51 34
-2.76149 4.33825 -9.60926 4 40 16
-5.00216 6.45551 2.72515 7 20 3
-9.13325 -5.02441 -2.93735 2 81 60
-1.00363 -2.41904 -16.307 97 96 58
-4.81003 5.57777 11.5378 14 47 36
-0.948868 21.6174 -3.79083 71 55 10
1.11328 11.9831 -4.23717 64 48 14
6.69379 2.99171 3.84454 48 68 61
-8.79874 -6.89029 18.918 79 78 52
-9.60456 -7.0897 7.52775 79 92 79
3.10213 -22.6068 -49.1465 64 78 68
2.85546 11.6763 8.34836 7 16 0
2.5683 15.3539 24.5844 67 81 72
4.54066 5.98377 -3.20448 5 26 8
-0.408731 13.4363 5.02709 49 56 43
-10.7293 -16.6964 8.33733 76 91 78
1.14307 23.9331 29.2207 52 61 50
-3.4174 7.41111 -0.730448 53 29 0
-9.84231 -9.46862 4.0511 120 147 129
3.13068 22.5678 30.9179 61 77 69
4.17725 -14.0585 -27.0217 74 38 5
-0.97311 16.242 -3.11062 66 51 13
1.93473 -9.3728 -24.1317 129 57 10
-5.67899 4.61706 5.16938 7 45 33
-2.98429 5.38736 13.2203 62 64 47
-9.16482 -14.6244 8.25217 79 92 83
3.07257 -8.87283 -19.9859 4 17 0
-10.0992 -3.595 1.00834 71 85 72
7.12254 -18.289 -5.92877 66 56 33
-7.62654 -20.5727 13.3934 63 78 71
4.981 -16.8203 -29.0146 73 52 22
-2.82664 16.0654 28.5227 67 81 67
-3.96153 2.59541 -9.02426 3 45 9
-5.83463 2.29904 10.7219 4 32 10
-9.31443 -3.27036 4.43286 63 42 2
-3.92386 7.07465 -0.859177 5 0 0
1.39794 7.85661 -19.9132 101 97 63
4.64048 4.37566 -6.00617 2 15 0
3.32601 10.8581 10.4706 0 20 5
-1.33163 20.4216 31.18 78 93 81
2.31674 -18.4984 -37.5335 79 89 71
-1.69429 10.4292 -0.625718 82 44 2
0.697401 17.0977 0.0318489 42 49 46
-0.113335 15.6605 -11.4956 8 34 12
1.02227 16.3488 -0.189037 12 26 24
0.241631 18.6525 -11.7679 62 48 2
3.79369 -11.3301 -20.1619 71 56 20
-8.38862 -12.8321 7.6281 71 86 75
-0.693253 -5.90481 -20.6128 76 55 11
5.06709 2.14256 -8.87099 0 35 6
-0.872574 11.4292 -2.82239 56 49 21
-0.703018 17.3492 -6.44972 84 71 17
-1.99023 9.75343 -2.81978 45 21 2
-5.90608 4.60731 -1.4849 3 18 2
2.1745 -18.8468 -37.4366 69 79 62
4.60479 3.78546 -6.737 23 69 60
4.57584 7.57178 15.2345 26 69 54
-2.6565 8.95796 -1.4717 1 7 1
5.19263 4.64132 14.5945 66 78 68
-0.0420952 21.0006 -9.89855 4 13 2
-1.08742 11.3362 1.96722 59 28 1
-0.163975 14.7689 -10.2501 0 11 0
3.09575 3.18774 24.1228 68 70 58
-0.485016 22.5001 -7.59842 0 25 10
0.243809 24.6523 -1.73342 18 25 15
-1.06555 13.0396 19.1591 97 62 4
5.91705 2.78962 7.52235 13 48 37
-3.1462 7.81462 8.77094 21 22 4
-0.549377 13.1627 4.19721 21 31 10
-4.50937 6.06994 8.07962 1 14 5
-0.628952 -3.54874 -18.7209 39 51 35
-5.46236 4.24605 6.17864 14 51 36
-1.23105 17.1689 -1.24445 2 17 3
-1.69397 9.18663 16.7975 84 66 21
-4.84429 6.09879 9.898 6 35 21
5.14518 6.63437 4.45344 13 43 26
3.07464 -9.73318 -22.2357 89 43 0
4.73211 -17.1365 -33.7486 90 49 2
-3.09144 8.27628 3.8625 29 22 1
4.31409 -9.90246 -0.874718 72 88 78
-6.74727 -6.71197 20.5393 74 89 79
2.86068 19.3176 21.8289 133 142 116
0.283798 25.9497 -7.43207 48 41 15
-5.336 5.638 5.29253 22 54 43
4.52152 8.63447 7.58214 26 50 33
1.72356 11.956 12.0825 72 52 23
3.37822 21.6269 30.3663 59 71 64
-9.66507 -7.66726 7.52402 80 88 79
1.59703 21.9413 -12.5624 62 33 0
-2.66135 16.8127 37.2516 49 61 52
0.865721 -12.5214 -28.5325 115 85 23
-9.06289 -1.87384 -2.00085 0 33 18
-3.149 8.46061 1.91225 0 10 1
-3.35126 8.18954 1.9117 0 0 0
-1.88931 17.814 25.552 103 99 67
5.36803 6.21812 5.47437 12 35 22
-3.7967 6.90605 7.43666 14 33 14
-1.12855 20.4597 5.3401 51 36 5
-1.24775 20.7429 0.110883 45 67 45
-5.38025 3.55795 -5.56502 5 47 31
-5.65414 5.45539 2.72663 14 22 6
-0.662342 -4.22316 -18.2136 83 83 52
-6.15831 -1.74279 16.5579 64 42 1
9.86707 -20.0835 -3.76418 62 47 19
6.06859 4.99142 1.17448 41 58 40
-0.000408649 20.6963 36.5324 65 79 70
-7.94558 -4.04874 -6.014 7 61 42
2.86597 11.6911 8.59288 11 24 4
-3.4495 15.4945 33.408 57 68 59
-3.99756 -2.77394 -12.8593 1 76 51
-3.32479 7.52388 8.60616 1 10 0
5.45613 -20.8103 -43.6979 74 54 8
-0.419476 20.7738 4.39325 6 11 5
-6.67751 1.76229 -2.75201 3 22 8
1.37113 -18.9579 -33.1693 53 68 60
-10.7701 -19.8248 6.33546 140 170 149
8.19452 -6.56784 -1.4959 66 80 69
0.0313644 13.2649 -12.7657 47 30 1
-1.27343 12.9514 22.5 56 63 51
-2.13258 22.1057 27.8304 79 91 74
0.288313 14.6457 35.3477 65 78 69
-2.72476 -7.3095 -16.5363 5 71 51
-2.62111 -11.237 -17.0377 68 87 72
3.21532 -18.6886 -40.9426 114 109 88
4.078 -12.9961 -23.9418 77 46 4
-5.14925 -4.48467 7.8059 60 69 62
-5.08976 1.36933 12.6518 67 65 50
1.48935 14.8957 -6.01501 6 9 2
-13.1472 -21.1585 9.81131 97 119 105
1.02486 13.907 8.36456 64 61 38
-1.43593 10.5833 -1.46644 74 29 7
-2.00821 10.0592 -0.688748 35 24 5
2.64304 22.8945 31.363 60 72 65
2.24136 15.0319 -17.4155 59 35 1
0.264977 17.1651 20.1734 83 58 5
1.41204 -14.334 -30.9274 96 85 45
4.80788 -13.3221 -9.09119 185 185 133
0.134066 17.6184 -12.8707 13 35 14
4.03221 -16.9686 -36.4091 87 39 0
-1.05849 -11.8389 -23.9072 77 80 64
-0.293633 15.2836 5.87933 1 17 1
3.02799 -17.6384 -38.2006 110 98 66
-1.36358 10.8528 4.36051 60 27 0
-1.00082 13.7565 20.0672 90 65 10
2.28949 -0.360733 -15.1578 69 49 7
-2.65604 8.95844 -1.811 27 47 35
-2.76934 3.59706 13.7824 65 73 58
0.156998 21.9636 -9.09728 64 39 8
1.79118 12.7173 4.93954 61 44 12
-1.59599 10.8661 3.58798 58 27 1
4.46292 -17.038 -7.37109 70 81 70
7.60756 -16.7088 -8.38192 94 84 50
1.37796 10.4044 23.0848 63 76 67
1.7839 21.4846 -14.8247 137 127 78
-7.38884 -1.0326 -6.84578 1 61 40
3.9473 -19.0521 -42.0036 107 60 8
-3.27792 -5.26485 -14.8089 7 52 22
-0.720112 10.9523 14.6926 9 14 8
-1.07274 12.0457 25.2991 59 68 57
0.320885 10.7438 -16.7358 18 45 34
2.9511 15.9417 24.0087 68 80 70
1.16918 1.3802 -16.3681 57 29 0
2.54613 -0.190018 -13.9677 4 23 11
1.23448 1.27576 28.9358 65 66 54
-3.43483 14.7514 33.9851 64 78 69
-4.51649 5.35958 -4.77514 3 6 0
0.889767 4.65649 20.6255 61 72 61
-4.92162 4.07695 -6.07967 14 45 24
4.27047 -18.3715 -8.04699 63 76 62
3.91644 -20.219 -3.42014 49 51 35
-5.1259 -2.38823 -10.8298 3 75 46
0.339001 -7.74864 -22.8731 155 99 16
6.37816 4.17825 4.91684 5 25 14
-1.20967 19.9076 5.06034 18 28 2
-0.568836 12.6567 3.65906 24 26 15
-6.47756 -3.19815 18.5281 73 63 40
2.50044 9.22019 -4.85607 82 40 0
-7.23121 0.3843 -6.09792 3 33 20
-0.418217 24.6999 0.951641 47 34 9
-2.00709 19.747 28.7814 64 71 60
-2.24577 9.63321 5.63755 1 5 1
0.120415 13.0924 7.85296 62 66 57
-6.05049 0.523357 -7.85388 0 59 29
6.02504 5.44623 2.05285 28 51 39
6.96493 0.943993 -3.72354 0 19 2
3.04208 -21.0311 -46.9825 50 60 50
8.09643 -1.21951 -5.12332 3 17 8
-0.483568 22.954 1.38677 25 33 26
-8.03881 -1.54108 3.13629 67 42 6
1.69998 10.273 -7.69024 13 23 21
0.369793 19.8186 -13.3883 6 14 1
-1.32367 10.4481 16.7526 98 68 7
-0.592636 15.1929 -7.45602 1 4 0
1.00285 -7.74275 -22.9341 146 80 15
9.36713 -19.6858 -4.03135 57 42 0
-0.307511 23.7101 29.8672 60 67 57
-1.93327 10.3311 0.0897293 52 38 14
2.44236 -19.6973 -39.7796 65 78 63
-8.85289 -19.5822 12.6843 56 66 59
4.95295 6.92584 7.98222 0 49 39
-2.42295 19.2532 28.4712 73 76 60
7.29326 -1.54372 -1.82147 3 31 18
1.70931 11.618 -0.698929 81 40 0
-0.881683 19.5604 -5.50472 4 17 0
1.24488 1.33428 -16.5926 57 27 0
-0.338255 10.13 -12.6228 1 40 19
-0.137672 10.0073 -13.4752 72 64 32
0.997272 -9.47049 -24.8192 128 62 10
4.67161 3.4012 -6.97403 33 33 8
-0.736671 11.9314 -4.68622 66 67 40
-3.04192 8.37782 4.47405 20 24 4
3.56418 6.67876 -4.70025 10 39 23
-1.17271 13.3988 20.2131 89 61 12
-9.35761 -11.5206 7.7556 79 94 85
1.32705 0.00892258 -16.3792 105 85 46
-0.300957 6.78828 -17.0942 10 24 16
-2.85555 8.07519 -3.67112 2 26 11
-1.42574 21.9872 1.11899 0 7 0
-2.92292 8.42783 0.958479 8 20 8
-2.10525 9.23361 8.65702 1 1 1
4.47153 -19.9828 -45.1231 92 59 2
1.19885 14.5639 -5.67593 40 27 5
2.82135 11.1536 10.8436 2 16 6
-1.21429 11.4822 17.7019 73 53 8
2.11732 16.8367 -11.2663 11 22 8
3.42327 -4.96137 -14.9282 25 62 50
-1.86312 -0.869476 -14.6845 2 25 3
-8.14595 -5.7496 -4.15879 46 75 60
-5.23182 4.90228 8.78468 2 11 1
-0.690296 20.4896 24.7717 88 91 71
1.7442 -13.9168 -30.9025 119 95 63
