ply
format ascii 1.0
comment Created by Open3D
element vertex 1396
property double x
property double y
property double z
property uchar red
property uchar green
property uchar blue
end_header
-1.22528 10.9214 -0.797588 66 29 0
-6.16672 0.986526 11.8804 25 48 34
-1.10744 15.4407 -1.00136 5 23 8
0.73882 23.9884 28.7279 57 66 55
-0.520411 25.2445 -1.20979 65 33 2
-4.90905 4.81633 -4.70608 2 30 8
-1.29735 24.213 0.180018 5 14 9
-6.26703 0.555923 -7.41972 8 57 40
2.39828 -0.333786 30.4792 69 85 75
1.81967 23.7917 28.5642 50 57 50
0.127548 11.3701 10.0649 62 34 0
-10.1156 -17.7272 8.88321 84 98 89
-9.6609 -17.92 9.13309 79 94 85
-0.154678 15.0709 -10.4866 0 6 0
3.13045 -20.8859 -47.4249 63 75 66
-2.60993 9.18336 2.49208 2 11 3
6.31523 -9.57866 -6.53636 146 162 131
-0.900635 9.04833 -8.13275 45 34 8
-6.8648 -6.68777 20.5357 75 90 81
0.812889 13.2111 -15.7136 21 32 14
1.2738 12.3653 -19.2531 2 47 24
-1.39588 21.4753 2.23281 31 35 11
-9.78411 -11.5449 3.83892 119 142 123
-11.8382 -18.4761 7.9349 70 85 75
-3.24955 5.02274 13.0414 68 69 55
-4.33344 7.15289 2.33556 7 7 0
-2.32248 18.5242 26.8177 91 93 69
1.24376 18.5231 -16.6395 78 52 22
0.0316238 12.6613 -13.2235 2 24 8
-7.6371 -3.89237 -6.67754 4 61 40
-0.433128 -4.5306 -20.0492 74 62 31
-2.71357 8.77104 4.13825 3 31 15
3.59221 -20.4313 -7.04069 109 125 106
-8.71178 -9.26184 19.6027 63 73 66
-0.663313 18.401 7.17863 8 16 0
-3.00489 -1.89261 -13.3473 2 56 24
-0.173252 22.6284 25.3531 115 111 79
-4.36295 7.00351 6.12532 7 24 5
-0.0557175 4.80969 -19.8955 24 49 24
-1.21544 22.3155 -2.16938 0 10 1
-9.59693 -4.62518 0.116273 32 68 53
-4.46104 4.13064 -6.69956 18 50 22
-7.44029 0.62957 -1.66833 59 34 4
-9.10469 -19.0547 6.13866 151 186 166
-1.25726 12.5558 22.4279 56 62 48
-10.242 -8.19366 4.74126 96 114 98
-6.74044 -4.1974 -8.65769 92 118 99
0.323784 16.9372 19.601 96 67 7
-0.287703 11.7293 -11.3452 78 55 12
-0.656113 14.3026 -6.00568 72 56 21
-2.09144 -5.64997 -16.8874 3 36 18
7.67272 -2.37478 -8.55917 29 84 67
-1.79368 19.8017 33.5935 61 72 62
-3.25649 7.74918 9.32042 2 7 1
1.33373 12.624 13.5483 135 92 33
1.21548 13.8761 -18.3521 1 6 0
1.7168 23.7485 29.4405 47 54 46
0.379375 14.249 9.20952 72 36 0
-1.19843 1.09593 -14.3571 33 65 40
-0.252144 1.75871 -19.0195 61 46 14
1.49686 0.77562 29.4877 71 80 68
5.06097 -18.5015 -6.36366 68 79 64
-0.853554 13.8625 19.7523 99 71 6
0.415482 22.5201 -12.0565 14 47 31
-5.14418 -1.02786 7.4947 70 76 62
-1.90007 19.6173 31.1359 63 72 61
-0.401306 4.25267 -15.819 0 33 20
-0.253002 18.238 -8.32191 18 14 0
2.5504 -20.2398 -41.033 80 102 84
-1.28638 13.9171 21.4462 77 64 26
-0.850334 18.2704 5.29312 46 45 23
-3.17687 1.24893 14.3073 68 66 43
-1.1127 22.5053 -0.141368 52 46 0
-2.24076 8.84202 9.64579 10 36 24
-3.86114 7.6305 5.24908 8 4 0
-1.57136 10.8618 0.378504 68 26 0
-7.65063 -21.05 14.1789 53 61 52
-3.95324 7.25255 -0.229809 0 1 0
-1.65942 20.3592 26.8365 80 86 69
-4.45348 4.55675 12.3918 48 64 50
0.787174 22.1848 23.6595 129 116 73
-0.808712 18.2169 -4.19637 20 17 0
-1.58705 20.2417 32.2422 62 70 59
-1.62224 20.3296 32.4319 74 83 71
1.07138 18.3266 -16.4299 66 37 16
-8.20413 -0.323645 -1.16698 57 42 0
-2.38214 16.7028 34.5914 52 64 54
-0.679443 16.2178 -8.54922 0 13 4
-3.98582 -2.14848 -12.5997 6 42 24
-1.30553 13.0039 25.4369 56 67 54
0.410027 9.05882 -17.2526 54 54 20
-0.220798 11.9265 -11.4212 75 54 18
-1.46181 22.4948 0.934566 2 6 0
-2.82751 8.35024 -2.63661 13 29 6
2.70998 3.00878 22.9696 64 74 61
-0.190821 19.1419 -8.71532 15 15 0
4.36207 -19.6906 -44.0798 82 49 15
0.376572 11.5649 -16.2262 0 4 0
0.018378 23.4219 31.4096 63 75 66
-1.00381 12.6114 18.4585 95 66 5
-2.52987 18.178 33.1527 71 82 68
-5.1648 -20.8796 11.9866 67 76 67
0.612365 17.6541 37.3723 68 82 72
0.734714 2.6576 -20.7175 105 87 38
3.20484 0.990982 29.8167 71 85 76
-3.16121 6.93942 11.6532 9 27 6
-7.99348 -5.08462 18.5828 57 48 35
-0.869144 16.0642 4.27352 2 16 1
-0.805901 7.88493 -10.9715 53 60 41
-8.04799 -3.11804 -5.94441 1 56 33
-3.93931 7.22652 0.461226 1 1 2
-0.412605 15.12 19.9434 76 56 5
0.81693 -0.614208 29.8461 74 87 75
-3.17039 0.82954 -11.2561 9 47 27
2.08837 21.8136 33.001 70 84 77
-1.90723 -8.05706 -19.5932 94 78 49
-1.58328 20.0799 26.5074 92 100 77
4.77534 -20.0071 -44.6073 87 48 11
-9.33558 -3.3033 4.47982 63 42 1
-3.53952 7.15133 10.8708 0 8 3
2.92064 -21.0541 -44.6708 52 58 46
0.463806 15.0219 17.0276 46 50 21
0.1315 13.21 -13.6194 1 21 7
-1.34106 13.5479 23.7615 66 74 61
-13.0866 -21.7956 13.1764 73 87 75
-7.52012 -3.66304 18.2252 56 47 28
-5.44155 5.53112 -0.814069 2 14 0
-1.31703 19.065 1.60744 32 35 12
-0.998981 11.2046 -3.67286 46 52 36
2.8522 -21.2057 -44.214 71 82 68
2.26997 -16.8833 -35.6248 85 80 56
-1.1091 5.9703 -10.5552 78 42 0
1.24664 15.5389 16.6185 130 82 21
-1.07903 20.994 -0.290802 63 45 11
4.4176 -20.2979 -46.0284 98 72 28
0.822296 17.3246 -15.1954 60 28 1
-6.03492 3.04952 4.22501 0 35 22
-0.0327721 20.0949 22.9241 85 78 37
3.53206 -21.359 -49.1954 120 122 103
-1.91894 14.4531 37.3727 67 78 67
-10.8211 -15.0004 7.66742 75 85 77
-9.34124 -20.5036 14.0114 67 79 71
-0.175541 10.632 10.9072 67 38 0
-6.65555 -6.49055 20.5518 75 89 80
-2.29854 22.3683 28.8349 55 64 52
-9.67852 -6.89619 7.45851 78 91 78
0.560942 20.8438 -12.2814 90 63 13
-2.7596 8.5827 8.06186 0 2 0
-0.768818 9.74582 11.3219 15 22 5
-0.808243 5.40862 -12.4856 53 61 38
-1.12093 17.6076 24.2848 89 82 50
-4.89165 -2.68124 -11.1561 15 72 54
-0.95771 4.63843 -11.9841 53 41 7
0.25565 19.0784 -12.9846 1 14 1
2.19352 0.31205 30.1992 72 83 73
0.722687 17.1908 -14.0479 27 46 29
-0.642818 16.7993 22.257 103 80 36
-10.8249 -11.6189 5.39332 78 95 83
-0.6563 3.45138 -14.9096 3 34 25
-1.70871 19.9364 32.7961 63 76 63
-10.3242 -10.9321 4.53711 119 142 123
-0.920284 20.3493 -5.64106 0 17 4
-0.680054 9.52577 -9.84686 62 54 28
-7.74443 -0.272095 1.24442 64 38 0
-3.81808 7.35718 -0.0566387 0 1 1
-6.76633 1.8297 -3.75555 2 20 6
-1.50394 -7.57 -20.2475 83 64 30
-0.633598 -3.05629 -16.9654 121 112 71
-6.76178 0.187889 2.17697 67 65 43
4.39693 -20.084 -3.19001 51 52 37
0.10429 23.7937 30.0369 54 65 56
-2.76072 8.80055 4.81054 3 10 0
-0.986567 18.1922 39.4833 76 91 81
2.50933 2.62393 23.6299 59 64 52
-12.4218 -20.3876 11.3329 70 79 71
0.728943 15.0614 9.45499 99 58 1
-1.32817 -4.6185 -17.5564 1 34 8
-6.2948 3.16936 -0.774324 0 32 18
-5.91387 4.60953 -1.67757 6 24 5
0.64114 14.0862 16.008 16 30 11
-7.97464 -2.83835 5.49825 66 37 5
1.55992 14.1578 15.0628 145 88 16
-2.53661 4.65052 -9.67733 3 24 6
-0.132217 19.6428 -10.9007 0 27 1
-0.590397 13.1738 3.44202 1 12 0
-8.57111 -3.90065 6.43959 72 50 16
-1.6119 23.1746 30.86 63 72 66
-1.26836 17.1789 1.75199 16 24 5
-3.69653 6.78703 -2.64856 9 15 4
-0.141762 19.8393 -8.26443 72 45 1
0.470825 11.2167 -17.1276 34 47 29
-9.43351 -2.07782 0.460903 74 73 51
-4.59071 5.12152 12.0841 27 54 37
-1.33245 18.7278 0.674412 2 24 3
-10.5901 -9.1706 5.13155 91 108 92
-5.22871 5.41317 6.41239 9 50 38
-5.46817 5.83622 3.66354 14 26 5
-1.48388 21.2788 29.8448 97 113 99
-5.93642 -5.04623 19.5881 57 61 51
-1.75757 23.2296 30.4099 56 67 59
-9.77478 -2.71507 2.54631 64 42 0
-2.72845 8.4073 5.61003 12 32 16
-0.290215 15.1312 -9.73744 85 72 22
2.23371 23.467 30.3906 49 62 54
-0.992577 25.2849 -3.74624 2 30 3
-0.13763 7.42068 -16.8537 7 22 12
-7.0701 1.14177 -2.6413 39 31 0
0.820961 17.2282 19.0172 116 75 7
1.22229 -17.3456 -32.8821 71 76 57
-1.46988 23.3993 29.0355 65 74 62
-1.68728 19.8663 26.7506 82 92 70
-10.3481 -5.25242 4.95746 88 106 92
-11.3711 -16.0789 6.63371 73 88 72
2.27728 -14.4695 -31.8436 124 84 8
-1.67248 20.5962 26.7848 80 88 70
-0.638905 12.8082 -8.25835 58 61 33
-5.50056 2.44164 -6.41084 63 79 71
-2.80267 8.43154 1.43077 3 8 2
-3.19565 8.02155 6.09897 30 20 2
0.443336 18.8125 37.4785 67 82 73
-11.0247 -14.1405 6.43022 68 80 67
-4.92132 -0.94276 -10.7627 6 49 35
-5.63697 2.02573 5.52384 1 43 26
-0.415327 8.39145 -14.422 7 51 34
-3.16137 -5.4754 -15.0296 9 57 29
1.13183 -13.5011 -29.8433 83 84 52
-0.233009 1.74291 -18.4154 69 60 40
-3.47497 15.0764 34.2243 60 73 62
1.40829 19.9138 21.1075 153 120 41
-0.378822 -11.1806 -25.3693 116 106 73
-1.52127 10.9216 2.89888 55 27 0
-0.597496 21.5469 34.87 63 76 68
-0.401329 18.4567 -7.27331 83 64 8
-0.577179 13.4062 3.09008 23 27 6
-0.901928 11.5321 3.23369 68 30 1
-1.3224 22.5916 2.47275 69 43 6
-5.09858 6.18679 3.01903 23 43 30
0.0328445 6.14456 -18.2 44 54 39
-7.74168 0.462242 -3.4665 23 38 27
2.39897 -16.9495 -36.0345 92 92 67
-3.92611 4.10038 -7.3574 10 37 3
-0.71489 -0.325809 -16.7211 63 54 33
-0.140484 19.6292 -8.42697 54 34 0
-0.588745 23.5082 27.6675 84 90 71
-0.916794 11.4514 -1.30014 78 66 38
-7.5299 -6.57829 20.4246 75 90 80
0.317503 9.03031 -19.8723 11 22 18
-1.20917 19.7605 -2.12443 3 21 18
-2.54357 8.63799 9.11016 3 8 3
-5.90885 1.91127 10.5846 3 32 15
-1.26243 17.1874 24.2045 88 79 43
-10.419 -8.58269 5.0154 81 96 82
-6.32143 -19.8159 11.7488 49 46 31
-2.81065 8.43738 1.25972 8 18 8
-0.363861 19.2746 6.62108 18 23 15
-1.25578 22.6675 32.2706 73 84 75
-8.63746 -1.56867 -3.94765 4 52 39
-0.38974 13.8159 -9.96731 0 10 2
3.72685 2.53307 26.5977 64 73 61
-2.17933 10.0397 3.7592 1 18 0
-6.23338 3.60649 -1.20382 0 41 29
0.142597 -11.2424 -26.3752 105 84 43
-8.60778 -6.28928 18.9388 78 61 22
-2.51655 18.3954 34.8113 56 65 56
-3.02776 17.8488 29.1006 74 86 70
-2.25786 0.188034 -13.4151 2 42 18
2.3525 -13.5671 -30.2305 108 48 7
8.20393 -21.3926 -0.325539 49 38 15
-3.1416 16.3902 29.3377 62 72 59
-2.00326 21.3604 27.6013 56 67 56
-1.8792 19.6185 27.0634 79 84 65
-2.19344 21.8738 28.4806 75 88 76
-8.00108 -4.15396 6.91786 79 70 51
-10.2742 -13.6676 7.86654 77 89 79
0.405605 8.96803 -18.8049 0 19 5
-4.57329 6.89381 2.85601 0 9 1
0.0790806 10.9618 -14.1744 68 63 33
-4.58346 6.58084 -0.46822 9 18 6
1.11649 15.6521 -16.5666 3 30 9
-1.1857 -6.25507 -20.0156 23 25 5
-5.20746 3.20556 -6.60408 2 58 27
-1.28583 -8.28635 -21.5009 106 91 58
-5.47996 4.02449 5.92804 8 44 31
-0.799431 15.9385 2.81389 44 44 25
-0.922966 17.6535 -4.86861 9 20 1
-1.51272 -4.66084 -17.23 2 24 1
-2.39395 16.5279 35.1275 76 94 81
-3.02624 3.95356 -9.42937 1 26 12
-9.42668 -9.65275 3.73678 153 184 162
-10.428 -7.02449 5.96119 62 75 65
-0.549316 23.3032 31.2285 64 73 67
4.50759 -17.8634 -37.8529 76 33 3
-0.508984 23.3168 -7.69046 24 54 42
-0.33521 22.1466 33.7139 71 85 76
-0.393684 6.84882 -13.8426 82 83 61
-0.987225 21.2174 -3.67607 64 53 9
-2.8109 6.48153 -6.62 22 36 22
-1.05258 22.2761 -2.95183 28 21 5
-7.26765 -1.97626 4.65736 69 51 9
1.4705 9.42883 -20.6611 105 131 114
0.842625 13.0827 -16.343 74 47 2
-1.37952 10.7045 21.2816 60 58 41
1.61277 12.3049 13.0616 136 95 36
-0.332756 11.7205 -11.1372 73 61 21
-12.5116 -21.3354 13.1706 75 91 80
-5.62719 4.29498 -3.13583 26 70 54
0.253136 11.6824 -14.3387 9 36 21
-0.315636 14.4104 -10.8401 27 48 25
-2.30443 9.2255 6.92465 18 36 26
0.240662 -3.74953 -20.9463 151 138 77
-0.558926 8.95163 -11.7826 2 32 18
2.82363 2.18285 28.7873 62 71 62
-2.45055 14.1068 37.1738 61 71 63
1.86482 -15.832 -33.1407 104 103 68
-2.05714 8.92185 10.3497 0 14 0
-0.458767 23.6161 30.2318 52 63 53
0.64235 0.861946 28.764 58 55 35
-1.36358 10.8528 4.36051 60 27 0
-0.919441 14.0823 -3.38797 4 17 3
-2.02123 23.0835 30.0922 50 64 63
-11.0398 -21.8163 6.74095 147 178 154
-0.610138 21.5046 -7.29001 10 35 13
0.405113 23.5028 -10.6017 49 18 1
-3.57135 3.15738 -9.04396 34 57 29
-1.28643 20.3553 25.976 90 98 72
-1.0789 3.33315 16.0603 65 74 60
-9.03232 -19.4816 12.3043 56 67 59
-0.590088 23.0688 -7.10128 47 40 10
3.5573 6.64747 19.1993 74 89 77
-13.1096 -20.9146 9.77232 99 120 107
-1.7882 -11.7597 -20.2851 72 88 74
3.4384 -15.7996 -33.9058 94 51 9
-0.825359 19.6154 -3.95272 80 51 4
-0.174158 4.90506 -19.5739 4 48 15
-5.70584 -0.228855 -9.11534 25 61 46
-8.69687 -11.4898 3.11127 158 186 159
3.37214 -21.5797 -49.3981 116 130 111
-0.26203 1.07376 -19.4906 62 58 34
-9.84433 -17.6449 8.96413 83 97 88
-0.230057 19.9407 -7.88365 87 62 11
-8.91107 -5.26594 -3.14631 4 74 61
-12.5434 -21.7175 14.1557 65 72 63
-0.247491 1.63404 -19.5597 76 60 23
-0.651791 3.45035 -15.2762 0 26 16
-1.03937 24.2029 -3.29272 1 11 1
0.177238 22.6802 32.7442 65 77 69
-8.13756 -5.55087 7.65182 83 81 63
-2.66658 17.4951 26.7011 93 103 81
0.946629 -16.4919 -31.0993 74 80 67
0.512184 23.7798 -9.66621 84 47 7
-1.63107 8.07105 13.0606 11 32 18
-2.86914 8.60123 3.8618 15 31 13
4.80524 -19.7504 -43.8203 74 36 12
-6.17146 -2.30273 17.3387 69 57 26
-1.56094 21.1475 30.0098 100 116 101
0.688927 13.7623 15.4501 36 57 37
-6.27016 -3.46192 -9.16293 36 93 71
-5.88453 0.910027 4.8614 19 54 44
-0.721634 11.7371 -4.5162 79 78 43
-8.20661 -0.480423 -3.64085 1 30 25
-1.34737 15.6255 23.3345 96 94 59
-0.135967 23.1273 31.8954 65 78 70
-8.35116 -3.35121 -5.15775 0 69 58
-1.55711 18.7869 25.761 99 92 58
-0.207447 14.1871 5.68416 1 23 6
7.19342 -14.9565 -8.40527 151 128 62
-5.62812 -1.68929 -10.158 0 76 54
-2.31435 9.92972 2.90853 2 3 2
1.26394 15.5675 -2.88327 7 18 5
-2.05904 8.86553 -5.15298 63 55 23
-0.314857 0.550663 -19.0948 67 58 32
-4.38719 0.414803 13.9155 71 58 28
-0.1591 25.7067 -7.47164 32 35 20
0.437748 20.3688 -12.1072 84 60 24
-1.27159 25.5918 -2.94945 7 17 17
0.432476 17.3111 19.7896 96 65 7
-9.29898 -21.0798 15.056 64 77 68
3.14339 23.1014 29.6305 63 73 66
-2.7118 15.8748 34.7629 60 71 61
0.0216389 19.8328 -11.1674 0 31 6
-3.4589 14.9477 34.5513 59 71 62
-10.4475 -20.8206 6.43602 156 193 166
-0.952309 21.2909 -5.81001 0 9 0
-0.690569 10.2871 -7.31834 49 52 32
-1.315 -1.12419 -15.491 9 54 13
-8.60534 -21.1366 15.4327 55 70 59
-1.1796 16.9889 23.705 89 83 50
-4.22102 6.45384 -2.71559 5 0 0
-11.5255 -21.2438 14.1416 63 74 64
-7.80527 0.204826 -1.03816 61 39 3
0.985601 21.5134 34.3375 65 79 70
1.4294 15.2547 16.2069 135 80 21
0.769979 13.4229 15.0539 83 69 34
-0.941909 12.0885 -3.25675 0 24 10
-12.801 -22.2146 14.3121 67 88 77
2.11613 -11.6607 -27.4186 116 54 12
-5.94674 0.205769 -8.21456 31 100 76
-0.67517 -5.74678 -20.2079 81 64 20
-1.18239 20.1541 -2.13744 6 27 18
-11.6968 -19.8106 10.5267 67 72 67
-2.20404 17.1472 25.7517 101 108 84
-2.73291 19.0701 29.4652 57 63 50
-2.98417 2.55164 13.7223 68 74 62
-1.60109 4.11238 -11.6112 63 44 0
1.7039 21.1995 22.3107 133 121 77
2.05797 -17.8125 -36.042 72 79 58
0.677944 19.8597 21.6206 121 92 16
-9.19426 -10.7119 3.45855 159 186 160
-6.8837 -0.15992 -7.06821 30 91 68
0.783985 19.1335 20.927 112 84 13
-1.20854 25.831 -3.33399 7 21 23
-1.08952 23.204 31.0892 61 78 66
-1.11433 21.4291 34.469 60 73 63
2.31443 -11.8685 -27.43 108 53 5
-9.70285 -19.6604 11.9845 60 70 63
-0.194435 1.85381 -19.3415 65 43 12
-4.04908 1.52283 -9.78382 26 46 24
-7.40178 -5.21447 7.73608 76 65 41
-1.05285 17.6186 2.67603 52 43 20
3.29147 6.52603 19.5335 74 88 76
-1.18368 16.5237 -1.30825 2 24 1
-3.30934 15.8535 32.0321 72 88 73
2.11211 2.65714 25.8135 83 90 67
3.78603 2.9894 22.618 83 83 66
-2.17003 19.7528 30.3541 60 67 56
4.77638 2.6846 -8.75711 1 13 0
-5.05869 6.40255 2.17344 4 18 5
-0.610799 -3.53514 -18.8501 58 67 49
0.0989952 22.8751 -10.8397 14 19 4
0.462215 -16.5625 -29.7192 68 77 64
-7.54652 -3.55444 17.2732 53 55 44
3.00921 0.812231 29.9625 76 88 79
-9.45677 -2.0312 0.0300598 65 54 26
-0.241592 14.1802 -11.0218 31 35 20
-5.67808 -6.58211 19.8048 60 71 62
-6.25581 2.00807 3.50484 0 47 30
-0.649445 12.6737 -5.52826 66 60 32
-1.41236 10.6536 5.24532 58 29 0
-2.02595 19.1865 33.0257 58 66 54
-1.11311 17.1338 23.6906 85 77 43
-0.548233 3.34493 -17.6783 3 33 18
-9.87661 -18.4259 9.34284 79 92 84
1.07195 22.46 32.9964 64 79 69
-3.42507 2.52573 -9.75316 9 36 16
-3.1121 17.6443 29.5284 64 73 62
2.94426 -21.4162 -46.0841 63 77 64
1.05111 -14.5839 -30.4915 110 105 78
3.56004 -14.8595 -30.931 86 33 6
-0.415977 11.1167 6.58918 66 46 4
-0.311867 17.7039 -7.93563 49 32 1
-1.43757 21.3915 1.70826 0 6 2
-5.02853 1.72596 -8.37664 0 74 54
-4.68803 6.74363 4.23815 20 45 31
-1.47174 11.9136 20.492 56 58 46
-1.56763 1.83378 15.6819 70 79 67
-1.01378 23.3564 27.7981 90 97 76
-3.9329 3.09616 -8.54702 18 35 15
-5.62886 -9.47873 19.9717 76 92 80
-0.128922 16.6248 20.5261 98 71 9
-1.4438 16.9178 24.464 100 99 68
-1.00446 4.45294 -12.1696 46 37 7
-0.797432 5.40777 -14.0854 3 26 12
-1.00527 7.81406 -8.59854 101 69 26
8.17856 -2.90214 -1.88256 17 37 31
-1.52162 -10.569 -22.1129 83 90 71
-1.92353 13.8421 37.6187 70 82 70
-5.63026 4.79481 5.2257 5 33 22
-1.27304 20.1946 3.19019 1 3 2
-2.28068 9.90627 3.25143 8 21 15
-7.47421 -5.59809 20.3038 69 86 73
-1.25731 11.7193 24.0281 60 62 46
-2.24781 21.9641 28.8596 59 70 59
0.962967 13.4188 -18.226 1 6 0
0.11834 11.3337 9.97527 63 36 0
-0.70575 12.3166 -5.02422 76 65 40
0.880348 10.0098 -19.2223 11 5 0
2.30893 2.58941 28.147 62 68 56
-8.33953 -0.943207 -4.17964 9 53 38
-4.29793 0.00811577 -10.6826 2 36 20
-4.38032 6.39631 8.40391 0 2 2
-0.364889 18.1767 39.2517 74 91 80
-0.652542 11.5869 -4.85229 59 52 27
-1.2701 24.5633 0.447248 2 12 9
-1.00691 15.9981 2.18349 7 33 13
-4.67957 6.74088 3.55019 4 13 7
-2.28901 22.5539 29.2024 58 68 57
-6.70127 1.61035 -0.402367 53 55 36
-2.369 3.54959 -10.9978 0 34 9
5.49765 -21.2809 -45.427 118 100 59
-0.452686 16.4279 -7.26492 64 46 3
0.438057 14.7566 -14.7059 20 34 9
-1.4723 0.267067 -14.3872 3 46 21
-1.22733 -9.03088 -22.1454 97 87 52
-0.468742 19.5126 -7.34383 110 79 16
-5.88033 -3.16992 -9.5619 2 81 61
4.89624 -20.0863 -44.6924 90 52 10
-7.01817 -0.958664 -7.33777 1 70 43
0.454388 21.486 23.3534 121 102 54
-0.752968 11.7297 3.26987 69 32 0
7.17094 -6.71381 -0.692009 72 86 76
1.97201 14.6008 -19.8097 105 125 102
-9.15576 -8.44945 3.65412 163 196 171
-6.37921 -0.764717 4.1066 64 62 42
-2.50276 -6.36004 -16.4952 22 63 56
-0.746122 18.036 39.4144 77 90 80
-3.10617 -9.29007 -15.3817 77 93 80
-2.30113 6.23596 -8.33606 1 15 0
-1.39273 -11.1764 -22.537 83 96 76
-0.31974 17.3707 21.9973 109 88 32
-0.792252 23.2834 31.1042 66 76 66
1.59322 0.994392 26.757 108 108 74
-0.868753 13.3054 -4.81903 25 43 17
-3.53783 6.04793 -5.03813 33 53 48
-1.96021 8.48564 11.7222 0 18 2
-0.637321 18.1815 7.49839 32 29 3
0.623936 -13.3698 -28.959 107 97 62
-1.1337 14.5629 -4.54049 0 18 3
-1.18647 25.4474 -3.32471 0 8 7
-2.72174 3.72655 -10.1552 18 50 29
-2.5836 2.25112 14.3021 68 74 61
1.20436 22.8167 -9.23097 34 20 0
0.177639 23.8307 29.904 54 66 56
-6.47149 0.395065 2.9054 40 63 53
-1.49573 23.0163 27.4915 107 116 92
-3.12181 17.6503 29.3649 74 85 69
-0.706787 15.9212 -8.13207 3 3 0
-1.18458 11.2742 3.32248 56 27 0
-5.01284 4.74125 7.12079 26 54 41
-1.23523 24.6365 0.383032 5 14 8
-5.03217 5.81473 9.90209 10 35 18
-0.430502 -2.32424 -19.1779 64 59 35
-4.35022 7.1787 1.98871 1 0 0
-0.23428 18.8655 -7.98706 66 41 7
-2.031 22.0221 31.5364 76 93 81
-0.832115 17.5253 23.362 84 73 39
-10.2256 -4.3417 5.24729 69 64 47
-0.541107 12.5784 3.90583 44 46 32
-3.92087 -8.48038 -13.1257 37 91 75
7.21115 -3.73093 -9.66633 120 128 107
-4.98389 -0.728218 14.6541 77 62 36
-8.39459 -3.67195 -4.89699 4 53 40
0.380745 19.6607 -12.2297 59 41 5
6.07394 -10.1373 -6.94693 148 157 122
-5.22947 -3.07631 -10.5486 3 70 47
0.326747 21.9197 -11.8296 6 37 8
-3.19374 5.37571 -7.11865 8 16 1
-3.50811 7.68442 0.398345 0 2 1
-0.954056 3.52987 -12.9433 72 81 60
-3.89689 6.24061 11.9218 15 44 28
0.40485 18.9398 -13.4756 65 56 22
-5.32111 5.44437 -1.82371 4 42 26
2.43983 -17.449 -36.6839 85 83 60
0.770382 12.9931 -18.8457 2 11 4
-0.818737 17.9473 24.0094 97 92 55
-3.75191 6.98224 10.9925 0 11 1
-0.857254 22.163 25.9436 125 121 83
-1.42333 20.8157 3.9852 1 16 3
1.55361 14.7214 -17.5197 83 62 24
0.699909 9.7971 -18.2574 57 44 6
-1.01694 15.6304 22.4549 80 75 44
1.04553 19.0648 -14.7878 14 32 8
-4.92784 6.48778 4.41605 32 50 28
-1.2844 21.9968 2.47678 58 41 3
-1.67639 5.86757 -9.82026 71 42 0
-3.90183 7.08162 8.58769 7 3 1
-1.21601 20.9567 5.0348 36 29 1
-0.499275 5.856 -16.0324 7 44 23
-3.58323 7.61178 0.285287 0 0 0
-5.88204 -1.28085 10.305 83 93 75
-4.87774 5.86023 -2.50881 1 15 0
-2.10172 1.68769 -12.7186 2 48 23
-4.79938 6.25604 9.29486 0 0 0
1.01333 20.6835 -4.61481 3 9 0
-7.98173 -6.14596 20.1368 71 82 73
-2.11658 22.6019 27.91 77 90 71
-2.71135 6.01708 13.0392 31 51 38
-1.16597 13.7751 20.5444 97 69 25
3.10379 -13.8157 -29.6363 89 47 4
-0.868068 11.2977 -0.162636 57 30 0
-0.217751 18.4585 22.5238 114 85 30
-4.4282 7.14849 1.14287 0 0 3
0.226907 25.6446 -6.36816 69 53 32
0.145817 11.5753 8.06905 70 45 2
-9.90072 -3.05952 -0.0449009 78 90 73
-13.1857 -21.9921 13.3331 69 78 71
-0.0675845 5.06743 -19.7798 4 35 13
-8.65305 -5.56063 7.47619 81 85 69
-0.48082 8.05994 -12.7236 26 30 10
-0.402542 16.1115 21.0759 73 56 22
-1.47835 7.14661 -8.50946 87 43 0
1.28239 19.2104 20.5285 145 108 22
1.34203 -11.8847 -27.9918 130 79 11
-7.84401 0.270912 -2.20863 54 37 5
-1.17679 18.1243 0.0771041 49 38 7
2.03479 -15.4114 -33.0412 102 103 83
-1.05473 16.2705 -0.644156 3 14 0
-5.31895 5.54816 5.51932 12 47 33
-2.64362 8.25329 9.94354 14 15 0
-0.353058 15.1952 -9.56993 69 66 26
-0.529125 16.9106 22.0897 100 80 31
-0.748699 3.28455 -16.0198 0 8 0
-0.0946655 15.7844 -11.61 11 34 15
-6.18419 -22.7873 13.8306 60 72 64
0.330129 23.9109 29.4042 56 67 57
-5.79368 4.21836 -2.4377 44 94 82
0.923306 -11.2382 -27.0172 155 99 16
0.874245 22.4011 23.8222 125 116 74
5.08928 -19.5823 -41.4215 95 51 2
1.04012 24.0497 -10.7667 51 28 5
-2.37475 16.6771 33.2489 62 75 64
-0.739746 14.1647 -7.1539 1 5 0
-7.81509 -1.42108 -6.28397 5 61 40
0.14715 19.3507 -11.3692 33 44 15
-0.537724 13.2182 17.7375 109 70 4
2.46815 -17.6188 -37.0447 74 75 46
1.57728 21.0854 22.1375 144 131 74
-5.99352 1.77405 11.7056 14 50 38
-0.913776 20.3455 -5.94589 0 16 3
-8.79448 -11.4542 7.70548 74 92 80
-10.2513 -11.8202 4.42159 118 141 122
-8.71807 -6.7255 19.5313 49 58 49
1.15764 -12.5924 -28.8063 124 80 9
0.730366 16.8813 -14.6596 61 35 0
-6.68112 0.68375 1.51698 58 66 51
-1.17686 4.13588 -12.1758 56 47 18
-2.25689 22.7178 29.5848 60 71 61
-2.26385 22.7826 29.2085 58 67 57
5.79521 -0.165379 -10.3273 32 65 44
-9.62523 -6.10193 0.568721 51 73 63
-5.92707 4.31911 4.37569 0 36 23
-1.68093 22.5157 31.9842 67 77 68
-0.993365 18.9332 5.2297 47 45 17
-2.24858 8.54605 -5.31872 13 28 5
-0.402668 16.9326 5.8177 0 21 6
0.792061 22.8389 32.3081 71 84 76
-4.89814 5.65897 -2.99082 36 56 36
-0.705521 10.6549 -7.74422 22 34 11
0.147854 -12.7788 -27.4186 110 100 67
2.81167 -10.7057 -24.8561 113 53 12
-8.72871 -3.11703 -4.16439 1 66 48
-2.31307 -2.87622 -14.7221 6 71 51
-2.09291 6.78218 13.6105 8 41 24
0.0625114 24.2702 -8.60963 93 66 3
-1.16386 22.1321 2.7096 50 36 2
1.57541 14.8418 15.7471 139 85 16
2.38874 -4.70221 -17.8779 14 31 21
-6.96041 1.10496 -0.286667 62 53 32
-4.00611 3.81251 -7.55298 29 35 5
1.25589 17.0564 -17.2544 5 25 12
2.28616 2.8727 25.7832 86 89 68
-6.40343 1.41864 2.32108 5 45 34
-1.51553 20.2883 28.7312 67 81 68
-2.37664 16.4366 34.7813 61 72 62
-1.4414 -7.09576 -20.0109 90 84 55
2.03249 -0.731586 30.6245 71 85 74
-1.25411 20.8407 35.5574 61 73 63
-2.23908 22.7724 28.9178 57 67 55
3.64134 -4.92188 -14.3168 1 30 4
-2.35197 18.9178 27.6467 96 105 81
-0.761711 21.4586 25.0799 112 110 76
1.12131 21.7173 -14.3776 68 56 23
-1.21114 -5.68894 -19.1413 27 35 2
0.0241394 12.6897 -13.1394 1 27 12
0.471651 21.7496 34.3066 69 82 72
-2.67958 17.9399 36.5648 56 67 57
-1.09307 20.264 25.5985 96 97 71
-3.08006 -4.88688 -14.7856 6 46 11
-2.49424 9.64085 3.92609 1 1 2
-5.5504 -4.05804 -11.0818 82 111 86
1.59531 1.58504 28.9802 63 66 53
-8.65962 -2.76557 4.353 67 39 4
0.4865 9.12767 -17.5698 41 37 11
-0.912643 11.4411 0.902478 76 49 6
3.08086 -21.7267 -49.1484 81 99 91
1.44616 11.2937 -18.9537 128 121 85
-7.84174 -4.22156 -6.20271 0 64 42
-0.297813 8.13306 -14.4785 0 47 30
0.861351 21.3229 -12.7976 77 53 4
-2.84422 2.97102 -10.6532 25 56 37
-0.0611954 15.488 19.1347 81 53 4
-10.4256 -8.26667 5.63241 72 86 74
-0.775688 5.35032 -13.6408 0 18 3
-5.51995 5.31972 -1.24567 2 32 10
-6.12753 4.13083 -1.14011 0 28 16
-3.4106 7.00376 -2.98597 7 14 15
-1.35167 23.4814 2.2735 71 42 3
-0.882774 11.5192 2.39302 58 33 0
-2.66013 14.4069 36.699 60 73 62
1.381 -11.3473 -27.3099 141 77 19
-12.3473 -21.553 14.0951 65 71 63
0.188234 -11.6897 -26.7815 117 94 49
1.44292 -17.3036 -33.6424 74 78 62
-10.0268 -6.99002 4.47281 89 112 96
-1.16777 10.8494 24.3238 53 65 57
-2.9686 8.31538 7.72004 0 12 1
-0.0197182 -0.707748 28.8213 94 78 45
0.60881 22.7628 32.4645 71 82 74
0.304146 11.3809 -15.052 52 42 9
2.12776 14.8841 -19.5306 81 59 22
-1.92154 6.18133 14.6158 46 51 33
-0.920746 11.59 16.6441 54 40 5
-3.05267 -5.21461 -15.0131 47 81 55
0.417809 18.8364 21.4041 96 74 13
2.06258 -18.2397 -36.8258 72 74 48
3.09534 8.48737 19.2248 69 82 73
-3.33509 15.8722 32.965 60 67 57
0.178345 11.2299 -16.3315 2 23 13
0.795692 17.4822 -14.4398 54 46 20
-1.45616 10.5201 20.11 57 62 51
3.38587 -17.0266 -36.9453 110 69 15
-0.434078 9.07911 -12.4723 60 59 36
-9.35992 -14.3966 8.28406 80 95 86
-1.94483 -1.28784 -14.8354 0 48 12
-9.47481 -2.40908 2.54958 68 48 3
0.309156 8.42121 -17.3433 1 5 2
-1.43881 10.4056 22.5231 68 66 40
0.777504 23.6468 26.5446 79 85 67
0.473061 -8.09476 -23.2732 138 92 20
2.40492 2.98314 26.0791 64 67 54
-5.14588 6.14936 0.870893 1 15 0
-0.681221 22.6526 -4.72278 67 47 10
3.07546 -19.4429 -42.1626 68 72 52
-6.52372 0.481903 2.35158 64 73 64
-9.74111 -5.42994 0.769015 58 71 62
-5.30071 4.0901 8.69398 4 42 20
-1.57331 -12.4656 -21.4954 73 84 71
0.327486 24.8695 -8.87502 109 88 32
-2.6582 0.862755 -12.2573 0 50 28
-9.2635 -3.44204 5.17617 68 36 3
-6.9896 1.16037 -1.48222 59 46 7
-6.46634 -0.0643845 11.5086 69 68 52
-8.67361 -0.783873 -0.605835 63 40 1
-1.57695 8.38706 12.7415 0 24 11
-1.14552 20.3295 -2.44671 0 7 1
2.46161 -18.8617 -39.1001 81 86 65
-6.64931 1.21889 1.00947 51 68 53
-7.02131 -22.6873 7.98271 131 155 136
-4.3632 7.198 1.81464 0 0 0
-0.633942 5.939 -13.1761 56 67 47
-9.30977 -13.3294 3.44612 153 178 156
3.27312 2.80065 26.7939 53 62 51
1.10799 24.0238 -11.5489 61 70 51
-0.668472 24.7355 -6.84858 30 28 5
-0.733036 16.9211 39.3935 77 92 83
0.0789433 21.9726 33.9731 67 81 72
0.856194 23.9531 -11.5374 64 55 39
-0.776955 -0.548476 -16.4624 62 60 32
-0.596718 21.632 -7.21043 18 37 18
-3.31516 -1.30716 -12.6993 23 50 15
-1.16476 15.6999 -1.94157 7 30 10
1.20502 14.5806 -16.4301 12 29 9
2.53693 -19.2671 -39.7118 77 83 70
-0.452808 10.7462 -10.7307 68 54 26
3.01078 4.00673 21.0628 75 85 72
-0.473763 17.5635 7.75113 53 43 13
-4.86491 6.04533 10.0124 7 41 26
-0.599962 26.5851 -3.60921 63 41 13
2.03083 19.7579 32.2845 67 82 72
-1.20598 21.5666 -2.86669 0 5 0
-8.29603 -7.94555 20.0478 70 85 76
-0.187855 19.4596 -7.96788 71 50 2
-8.08847 -2.41075 4.25321 65 39 0
1.01699 0.837112 29.242 61 67 54
-10.873 -16.1183 8.02472 72 86 78
-7.87851 -0.944054 2.32607 65 39 1
3.78858 -18.9723 -41.9013 100 62 25
-0.307091 11.1119 -11.6807 11 19 2
-0.527813 15.0923 20.3695 90 63 3
-9.2372 -2.64222 -2.34807 60 97 91
2.92677 3.08613 26.072 60 67 54
-5.15491 5.57463 9.00725 0 4 0
1.12973 13.7153 -17.1987 57 29 0
1.46335 -10.0264 -25.3829 122 58 12
-6.31408 2.20089 -4.3556 2 32 8
-0.165073 25.7107 -7.32778 42 34 15
1.11342 12.5727 -19.1578 0 32 1
-1.43082 -7.43832 -20.3667 77 64 33
10.0835 -20.8445 -2.34656 64 61 45
-6.17332 0.626556 -7.49928 0 45 32
-1.50511 22.6384 26.8994 115 124 99
5.82841 -16.7716 -9.74705 189 213 181
0.655678 10.504 -17.5785 5 32 16
-10.817 -10.8548 5.55864 60 73 62
-1.91275 10.5231 1.17775 69 33 5
-2.33382 -10.5085 -18.3586 90 104 86
1.2689 -17.4185 -33.1289 71 74 57
-0.877274 12.4177 -4.52138 19 45 19
-0.817261 23.4599 -6.50219 0 10 8
-5.41286 -2.21203 -10.4586 2 68 49
3.4475 -2.11727 -13.3316 5 86 67
2.40423 4.87119 21.1042 74 86 73
-1.84715 19.8981 28.6386 67 76 64
-2.1563 10.03 2.23949 1 16 0
0.302032 20.7272 -11.8414 26 42 11
-6.84265 1.45491 -5.34828 0 32 10
-1.62296 -8.15012 -20.6369 89 83 44
-4.51924 6.4905 10.2431 0 14 7
-6.62685 -0.48658 11.5575 80 73 38
-0.64661 -6.68402 -21.3307 107 94 41
1.54229 23.0068 31.8596 61 75 70
-1.10736 22.6333 32.4722 71 83 75
-3.49297 -8.08445 -14.3424 1 64 46
-1.48242 18.8026 0.976497 2 17 5
-0.78817 7.0261 -10.1413 74 78 52
-0.766735 7.01528 -11.5556 0 16 3
-8.77207 -1.73372 -3.33129 2 32 18
-2.24249 19.4459 30.7342 64 71 60
-0.937237 15.7436 -2.93766 63 49 13
-0.613388 14.106 19.2675 89 61 6
-5.72191 3.09657 10.985 1 33 15
-2.79698 -2.71961 -14.0357 15 52 20
-5.86325 -6.79368 20.2003 67 81 71
-0.769043 17.5867 23.2479 84 75 42
-0.587189 -14.0562 -25.417 82 89 75
-7.36219 0.154466 -6.11381 2 45 29
-0.303715 13.699 17.1653 18 30 8
-3.40256 6.24506 12.4462 1 23 11
-9.91464 -19.3142 10.6455 63 76 67
2.61988 -19.5362 -40.6842 71 79 67
-9.18033 -10.5824 3.47708 159 187 162
0.657269 15.5258 17.2297 83 57 14
-5.02416 4.81652 7.90722 0 34 28
-7.8817 -1.80269 3.53572 65 41 0
-1.38548 13.7773 23.9348 67 75 61
-0.648823 -2.88209 -17.6641 0 23 4
-1.30213 18.0996 1.67711 30 36 10
-0.521042 -5.0985 -20.3173 75 66 35
-2.15543 22.829 28.5407 71 86 71
2.77112 -19.9531 -42.0795 65 70 56
-2.61188 3.64442 -10.5173 2 25 4
2.42284 -18.3821 -37.8316 75 81 62
-0.977646 16.7012 -3.12118 65 48 13
-1.1155 15.1238 -1.73019 2 22 7
-3.23254 15.3011 32.1343 74 89 76
0.212231 11.7877 14.0533 34 51 16
-1.97716 0.246136 -13.6669 27 69 42
-6.75587 1.89689 -4.00376 0 18 3
-3.8412 7.35274 -0.194565 0 1 0
-0.611374 -8.44382 -22.7527 157 131 73
-1.0843 10.5837 15.9028 85 57 5
-2.1073 2.80037 -11.9342 0 26 4
-9.70251 -5.19151 0.140483 30 59 49
-8.03744 -1.0271 2.242 65 38 0
-0.906105 14.5159 1.90824 3 28 13
-8.47584 -0.742767 -2.73976 13 34 16
2.67687 2.36544 28.5013 62 69 60
-1.35696 13.3047 25.4882 55 65 54
0.349865 23.4279 -10.6635 46 14 0
-5.4251 2.33556 6.58493 56 71 58
-2.51872 17.2757 31.0666 57 67 57
-8.62416 -5.39573 7.44099 78 74 50
-0.166138 12.6888 5.69851 65 41 0
-4.11811 6.36681 -3.31541 0 0 0
-0.929016 20.3525 -5.03158 5 5 1
-0.641662 14.9647 20.5348 95 69 5
0.0446243 11.4235 9.18811 60 33 0
-2.03653 10.16 0.54967 35 32 8
2.72511 -18.0019 -38.4662 87 93 72
-9.16441 -3.10018 4.26958 61 42 5
-5.40217 3.4525 -5.61066 3 32 20
1.93413 -7.58363 -21.7166 120 55 3
-8.32325 -10.3142 19.5968 67 85 76
0.264063 19.9558 22.3388 111 87 27
-5.74387 4.99849 1.71449 20 45 30
-10.1814 -19.3038 10.3061 64 76 69
0.00730896 11.2086 9.46941 64 45 6
-4.08674 -0.714048 -11.5686 0 42 16
0.409807 22.0524 33.7838 70 83 75
-0.414876 21.3138 2.80428 1 11 6
-1.13081 15.47 -1.48689 1 16 3
-11.1322 -19.408 9.8596 72 84 77
-0.266403 13.181 16.4648 28 29 7
-2.27401 8.914 -3.83933 1 7 0
1.74965 14.8993 15.7649 144 85 22
-1.1886 22.7453 26.6554 112 118 91
-11.4942 -20.5039 12.849 65 73 64
-1.24676 6.46569 -9.80294 102 51 0
7.03761 -12.7145 -7.11088 155 136 82
-0.907139 22.3484 -3.84261 64 59 26
-0.017746 2.41003 -19.4885 73 64 33
2.40753 -18.8688 -38.9219 75 79 60
-1.26155 15.7626 23.1653 93 91 58
-4.34107 7.1648 2.16224 4 4 0
1.30865 16.7815 -17.2968 1 25 11
-2.22124 -6.72772 -17.6901 22 69 49
-3.15704 1.13459 -11.1348 8 54 38
-0.361835 -10.0995 -24.6002 132 132 99
-1.22782 9.49509 10.9581 22 48 36
-5.86138 2.24697 4.7755 2 34 25
-5.32871 5.55513 6.03827 4 36 25
-0.498131 25.0671 -6.3313 55 26 0
-1.16108 24.7634 0.231295 15 15 2
-5.4335 2.27545 -6.96062 0 38 18
1.77042 -16.4968 -34.0395 74 75 53
-5.19806 -4.12755 -11.543 68 89 64
-2.73854 0.66054 -12.2378 2 66 46
3.04909 4.82964 20.682 73 86 72
-3.16117 8.04139 6.18962 28 20 4
-0.585213 21.4135 24.7756 106 104 71
0.157028 22.1311 -9.56042 58 24 3
-1.29584 13.267 22.5387 56 64 52
-1.15338 13.308 27.196 49 60 53
-0.615448 13.2476 -10.2099 5 21 14
0.75824 17.295 -14.1371 42 56 39
-1.18752 20.1616 -2.44279 0 6 1
3.00873 -21.1627 -46.1025 67 77 63
-5.22542 3.28307 7.55886 62 72 60
-0.876354 13.1069 -7.5079 2 22 10
-5.03761 4.83265 8.07893 0 36 29
2.21624 1.64909 29.4531 64 74 62
3.39739 -20.4135 -4.68322 64 69 56
2.55236 -16.4974 -35.3555 99 92 67
-1.15283 16.8605 -0.910437 0 13 0
0.452917 15.431 -13.8104 62 39 3
-6.97613 -1.81956 15.4805 60 45 6
-0.210023 25.3375 -1.50964 34 21 5
-4.11686 5.76294 12.1191 13 39 27
-2.1689 8.75711 10.0959 0 17 0
-2.14072 14.315 30.8866 63 76 65
-2.80569 -2.83476 -14.1259 23 52 21
0.915703 23.8518 27.5236 65 71 58
-9.20852 -21.1017 15.152 66 78 69
1.39275 4.105 20.5738 63 75 65
-2.22034 -5.37857 -16.378 18 53 27
-8.46387 -1.17228 1.62433 61 43 4
-0.411037 16.388 -7.58673 12 14 1
-5.09766 -0.106476 8.74859 75 85 68
-4.14306 6.84138 -1.14256 0 5 1
3.54878 -20.22 -6.89893 102 117 97
-7.76052 0.129345 -0.0505667 59 33 0
-1.37556 3.4585 -12.4954 99 90 49
-2.45032 6.97322 -7.27705 0 7 0
-1.15073 4.11723 -12.3574 48 49 30
-5.73031 5.60339 4.18295 1 22 2
-5.09108 6.11061 0.368593 4 7 0
6.76809 -20.294 -8.93228 181 213 187
-0.890462 19.1525 38.8789 71 88 78
-1.74911 20.1779 33.5884 64 75 66
-0.395018 -2.08245 -19.0476 62 53 24
-5.18486 6.0288 -0.743209 4 28 9
-1.0106 14.1215 20.6101 73 63 26
-0.435642 3.987 -17.1628 0 4 0
-1.06717 12.5139 -3.94476 11 25 8
-9.13552 -3.38309 5.19708 68 36 5
-3.88859 6.65897 11.3529 7 28 6
-7.18038 -0.482433 2.45546 67 46 9
-0.436001 4.9476 -15.682 6 51 38
3.8514 -17.6661 -38.4041 115 68 11
-1.28431 18.5448 -1.30781 3 15 7
-0.11269 20.6608 -10.374 38 29 6
-5.72919 4.13358 -2.95955 10 59 42
-1.25459 18.2988 -1.4514 3 21 5
-8.45421 -1.44284 -4.54013 10 64 54
-0.0350342 23.5906 30.7973 62 73 63
-0.266045 4.74891 -16.9838 10 33 21
-1.01095 10.8547 15.902 83 52 9
-7.52116 -2.70616 5.57332 65 40 4
-11.3422 -20.4096 12.7839 65 75 65
-3.43505 7.6929 0.976692 5 4 1
-0.384537 6.20211 -14.4195 0 18 1
2.91294 -21.7736 -46.6422 52 62 51
-0.278336 14.3855 -9.51333 66 55 22
-1.82277 14.9558 27.1042 62 73 62
0.692724 20.7558 35.9017 65 82 73
-0.755806 -12.1685 -24.8634 87 89 59
-8.79748 -8.29711 18.698 91 100 76
-2.63817 17.9275 26.7884 101 103 75
-2.74007 15.6515 29.1593 62 75 61
-0.213279 15.3813 7.61565 57 40 4
-1.57153 10.7544 4.09851 59 28 0
-2.62335 -0.359865 -12.9133 24 91 75
7.87523 -9.2129 -1.67586 72 85 76
-6.89128 -3.46095 6.75526 75 55 9
1.13503 -8.4203 -23.6185 144 77 11
-0.369198 -0.0187187 -18.9297 75 61 31
-0.433308 22.6613 25.7161 114 114 85
-8.35332 -3.77426 -4.99915 19 71 60
-0.20105 12.1757 5.49763 83 59 12
-2.3933 18.5451 34.6326 56 67 57
-5.16311 6.13763 3.63843 39 61 39
-0.157795 23.3809 26.7149 110 118 94
-1.29778 23.4414 2.38274 68 41 6
-0.310287 0.547596 -19.2809 68 57 28
-4.48005 7.20102 1.73158 0 0 0
-0.347751 -11.8824 -25.8 84 71 40
-3.29229 -10.2389 -15.1616 89 102 87
3.58218 -20.637 -47.5445 83 85 60
-11.1065 -19.5604 10.3251 67 77 66
-2.13872 9.02913 -4.00846 6 6 0
-0.670597 10.6344 -9.61802 8 18 4
0.580765 12.0853 -15.504 77 55 12
-1.15707 20.7168 25.629 96 99 72
-0.24609 16.0116 -9.85438 49 45 16
0.74279 21.2062 -12.4786 57 52 4
4.44287 -18.7769 -7.10997 73 81 67
0.711585 17.5943 -13.9577 6 38 27
-8.76551 -10.3349 7.43439 78 89 81
-12.3778 -21.3524 13.4088 69 82 73
-1.08598 22.1723 -2.87504 34 31 12
-3.21739 7.93266 4.41381 27 26 7
-7.1711 -2.80728 17.278 62 48 19
-1.40317 -5.59082 -18.5173 0 14 1
-7.32944 -19.2611 10.1898 49 48 33
1.54003 22.5118 23.7459 103 100 67
-1.10986 17.2 0.445052 32 35 10
-1.68435 9.96057 17.6447 68 58 31
-1.53869 14.8029 24.6213 70 79 64
-1.02657 15.718 -4.53911 0 15 4
-10.0806 -4.75311 6.32972 69 67 47
0.190231 10.9246 12.5418 54 31 2
-5.07365 0.288284 13.4143 68 50 14
1.09374 1.00621 27.4007 103 90 53
-10.1166 -14.028 8.07288 82 94 84
0.835182 22.5834 24.0781 127 119 75
-0.391678 10.8556 -11.9973 1 25 11
-0.39455 13.5781 -9.81461 0 7 0
-6.30111 2.738 -1.96202 0 33 21
-1.09062 14.371 21.4023 78 57 29
-2.12163 -3.57878 -15.3554 35 70 50
-0.779392 6.74799 -11.2186 16 25 11
-1.64317 4.64875 -11.1828 83 45 0
-9.75513 -2.9789 3.42767 67 42 1
4.54996 6.86471 16.3429 11 54 41
0.165207 14.0547 16.2926 12 19 12
-0.764519 3.51974 16.6237 62 74 65
-4.94647 -6.28219 -10.822 63 78 67
1.3151 14.7507 15.7613 115 76 20
-0.560394 5.95273 -14.6733 0 17 4
-0.606003 12.6574 -8.3864 64 58 27
-1.91255 -4.99409 -16.6821 38 78 49
-9.20101 -19.2413 11.3419 55 69 63
-2.45885 -10.6159 -17.7943 89 99 83
-4.79058 5.38412 8.03073 1 10 0
-12.5484 -21.3754 8.4966 98 118 103
0.719162 18.7685 20.8635 116 86 5
2.51668 2.6981 23.3045 62 67 55
-0.793198 19.5143 -4.39634 40 31 0
-0.34626 6.25504 -14.6574 0 12 0
-3.53893 7.562 10.4851 1 4 0
0.632095 16.6951 -15.0645 56 27 2
-0.20039 -12.886 -26.7013 86 91 66
-3.17646 -9.20981 -15.2094 81 96 82
-0.990009 -4.68036 -17.9707 78 75 35
-3.8881 -7.79647 -13.4132 2 63 44
-0.766092 22.1104 -5.22251 41 26 1
1.18211 15.6909 16.7973 128 83 27
-1.12202 13.4451 20.0991 96 62 16
-0.116375 10.9878 -13.3206 0 40 14
-5.909 -4.44156 -10.3937 93 116 97
-1.81592 18.9002 26.1855 103 95 67
-0.268414 11.7179 14.4363 15 24 22
1.8268 1.01137 26.4225 91 97 77
1.04097 21.1961 -4.83199 12 20 3
-0.695625 18.3916 6.02432 0 7 1
-0.0512123 5.36161 -18.191 5 26 13
-3.43045 8.03497 2.7626 25 24 12
-0.681969 -0.208969 -16.9699 73 65 43
-2.62838 4.09689 -9.96856 16 68 49
-4.15868 7.30734 2.2369 6 8 0
0.424141 14.7637 -14.5371 6 24 8
-10.3643 -12.2468 4.52939 108 132 113
0.0903473 11.3944 9.54146 63 38 1
-2.07689 2.44876 -12.3807 10 38 16
-0.53307 22.8267 -7.55285 5 24 7
-0.819569 -6.07806 -20.4251 70 45 0
-1.2271 9.49218 11.1307 25 50 36
-9.17624 -10.0664 3.58259 152 181 156
-8.56167 -8.86629 19.8956 68 82 73
-7.08498 -1.60207 14.5579 62 50 16
-1.10467 14.7083 -4.81889 0 39 15
0.464176 11.7179 -16.0453 6 10 0
-0.148991 15.4064 19.3853 96 63 8
-1.25587 11.1906 1.97626 66 30 1
-8.5237 -4.87635 -4.46843 12 84 70
1.42888 23.7626 29.8231 48 56 48
-3.2181 4.31336 -8.36011 9 48 39
-1.32911 13.7519 21.6362 64 54 27
0.842798 -15.6059 -30.6726 73 75 55
-0.995352 22.7671 32.2914 72 84 75
-0.454197 11.6757 -10.5856 17 42 14
1.39586 -2.29632 30.4475 72 89 80
0.62322 0.601387 29.0736 55 59 44
-1.96001 -2.99269 -15.2377 25 83 60
-4.09027 -1.15559 -11.663 0 64 34
-10.5944 -9.57745 5.17062 90 107 92
3.34003 -17.5792 -38.344 115 83 46
-7.06125 -5.44386 20.3622 76 88 74
-1.99877 9.37692 8.30621 0 3 0
-8.72143 -2.69427 4.14869 69 39 3
-1.05378 16.2756 -2.59342 39 42 18
0.47541 4.59421 20.0336 52 58 50
-0.643044 17.6094 6.97348 1 17 6
-2.00164 -5.89672 -17.2572 3 56 35
3.56213 6.4272 19.2579 75 90 78
-1.50358 -12.5324 -21.9147 73 84 71
-1.59041 -3.70634 -16.4782 2 51 23
-5.08283 1.60032 12.5525 66 67 51
-10.7621 -20.5536 13.2509 61 74 64
0.465431 21.5786 23.4203 121 101 55
-0.817844 15.1014 2.43301 33 44 19
-4.47668 5.26377 12.173 34 59 43
-0.749393 21.5618 25.1307 113 110 76
1.99222 21.9308 -14.4699 89 78 35
-0.827133 23.5238 -4.11622 73 57 25
-0.318962 22.8287 -7.96604 21 26 3
-0.241268 1.7486 -19.3953 63 45 14
4.42921 3.00842 -8.66413 2 17 9
-0.623627 21.563 24.9439 104 102 70
-7.08698 -1.24193 -7.31986 1 68 48
3.07113 -20.6651 -5.34621 57 63 50
1.18473 19.3759 -15.039 3 53 18
-3.98782 6.09433 11.9253 21 46 29
-9.30124 -1.70409 -0.177635 83 68 40
9.78632 -20.1271 -2.81363 56 44 11
-6.31823 2.95488 2.14776 2 39 27
1.92528 2.17404 20.7819 58 67 58
-1.41184 21.3637 2.1626 19 33 6
-6.90652 -2.18897 5.31489 71 51 11
-1.07249 4.2535 -12.2695 39 37 16
-0.836834 5.14472 -14.1947 4 29 15
1.05944 21.7441 -14.211 68 40 0
-0.836266 4.55829 -13.7839 1 34 20
3.10688 -20.2875 -44.2199 80 89 76
-0.762287 13.6174 2.06707 11 34 22
-0.0251389 5.32315 -20.2458 9 25 12
-2.53354 5.06151 -9.16685 2 33 7
-4.76574 5.35558 11.7659 5 36 22
-0.993866 23.1836 -0.617991 73 43 0
-5.10965 1.79181 -8.19765 0 67 47
0.059639 15.7941 19.1048 75 49 5
3.1772 -19.3462 -42.2437 80 82 61
-8.29825 -1.10178 1.99243 65 40 1
-2.87286 -7.4831 -16.19 1 66 46
-5.9176 -2.83897 -9.62005 0 74 47
-0.256168 16.7958 8.00354 56 52 22
-0.799789 2.44381 -16.1068 42 77 62
-0.353569 10.4618 10.9572 53 27 1
-9.49292 -2.84534 3.58121 65 41 0
-1.20658 10.5219 -2.89465 60 34 2
-0.170767 17.1738 21.6977 103 79 30
-0.18245 -1.46204 29.2581 55 59 44
2.11062 -13.4211 -30.1852 113 60 11
-1.13207 15.2388 22.6256 87 88 67
-2.05815 -7.49833 -18.8981 53 84 64
-5.02116 4.74542 7.63373 3 44 36
-6.4225 2.91372 1.46807 0 43 32
-9.16909 -7.96766 7.94942 79 91 81
3.79043 -18.3762 -40.4302 92 62 18
0.585475 21.6686 23.3826 122 107 60
-5.30306 2.03531 12.3146 59 66 51
-0.68663 10.2568 14.0167 30 28 4
-1.28636 13.1473 23.6191 60 69 55
-6.94849 -3.30422 18.4161 66 55 30
-2.38461 17.9712 26.3946 90 90 56
-0.652115 -0.137184 -17.0825 76 69 45
0.547134 19.0618 -14.0521 18 27 0
-4.64518 6.82394 2.39471 9 23 10
-0.538532 16.8338 7.0928 0 23 4
-1.14108 11.0285 -0.535919 69 32 0
-1.12696 -6.9711 -20.8001 102 90 45
3.44608 -22.3434 -6.50967 89 107 90
0.250267 -12.8169 -27.7204 93 80 42
-10.8839 -14.5529 5.30312 99 118 103
-3.06535 -8.01864 -15.8699 1 69 50
-1.02179 4.49088 -12.9781 12 34 21
0.989246 1.13706 27.7164 92 80 43
0.0274 10.7915 11.584 61 30 1
-0.321732 9.1021 -13.1742 39 40 19
-1.26432 22.5674 32.4113 70 84 74
1.79962 21.0551 -14.9576 133 149 99
-0.455402 25.2165 -6.47328 54 22 2
-0.117989 3.86906 17.9448 58 69 59
4.58954 7.09767 0.160423 2 17 0
0.117302 11.5833 7.64007 65 56 29
-1.20098 16.5347 -1.95664 1 24 7
0.309937 11.3761 -15.223 39 32 5
-4.62983 1.87609 12.7448 66 71 57
-4.515 7.08303 4.39074 1 12 5
0.763592 11.1553 -18.0156 1 41 16
0.917475 12.5719 -18.9165 3 26 8
-1.29864 -4.17894 -17.1522 5 47 7
1.32952 14.2367 -18.6436 7 4 2
-0.0517025 3.97577 -19.5933 28 57 40
-0.42556 2.01995 -17.2809 67 72 55
-6.03787 4.80104 2.57977 5 39 17
0.97641 13.0215 14.4426 91 65 20
-7.80071 -4.6488 7.25842 81 72 49
-1.36296 10.0314 8.52528 7 10 0
-2.8257 4.32928 13.6697 66 73 63
-0.801292 5.3866 -13.9952 2 25 11
-5.69924 2.7081 -5.56829 38 79 60
-1.46868 8.69059 12.9674 5 25 9
-9.449 -2.52953 -1.42818 14 63 44
1.73271 19.9815 21.1426 157 134 72
-2.29094 18.3874 31.4351 70 81 69
-3.16039 4.92276 -7.99761 20 61 47
-0.652968 0.1605 -15.2709 85 91 64
-5.38657 4.16726 6.44136 12 46 31
0.595887 20.7159 -14.4967 11 11 10
-6.60455 1.86965 -1.26172 54 73 58
2.0067 -15.4971 -33.0868 99 100 77
-1.40381 12.1858 19.164 87 66 30
-7.29782 -2.12643 -7.35326 16 94 76
2.18491 5.78863 21.0198 77 88 76
1.49468 -15.6428 -32.4389 92 87 71
-8.03841 -0.835651 -5.56515 5 63 51
0.83625 23.4017 25.5894 97 100 76
-0.568302 22.659 -7.11146 50 43 7
-1.03617 0.394035 -14.7001 80 99 60
-2.21861 9.09896 9.00616 0 6 0
1.18771 21.8558 -14.2145 73 48 5
-10.1866 -3.64181 3.70961 69 70 51
-7.39834 -2.81779 16.7631 51 38 15
-7.3106 -20.3044 12.9708 60 74 64
-7.21051 0.922684 -0.953553 60 38 0
2.3392 2.47512 22.9848 60 62 51
-10.293 -3.90431 3.79333 69 68 54
-1.39715 11.0691 23.5721 58 54 34
-0.740542 25.3878 -1.51495 64 35 6
-2.72991 17.2598 30.5919 59 68 58
-5.94207 -3.78596 -10.0206 82 90 69
-1.40055 20.8064 3.52143 0 11 1
-9.98445 -8.23902 7.26609 75 87 78
-1.6839 16.2614 24.7265 96 91 63
-5.28733 1.69401 -7.94233 4 68 53
-5.67542 -21.619 13.3459 65 74 60
0.0887127 21.8814 -8.7206 95 62 31
-4.6531 6.34016 9.99249 0 13 8
-5.05417 2.03915 12.4287 65 69 56
-0.0915351 21.5443 35.0071 65 77 67
-0.18042 21.779 -8.15297 98 68 19
-0.978082 19.7096 38.0809 68 85 73
4.40426 -18.5663 -40.246 75 35 3
3.07378 -21.0908 -46.5457 54 63 51
-0.312019 16.3553 20.8607 80 62 16
-5.87345 0.144024 -8.39392 19 85 65
0.459003 19.7389 -13.867 20 28 12
-0.0796013 15.8483 -10.6759 6 11 0
-1.44318 21.8005 1.67415 0 3 0
-0.723434 15.9318 -8.6214 0 21 6
-8.51786 -1.29034 2.04492 63 37 0
-2.06711 1.31862 -12.9914 2 32 1
2.70233 -1.5425 30.8243 71 87 79
0.0982513 7.79957 -16.6331 0 11 0
-0.984894 17.8348 4.91669 10 23 0
-0.508125 21.5612 24.7576 108 105 68
-4.66661 6.39037 9.55158 0 3 1
-2.16864 8.75537 10.2682 0 16 0
-1.79838 7.1387 16.0226 59 61 36
-0.22187 10.311 12.0427 30 24 4
-0.209267 11.9153 -11.5909 68 46 10
-1.59502 7.8516 -7.44915 82 47 0
-0.0525894 5.64354 -17.6142 8 38 23
-5.63322 3.5077 11.2027 9 39 29
-2.20427 18.9872 27.3558 87 96 75
-4.57255 -4.38954 -12.35 42 85 69
-5.05139 4.75126 11.744 36 61 55
0.929485 -14.7239 -30.3827 96 94 70
-1.37679 12.1361 21.0229 54 61 56
-4.03893 2.02081 -9.20772 8 43 24
-0.325191 18.5303 -8.77895 0 9 1
-0.180213 19.0626 38.7342 72 85 75
-4.69511 2.33761 12.5651 67 72 59
-6.07278 4.29504 -1.22558 2 27 14
-6.256 -22.5005 13.847 64 75 65
0.744605 -1.95706 -20.6002 88 75 45
-1.04305 9.74248 -5.19602 94 73 26
-0.58353 22.5985 25.8461 118 118 87
-0.739082 23.4902 -5.79684 49 26 2
0.421265 9.05883 -19.3504 0 10 0
-0.855511 14.9834 -5.51259 46 62 30
1.7839 21.4846 -14.8247 137 127 78
-1.62648 10.9248 18.4365 67 50 19
0.313644 8.70405 -16.5752 64 66 35
-2.331 18.4451 36.3558 54 65 55
1.81198 -18.7083 -35.9957 82 79 56
-0.447784 8.14718 -12.8767 16 19 4
-0.325395 -5.35834 -21.4183 134 116 76
-0.985775 13.1645 -1.22175 0 19 5
0.124687 -14.123 -28.1016 75 75 56
-1.47364 -6.47805 -19.2908 12 63 36
-3.82237 1.70284 -9.91944 5 58 38
0.525768 22.191 33.5647 69 81 73
-0.53456 18.0424 39.3419 75 90 78
-7.49848 -7.99899 20.3702 75 91 81
-0.84802 23.4147 -4.07333 75 58 21
-1.8172 23.2023 30.3178 55 67 58
-0.805053 19.8166 38.0666 67 81 69
0.212918 -0.184921 29.2176 57 55 38
-0.380272 19.0016 -7.35816 101 70 11
-2.05278 22.8497 28.1845 78 90 73
-9.08189 -20.2065 13.62 64 80 71
-2.21478 9.09642 8.83556 0 1 0
-6.9654 -0.166573 2.37172 67 61 38
-4.08741 3.65561 -7.6557 8 15 0
3.38732 -4.52176 -14.5983 6 47 35
-0.073513 22.0533 -11.6028 19 48 18
-0.521584 12.1022 4.21993 61 52 22
-3.02518 -4.46499 -14.5768 7 54 27
-9.21357 -18.656 9.59804 68 83 74
-0.331575 6.0521 -16.7547 0 38 21
-0.970276 21.5298 34.4998 66 78 69
-6.58065 1.33988 -6.14509 1 26 1
-4.92374 5.98297 -2.11498 0 9 1
-2.08109 22.055 27.5201 65 76 61
-0.0908737 22.7375 -11.2308 7 8 2
-8.6341 -5.26755 -3.634 20 71 58
0.885565 9.93004 -20.4156 8 13 9
-1.19591 7.37553 -8.68586 99 50 0
-2.12107 10.0131 0.720167 22 26 8
-0.8283 10.6149 -5.5356 16 30 10
-6.39515 -3.19545 6.77162 69 57 20
-2.24869 9.05359 9.10766 0 7 0
-2.59018 19.2538 29.0712 66 68 53
-2.17081 9.78293 -1.07119 0 3 3
-0.128262 12.6391 6.54656 63 44 9
-3.40293 7.37143 8.44072 13 14 0
-0.790909 12.5528 -2.16885 72 60 28
-2.5289 17.9545 33.4092 77 91 77
-2.6753 7.35561 11.6673 9 29 13
-0.89949 19.3917 -3.60529 91 64 12
-2.4498 -5.50055 -15.846 0 59 41
-1.24375 7.67745 -8.3158 93 53 0
-11.3635 -16.0899 6.82456 64 78 65
0.292831 23.9421 29.1187 58 68 58
-1.5274 -12.1623 -21.8317 79 89 75
-0.365336 10.4316 10.8043 50 25 2
-0.725174 21.3559 -6.90145 26 31 7
-6.32766 0.436138 11.9257 31 41 28
-0.485584 13.4262 -8.99267 72 66 27
-2.07503 21.8883 27.4183 78 90 72
0.26355 8.94263 -16.3735 70 62 36
-0.777176 23.4231 -6.35596 0 6 2
-2.08439 9.19679 -4.00903 26 17 0
4.49568 -19.5716 -43.1198 72 46 5
-0.854668 13.9652 1.3765 2 25 7
-10.4546 -13.2159 7.54776 74 85 75
-3.25146 -1.54462 -12.9662 14 32 7
0.760748 -11.1696 -26.8494 126 81 13
-10.0479 -8.21133 4.39075 107 135 115
-0.619355 10.7356 7.60654 59 27 1
-3.13293 15.4332 31.4733 74 90 76
3.1095 11.2085 10.1476 2 26 9
-0.17794 2.0678 -18.5877 63 65 40
0.283882 21.3268 -11.8682 0 33 6
2.01151 -18.1663 -36.1218 85 82 63
-2.5961 -0.181999 -12.8944 27 96 79
2.24569 2.04558 29.0006 67 74 62
3.66661 -21.4239 -49.346 140 141 112
-0.755486 12.4536 -4.85579 74 70 47
-0.696198 10.8908 6.57472 61 35 1
-3.89418 3.75944 -7.72221 42 35 5
-2.47784 -4.96865 -15.6127 8 55 37
-5.16999 3.97462 11.8284 25 62 47
-1.08174 13.4908 -4.28237 4 31 11
-0.120796 15.9812 -11.1047 0 6 1
0.658358 18.1083 -13.9909 0 30 4
0.291542 14.6437 -13.0323 60 44 10
-0.186729 19.9202 -8.04406 80 55 9
-7.18766 -0.0384789 1.74196 66 48 5
-1.38713 17.7525 0.915521 0 13 3
-12.9383 -21.6872 13.2523 72 86 75
-8.80088 -20.8745 15.1424 60 72 64
-0.660054 11.4551 4.39903 60 40 2
-0.408863 17.7369 -8.49541 0 2 0
-0.826168 11.3152 15.9536 25 35 6
-2.85742 4.7028 -9.06032 0 20 0
-7.01698 -2.20799 5.23387 70 49 7
3.81247 -22.9446 -49.6323 139 180 149
-0.67894 13.8174 2.46747 48 41 16
-3.97948 1.68647 13.2444 66 68 55
-9.39673 -2.60391 3.26663 65 42 2
-0.0661201 25.6336 -8.05068 42 40 27
-0.277629 -2.65265 -20.3872 108 109 80
2.84876 -18.4543 -39.632 86 92 68
-0.939873 15.7493 -3.2594 53 43 6
-4.7302 1.50988 -8.99451 32 45 21
-0.500284 10.8119 13.8625 21 22 6
-0.482819 6.05525 -14.5988 0 13 1
-2.7199 8.39454 5.78422 18 44 28
-7.91927 0.00186062 -4.46863 16 49 34
-7.63985 0.632179 -3.28808 38 46 32
-7.01701 -4.16244 7.19415 80 77 55
-1.55723 -8.64198 -21.0671 92 101 74
-4.8524 0.117752 13.9023 75 56 17
-0.66333 -5.78755 -20.484 59 43 9
-1.70023 -2.16941 -15.6571 2 35 6
-7.36393 0.858772 -2.92772 36 37 13
-3.11098 7.87715 -2.21285 42 95 83
1.03933 15.144 16.5728 121 81 21
-0.996933 4.45327 -12.4395 21 30 13
-2.11303 -1.83632 -14.7583 10 67 47
-2.7496 17.324 30.3349 59 68 59
1.99063 2.03864 25.5826 81 82 63
-7.18541 -19.2054 9.81823 56 56 41
-1.29013 18.7121 -1.38442 4 18 16
