ply
format ascii 1.0
comment Created by Open3D
element vertex 1400
property double x
property double y
property double z
property uchar red
property uchar green
property uchar blue
end_header
2.48357 2.70836 -12.3032 43 36 14
-6.46234 2.53377 1.14604 0 45 32
0.780216 -1.5005 12.5738 69 84 73
2.67049 -18.3607 -38.7886 97 102 81
0.234627 24.66 -2.07988 19 20 13
4.07534 7.82324 0.773323 0 11 0
1.12624 13.6701 -7.89448 70 59 2
-0.542992 13.5406 4.83788 56 57 40
-8.7086 -8.66989 7.92531 77 97 84
-4.13679 7.06567 6.66776 1 13 2
-1.54601 20.2049 31.9669 76 86 74
-6.90438 1.23405 -0.445604 63 57 38
-9.10597 -11.3534 3.32114 155 176 153
4.10427 6.5073 18.3822 67 81 70
-0.0115471 5.49773 -20.2871 1 14 5
-5.52942 -0.217854 5.59105 15 52 34
-7.44315 -19.3182 7.42003 103 125 112
-12.4249 -20.776 8.04448 88 107 95
-6.96986 1.50996 -2.99009 9 30 6
1.51237 14.0732 25.9005 62 75 67
3.99763 -15.2323 -30.549 97 49 1
-8.29828 -4.48437 7.04265 76 61 35
4.43544 -13.8598 -24.5702 84 43 1
7.41187 -11.9444 -6.53933 143 151 115
0.508018 -9.13505 -24.3955 138 92 12
-4.99096 -2.24879 -11.0045 0 72 44
-3.35909 15.2624 32.7232 68 82 70
-10.8824 -14.9253 5.2737 99 121 106
0.0403633 19.6595 5.58425 5 23 13
0.188835 23.4185 31.487 63 76 66
6.02467 -4.51359 -0.153816 36 71 62
2.60474 12.4115 13.7506 107 71 10
-5.50075 0.681274 6.22386 49 69 57
-13.1857 -21.9921 13.3331 69 78 71
1.85248 12.827 6.39266 67 42 0
1.26144 23.9317 -10.4851 37 24 8
1.58619 13.7668 10.4764 67 59 41
-2.87503 -0.90617 15.0247 75 88 79
0.0240135 21.7458 -9.55618 61 27 0
1.12608 13.6491 -8.32642 46 38 19
2.10675 -1.52744 30.9497 72 88 79
-10.1612 -6.53178 4.52687 86 101 88
-1.05563 1.21777 16.289 71 79 70
-1.65649 -0.206011 15.7907 69 81 73
4.2515 -13.4293 -22.6259 78 57 15
-10.5299 -13.933 7.67155 74 85 74
5.05866 7.20004 11.4793 4 53 39
-0.39637 -8.10767 -22.7441 159 117 45
0.219887 22.8531 25.1754 114 108 73
-1.11277 9.58585 14.5721 25 24 0
-5.04592 1.75086 8.08105 61 73 65
7.96609 -1.47383 -3.31909 15 31 23
3.35195 14.4185 21.7091 69 81 73
2.45201 -21.5321 -4.31776 67 71 53
4.67013 -21.6958 -47.7051 99 87 44
-3.3086 7.83056 6.64726 11 20 1
-1.49237 22.8427 0.995623 0 6 0
-0.77663 21.2084 4.6517 27 36 20
-6.46329 -0.035141 3.18091 62 71 58
8.82203 -6.45867 -4.12717 0 41 22
0.0958862 18.6986 7.13986 2 11 9
-0.774075 14.91 -7.82913 0 6 0
-2.28309 14.5467 36.9393 67 76 68
7.94473 -19.8988 -1.99256 54 39 16
4.89678 -17.2051 -32.1051 64 39 1
-3.11556 17.5697 29.3154 72 84 70
4.75292 -1.73132 -12.1896 41 80 62
5.45865 3.01571 -5.47049 0 25 7
3.69308 11.6002 17.6844 5 43 31
-1.80378 15.3188 25.8708 60 72 62
-0.797134 -0.210175 -15.2526 101 103 68
-0.750748 -1.31149 -16.7576 41 62 33
-1.44262 8.63247 15.4101 68 41 0
2.44579 16.3226 18.2602 111 107 78
4.64532 -22.2336 -7.72189 126 151 138
-2.7029 8.77664 0.740168 1 6 0
6.36263 1.91441 -1.25617 87 92 71
0.55668 18.2619 1.50516 14 25 0
-2.88962 -10.5276 -16.4069 77 91 77
-5.27808 6.10016 2.25718 0 11 0
-1.71717 -6.91594 -19.0545 52 77 58
-1.12157 18.7888 3.22871 0 12 3
-0.970524 -13.1067 -23.7594 80 94 80
-0.220196 1.81856 -18.4856 66 60 39
1.61057 21.9425 -9.65086 16 24 12
0.481934 -8.27535 -23.4635 185 134 69
-1.54271 11.3219 20.2063 55 59 37
-0.272723 16.1361 37.4465 73 88 80
-1.13439 -14.3474 -19.5218 64 76 67
3.38199 -13.108 -18.4717 67 70 61
-10.0277 -10.0676 4.25822 112 137 117
-0.690748 -0.998506 -17.1592 72 62 27
0.317539 17.3857 6.28139 20 21 5
0.983009 -17.9789 -26.0932 56 67 59
2.71778 12.6633 14.2565 121 85 22
3.6595 11.9301 18.0925 10 52 37
-2.52166 19.081 28.4534 69 73 54
4.33982 -18.7538 -7.39436 70 82 66
1.72302 21.292 33.7528 72 87 78
-0.900738 -9.61866 -23.1773 117 116 87
1.01899 21.6661 -8.45855 56 28 1
0.822899 23.9368 -10.2524 65 36 2
0.541069 17.7332 -3.22229 49 47 31
3.76258 -21.6926 -0.97612 60 67 50
3.24632 5.50196 20.2535 74 86 74
-0.0549195 14.339 36.1599 67 78 68
-1.66647 9.90205 -3.32578 71 31 0
1.44892 -16.6065 -32.9748 98 112 79
-8.40041 -18.0716 8.58751 72 82 71
1.40127 13.0607 7.98115 66 56 33
0.724533 21.047 -13.2814 56 29 3
1.89233 11.5222 -15.3684 4 2 2
-8.47358 -7.14477 19.9995 66 82 77
-7.82833 -9.08474 20.063 79 95 85
5.63276 -2.20843 -11.5157 10 74 55
1.28176 14.8679 -5.84902 25 17 1
3.44578 9.26407 18.7206 63 76 63
-0.992279 24.165 -3.72696 5 17 3
0.244912 -1.1023 29.8364 68 79 67
-0.203552 17.6549 -10.206 0 31 8
2.0176 6.5647 -9.98366 106 56 2
-2.83415 -8.94225 -16.5817 85 97 81
0.956218 9.38791 23.0204 67 77 69
-1.34453 20.6657 4.60017 3 9 2
4.12247 6.90885 -1.31481 1 28 7
0.921242 -5.62644 -21.47 149 123 55
3.99912 2.53494 25.356 63 77 62
-9.34301 -10.3595 3.59179 150 179 155
3.02877 7.70592 -5.47985 3 22 6
-7.23869 -2.77634 15.2225 74 80 72
0.0273819 7.78382 -17.88 6 28 18
1.04446 -18.3483 -31.7055 66 78 67
-0.588348 12.9968 2.86274 50 42 10
-1.70557 20.3031 35.012 61 73 63
-0.449493 13.2554 16.9628 37 32 14
-7.22578 -21.255 13.8482 59 68 59
-1.21974 17.4274 -1.98043 6 19 0
0.376514 17.7392 38.0584 68 82 72
-2.46839 -7.97663 -17.2809 36 58 47
6.73694 2.50362 1.73882 75 79 65
3.34972 14.1648 18.3298 95 104 92
4.30568 9.10131 13.0366 4 51 36
3.12388 -6.47755 -16.7721 9 47 27
-11.2339 -19.4358 9.85542 73 84 77
-10.1309 -3.56529 1.35216 61 73 65
8.25305 -19.1506 -3.87637 55 37 20
-8.64261 -6.90254 18.4831 104 92 46
1.75279 -1.48697 11.86 62 77 67
6.49701 -3.29693 -10.6799 11 87 56
-0.134552 -12.7284 -26.8187 82 87 63
-0.266281 14.1894 -9.52103 50 45 15
0.962358 23.2438 31.6856 62 74 65
-3.0391 5.7546 -6.21765 27 54 36
1.00778 1.78391 -16.171 58 35 0
2.85105 -21.6479 -44.8137 59 71 58
-3.34861 1.82281 -10.2265 14 70 38
-5.1966 4.83516 11.0886 8 40 27
6.50599 -2.27096 -10.5509 6 81 59
1.70827 -8.92947 -23.7881 104 47 9
3.44257 7.58067 18.9581 72 84 73
2.78799 11.1044 11.5158 12 20 8
-1.72568 8.67488 17.49 62 64 48
2.01239 11.3865 0.744978 45 29 0
1.7551 -3.63895 -18.1395 128 71 1
-5.4139 2.42191 6.60093 54 69 55
-0.48291 13.3652 -10.8805 8 28 11
0.53569 15.6395 -14.8111 38 42 12
5.79348 5.93714 2.64753 3 24 4
4.23075 2.46645 24.7299 63 77 65
-4.09328 -5.39659 6.77319 41 52 52
-0.889351 4.15409 -13.6275 20 56 41
1.86932 12.9965 24.539 64 77 66
1.11141 21.8881 -13.7297 59 29 6
5.57949 -21.0026 0.393987 49 55 42
-8.94257 -7.062 7.93424 80 89 79
-2.58784 9.09261 4.63614 4 14 1
-6.15092 2.37424 -4.52844 0 23 9
-2.51027 17.3359 26.3351 98 110 88
1.66583 -0.0143585 30.0175 71 82 72
3.05303 17.6022 28.7037 58 70 62
5.08555 -18.9123 -39.3618 68 34 1
0.398624 19.99 -1.21013 7 13 3
-1.34412 -7.09087 -20.3479 83 82 57
3.47003 -19.5323 -43.177 104 91 60
6.54472 0.571175 -2.36421 1 18 5
-0.930279 26.3527 -3.68317 33 19 10
4.17075 0.651131 -11.4319 2 39 22
-1.30783 9.59575 19.9073 59 65 53
-1.27082 25.5913 -2.80027 21 21 12
-8.75661 -4.79916 -3.95322 1 60 47
2.33686 8.44753 -6.82286 112 57 5
0.254635 -13.739 -28.4259 95 92 62
1.22922 -14.9198 -31.3387 96 96 74
0.704659 18.5682 20.7615 102 74 3
1.48306 -9.75526 -24.9636 140 78 7
-0.691742 11.893 2.07987 67 49 18
2.40836 -20.3207 -40.4232 73 86 77
4.1739 -21.1441 -48.8007 88 88 44
-0.0415731 12.86 27.6431 64 77 69
-0.903072 17.0046 4.87596 23 26 8
0.304186 17.8764 7.97005 28 53 36
1.5603 13.3539 2.5937 46 54 32
-0.96207 19.1675 25.1311 104 100 63
1.52195 13.2448 7.15772 62 59 38
-6.36423 0.442757 11.4379 25 46 40
3.55168 3.9452 -8.34141 34 52 32
3.1537 17.0508 23.6017 64 76 67
2.86305 16.4709 26.637 109 132 115
1.0905 21.8649 -8.6949 44 23 3
-11.5188 -20.5619 12.9273 64 71 62
3.16819 -16.5898 -36.0514 119 76 16
3.1531 -9.97583 -22.1836 85 42 3
-11.7736 -19.4474 7.25932 108 136 117
4.40504 4.91393 -5.21714 6 23 4
2.03584 -7.88507 -21.8561 116 56 6
-8.57975 -18.6958 9.51952 59 63 56
-1.12384 19.0316 -3.1309 48 46 14
1.31272 18.5183 -10.1311 49 42 7
3.67843 21.3313 29.6885 59 71 64
-5.09097 -1.21626 8.98063 79 92 72
2.9974 17.8198 21.0917 138 147 128
-11.1004 -20.2657 12.5899 65 74 66
0.593128 12.1993 10.2377 81 44 0
-3.05332 5.19965 13.2206 66 70 54
-5.67905 0.0296669 13.2655 64 46 3
1.92902 22.7024 24.4034 76 77 59
2.48186 16.4676 -16.1326 3 8 2
-1.44241 14.973 37.5803 77 90 81
5.93706 3.6284 6.59249 14 58 43
0.356422 17.7365 -13.4852 0 31 8
1.35279 20.9167 -11.7321 65 47 15
0.688843 24.937 -6.20087 26 42 36
-0.442062 6.88093 -13.6601 61 69 49
-1.01336 23.5951 -0.615635 83 47 0
7.34766 0.227074 -6.6113 1 20 5
-0.486694 -15.2681 -25.2684 66 75 64
-8.71128 -3.70943 -3.83028 1 55 43
2.62548 11.6326 13.347 135 108 50
1.73391 12.9903 4.29552 57 43 0
4.71079 7.32339 6.10316 32 50 25
-9.16826 -20.3563 13.8103 67 82 73
-1.94743 16.6748 25.3026 101 101 74
-1.02821 17.159 -0.192637 56 39 1
-1.61711 -11.2211 -21.6876 76 87 70
3.9151 6.03839 18.8461 72 85 76
4.94904 7.35643 12.1343 9 60 46
-1.16108 24.7634 0.231295 15 15 2
-1.26837 19.3357 2.42352 28 33 4
2.57812 -3.09727 -15.765 4 28 16
-2.14352 -1.37007 14.319 73 86 73
-1.41551 -3.91882 -16.847 0 51 21
-0.196167 19.8224 -9.74254 30 33 8
-1.34206 9.30117 15.6283 84 58 5
0.36964 14.7449 16.8483 7 25 16
0.867874 2.81517 -18.4869 55 34 0
4.27593 -19.0002 -7.17648 72 82 66
-0.743503 17.6889 39.4432 81 95 85
0.694996 -8.71989 -24.0463 213 143 78
-11.4308 -19.3412 9.58938 71 82 74
5.44136 -6.47591 -0.0293083 72 86 77
-7.63831 -0.0961857 0.79818 66 42 4
6.63061 -14.4747 -4.62446 71 80 69
-2.66067 18.109 30.047 62 73 61
-1.9049 17.6093 25.464 108 106 75
1.06721 17.7453 -16.3323 108 99 98
1.89962 20.903 -12.5457 23 33 32
-1.08423 8.09722 20.8648 51 61 52
-4.51972 5.94659 -3.45181 11 30 13
-7.4116 -8.38278 2.43035 112 130 118
-0.104744 -4.72881 -21.4109 120 93 32
1.39201 3.31358 20.2559 61 77 66
1.16087 16.2051 -6.2587 48 27 3
-5.51097 5.37239 -1.15118 5 26 8
1.19095 15.0297 6.80219 1 22 5
-4.95884 -0.719051 8.20564 61 66 55
3.18264 21.6281 25.8607 102 118 102
-0.638775 25.1241 0.816933 34 40 20
6.50117 1.08808 -8.25068 37 59 40
1.98983 1.63594 20.6152 55 66 56
-2.79155 -8.38642 1.93377 70 83 74
-4.21214 1.20368 13.3666 68 61 41
-7.45438 -0.284676 -6.34381 1 50 24
3.24097 2.72289 -10.3016 1 40 15
2.84598 3.1324 25.6137 63 69 56
-2.67386 -10.0199 -17.1554 93 113 87
5.41176 4.45602 8.5131 63 74 63
1.16651 14.6518 4.41266 2 16 11
-0.874855 18.6874 -4.71103 0 7 1
1.46868 19.2861 -8.29803 29 25 8
-0.26812 0.492981 -19.5484 68 56 28
-1.38092 20.2897 3.87602 2 17 8
-4.21909 4.21622 -6.92957 3 38 14
-9.49431 -4.57201 6.7313 71 61 39
-0.643002 11.1231 14.4994 1 18 13
0.448296 19.9754 -12.6947 45 28 7
2.5335 3.01488 25.8597 77 75 66
-3.81282 -8.36793 -13.4419 7 81 60
5.06843 -20.9347 -45.6713 127 103 26
-0.485092 15.8864 5.29397 25 42 30
2.55619 -0.831974 30.6092 72 86 78
-11.1005 -16.4382 7.83516 70 85 72
-0.821815 14.5005 -8.12414 3 24 8
1.10124 2.79041 -14.9509 21 54 32
1.04678 13.9097 9.04044 87 62 19
2.35111 18.7127 -16.1298 63 36 4
0.338242 23.6892 -9.19825 106 75 42
5.87031 3.09257 7.38283 22 48 34
-0.916171 11.2888 -0.838787 57 41 13
-0.758663 21.0303 -6.8469 9 18 0
-1.81719 19.8661 28.9664 65 75 63
2.39205 19.5558 32.0059 65 78 68
-0.516266 14.2407 19.0996 90 63 8
1.10012 -15.3419 -31.2749 94 94 73
-2.70097 8.617 8.16231 0 3 0
-10.7901 -20.8335 13.7224 68 81 71
-0.706381 23.634 28.8543 68 76 62
3.65546 12.0687 16.5986 7 64 47
0.0674419 1.86667 17.7139 61 75 64
0.0555019 17.9548 -11.0556 75 59 22
4.68909 -19.429 -4.96749 52 59 49
2.48685 16.9667 -16.5235 49 33 2
-8.49522 -0.587566 -2.30647 43 43 13
0.242519 23.5768 -2.06256 28 38 27
-7.83131 -6.1849 18.0014 125 136 110
5.11596 -19.1997 -40.252 83 44 2
-1.57204 15.9191 24.2313 79 81 59
-1.64769 1.41994 15.7705 67 76 66
2.48806 2.92758 25.4347 75 77 65
-0.286095 20.0639 4.07085 44 53 33
6.38676 2.86432 -0.359966 72 76 53
2.74031 -21.8453 -42.4101 60 74 63
-0.957115 12.9344 18.5587 88 63 4
-3.86771 7.11835 8.83822 2 0 8
-1.72562 20.0484 29.3472 91 103 91
1.66827 16.1542 17.1765 139 95 28
0.937185 10.6616 23.8821 65 77 69
1.81553 23.221 31.3285 57 71 62
1.21692 12.9323 25.4408 65 77 68
-0.684418 -7.71312 -22.0864 104 93 47
-2.81627 -9.6127 -16.7164 92 105 87
1.92629 12.0665 3.16808 45 26 3
-5.21465 2.47998 7.66613 63 77 62
3.64972 19.7693 27.468 84 99 90
-8.11194 -7.96032 18.0656 146 147 102
6.9276 -20.4884 -0.487457 66 58 39
-0.0140152 10.1342 -13.9943 52 50 28
0.866814 2.75747 -15.5183 61 64 41
-0.80064 -8.80556 -22.8415 119 97 53
4.14523 -6.61288 -12.455 16 66 49
-9.58219 -2.31926 0.0221672 61 66 48
3.9771 3.77995 20.3459 73 82 70
-0.553059 17.6447 -6.76102 92 66 15
-1.06447 24.4107 -0.349475 83 44 4
-6.27175 3.13154 3.12443 9 54 40
-1.33247 21.1074 4.28232 1 9 4
1.91267 4.25395 20.9204 68 80 69
8.52884 -19.0292 -6.67661 74 68 38
-0.169655 12.7401 6.29769 60 48 10
-2.51166 17.0067 31.8717 61 70 59
-1.8875 7.01223 13.96 5 31 18
7.96288 -12.5462 -3.85517 63 73 58
0.16777 11.0337 -15.9318 0 6 0
-6.25907 0.654205 3.48284 8 52 41
-0.21701 19.5942 -9.64346 28 30 7
-5.75006 -6.07373 19.6436 59 71 61
0.298191 18.6022 -12.2455 2 8 5
-5.67309 -21.3986 13.2317 64 70 54
-4.85285 -3.20511 16.3187 63 74 64
-1.26523 11.7291 18.2064 95 64 2
5.4026 -18.5168 -32.7078 67 38 0
-0.841187 12.7847 -4.69026 30 50 22
1.23124 12.2393 24.9032 65 77 68
7.81219 -22.5479 0.329269 54 60 49
-7.60979 -3.98298 17.4118 72 82 67
4.12617 -19.1588 -7.39746 68 81 71
4.66633 6.93263 0.00170135 0 18 0
1.33628 13.1907 -5.16692 29 22 0
-8.23963 -3.18116 -5.41499 7 88 71
-2.87 17.9163 28.0366 62 67 54
-10.8146 -11.6823 5.97136 69 82 72
-5.3177 -20.8158 10.1697 104 123 110
-1.20948 21.0185 35.2891 60 72 62
-7.2071 -21.0324 7.48156 132 163 147
5.31698 -21.2713 -0.0354919 53 57 47
-5.9322 0.509628 5.03277 4 49 33
3.55269 2.45036 -10.2544 18 49 30
-6.16202 -20.6191 12.6539 64 75 66
1.22439 12.5855 25.1555 66 78 69
-10.8186 -12.7406 6.59498 65 79 69
0.216194 14.9687 17.4782 97 61 8
-2.72453 5.60092 13.3877 43 55 37
0.793941 23.5502 -5.49059 13 14 8
0.110675 11.1785 10.313 65 43 1
2.6697 21.999 24.7136 74 81 69
3.20589 0.787773 -12.117 32 78 48
-1.21174 9.9073 -4.68297 83 36 0
-4.50304 1.66641 12.9158 66 70 55
3.53606 19.2623 29.3443 67 79 71
3.20698 9.47434 -0.0100784 6 27 14
3.60555 19.9417 29.2295 71 83 75
-0.790058 11.9872 16.4138 16 25 11
7.68489 -1.53174 -7.07655 9 45 33
1.83098 12.7047 4.61361 62 44 6
2.62027 11.8288 6.61422 25 30 8
-0.704399 18.5694 6.00853 0 6 1
-4.06448 7.46638 3.66163 20 46 28
-2.60315 16.4644 33.108 61 71 59
-2.22605 9.45467 6.68541 6 18 15
-4.31234 2.50216 -8.72748 8 43 20
-0.451172 10.9136 13.7923 13 13 4
1.40935 6.47259 -10.9367 37 40 18
-1.44788 10.3291 6.19197 50 29 0
4.93965 -17.5309 -33.9577 70 38 2
-0.992455 24.4681 -0.585091 106 70 37
0.756958 19.3953 36.273 67 80 72
-0.749691 14.6171 4.16713 0 13 0
1.47397 -4.62557 -19.2721 120 93 54
4.45479 -18.4786 -39.7534 73 35 0
-0.55954 -2.61797 -18.4482 73 67 40
7.89739 -7.65925 -1.14243 75 88 76
-4.3103 -8.54751 2.16618 58 69 60
-1.4857 9.07069 -5.85385 77 39 1
1.51632 12.6327 -8.6562 1 22 18
2.36772 -20.4762 -39.5977 70 85 72
-3.40661 4.50554 -7.5575 20 57 27
2.84711 20.2306 22.7726 112 122 100
-6.10119 1.31448 -7.06736 0 34 7
1.35144 21.5623 -11.9515 66 48 12
1.45081 13.7383 2.41547 39 50 34
0.410711 -2.12304 -20.9044 128 141 99
0.980408 14.9274 9.58046 99 66 22
-0.572013 16.2062 38.2 71 82 76
0.47546 18.8735 -13.6432 50 39 12
-5.23145 5.97346 3.02386 13 27 13
-6.17426 -4.8712 -9.60828 78 103 86
0.965424 20.2372 -7.29387 78 49 25
-2.5829 15.5071 35.8986 60 74 64
2.02283 18.0112 -13.1524 4 24 3
-1.41602 -14.0674 -18.2404 62 75 66
0.73166 21.1917 -13.6249 53 27 2
-2.2321 18.5889 26.7276 93 96 72
5.33484 -20.2789 -43.297 68 43 5
0.852283 16.4178 5.01182 3 35 21
-0.466957 13.5415 -9.03506 74 66 27
-1.99513 3.05009 14.8666 66 72 62
4.36401 8.05882 5.76514 18 35 8
3.69997 10.6479 6.98701 13 52 38
5.12698 5.11796 9.2179 42 65 56
-3.72717 -9.40745 -13.2314 61 78 67
-0.908053 1.94999 16.4179 69 77 65
-0.151882 11.1068 8.47008 60 28 1
-1.1872 13.6729 20.5319 90 64 22
1.40483 23.688 30.3388 51 60 53
1.94526 17.0909 -11.711 13 32 19
3.53595 -14.2007 -29.5315 99 40 11
1.76224 11.5406 -2.08405 65 48 6
-0.0902634 5.05671 -18.9058 0 1 0
-6.20729 -5.14792 19.8493 64 75 64
-0.96125 21.428 4.453 20 19 12
3.52328 10.7451 9.2374 0 18 0
6.44229 -4.19458 -0.239571 0 58 45
5.11406 6.84071 1.66075 3 16 3
-1.59695 -11.6537 -21.5427 76 87 70
-0.0263672 -14.1135 -27.5107 89 102 82
2.71783 6.5679 20.3635 77 89 77
-1.75259 7.23934 16.5265 59 68 55
-0.188996 20.9583 23.9344 101 86 49
0.465224 -6.37164 3.37048 61 76 68
-2.3343 18.2793 31.8571 73 83 71
-1.06372 20.6669 36.2958 64 77 68
-4.98568 5.34423 11.4057 17 44 32
-0.236042 24.2973 -8.24326 16 30 2
-10.1246 -3.36472 2.59055 64 73 62
-1.16944 12.4989 25.4154 51 63 55
3.11199 -22.7069 -47.8725 49 60 51
-5.28667 2.9852 7.25811 63 62 50
-5.41728 3.11552 -6.12538 13 81 59
-1.15616 16.8372 1.9452 32 47 32
-0.603088 18.2047 -6.79288 86 67 28
-1.45419 10.5863 20.4207 52 61 48
-7.63659 -3.23535 -6.80319 4 59 34
-0.259468 19.2682 -9.65436 39 34 8
4.15631 3.15372 21.0165 71 76 64
4.25204 9.87033 9.952 1 38 23
-8.81406 -10.1369 18.6553 75 80 63
1.16889 13.926 -18.5069 2 5 0
2.45117 -20.1425 -40.5916 74 85 76
-0.212292 25.925 -2.02541 45 33 15
3.80237 7.18871 -2.06204 21 31 9
-1.7234 21.7993 32.5479 67 79 69
3.75932 -22.0968 -0.782578 64 74 61
3.12197 3.12312 25.9156 60 67 52
-0.684097 -3.32315 -18.0483 5 33 17
-0.208496 19.5896 -9.32561 3 15 5
-0.966316 10.8199 -2.23217 58 33 1
-0.846764 -1.618 -16.349 15 52 36
-2.00904 15.0991 37.2507 60 73 64
4.83338 -7.14108 0.162308 73 88 78
3.49488 15.2211 20.9087 60 71 60
-0.804184 11.378 -0.105055 57 32 0
-1.31476 20.2159 29.1332 78 95 82
-7.0322 -19.314 10.2378 52 53 38
-1.22177 -5.54879 5.46999 67 81 73
1.06051 14.701 1.81651 57 48 28
-1.74685 -12.4562 -20.4676 60 67 54
2.5441 14.3783 -17.6702 13 6 0
-0.329245 6.79544 -15.876 3 20 10
3.41021 -9.23738 -17.23 66 57 32
-2.00294 2.60733 14.9364 67 74 62
-7.12089 -1.08781 12.8755 71 64 39
4.98699 -17.2829 -32.3828 67 33 2
0.341667 18.1013 -13.458 7 29 17
4.23522 -18.3356 -8.26526 61 72 61
3.72469 10.52 15.3531 6 62 49
10.2669 -22.4588 -4.38909 107 124 105
-5.70678 -2.67801 -9.94694 2 65 43
-0.177376 0.315386 16.6026 70 86 77
-0.15184 20.2524 -10.0956 55 44 11
-4.57946 -0.761162 -11.035 7 62 31
2.75944 -20.6774 -42.7967 54 61 52
-2.69953 19.0417 28.8745 73 78 59
1.17091 23.7831 30.1112 52 59 52
-1.05006 9.56387 11.6878 19 9 0
-6.90283 -3.00845 6.28336 70 50 12
0.515373 15.4202 34.3301 67 80 71
-1.16608 22.7115 -2.30429 0 8 2
-6.64057 -2.23124 -8.40784 7 86 74
-5.85276 -8.89667 20.1235 80 92 86
3.53476 -21.9366 -0.971008 63 71 57
-9.57384 -5.13634 -1.7093 3 77 65
-0.862717 12.7998 -2.86358 33 31 5
-1.58691 -8.88203 -21.0901 92 91 58
-1.66245 8.73382 11.9472 0 19 1
-1.09924 21.0016 35.591 62 75 65
0.232855 23.673 30.7038 60 70 61
-1.94888 7.07212 13.729 4 30 16
-6.32098 -19.942 9.04137 110 135 123
-1.54058 -13.9454 -17.4038 62 74 65
1.88634 4.76797 -12.3176 3 31 11
-6.55157 2.06185 -3.84924 0 12 1
-1.75712 9.92053 7.29053 3 10 0
-1.51629 -10.9843 -22.0793 79 89 72
-2.37549 -12.2436 -16.4053 61 74 65
4.51848 2.9912 19.7649 67 79 68
-0.675044 9.70686 24.0647 62 71 61
-6.72399 -0.737282 -7.62828 11 56 37
0.525627 14.8041 9.30555 59 32 0
-6.02953 -0.63826 4.67337 16 51 37
-2.80742 8.05258 10.1202 1 11 2
4.76307 -18.0238 -37.39 79 37 2
-3.27001 14.2833 34.2159 62 77 65
-3.12741 13.7057 35.8591 52 63 51
-8.65575 -7.27742 8.10236 82 91 79
-4.29635 -0.426224 -11.2353 0 48 23
-0.158806 15.4458 -10.6345 0 7 0
7.07847 -14.2837 -8.20192 161 144 91
-5.07642 6.10638 3.40334 37 61 41
-0.805927 22.0158 -6.5752 9 32 9
-0.298631 24.6349 -0.90007 33 33 25
-0.0711174 7.86987 -15.046 78 73 46
-0.081955 17.1126 21.2879 74 56 16
-8.02517 -22.6544 7.31767 139 166 148
0.0719795 15.3807 -11.9929 27 35 11
0.503647 -12.4942 -27.9239 96 77 39
1.39734 12.9518 -10.8016 49 57 32
6.67628 -4.37587 -10.0487 106 138 114
1.83624 21.5579 -12.9068 40 30 11
-4.35888 0.63979 13.7317 65 57 30
-2.46576 17.8384 30.1149 62 72 62
-1.06425 14.7045 21.8296 85 77 46
6.60857 -1.19292 -1.30927 11 41 33
7.34564 -21.8197 0.338692 58 59 45
2.90928 -21.717 -46.71 52 62 51
-6.08683 -4.15972 -9.99518 92 109 88
-1.93738 -8.85117 -19.9309 73 78 54
5.54248 0.807335 -9.58793 24 28 10
7.60808 -4.3182 -0.738731 3 41 29
7.0459 -19.0958 -2.6628 55 40 21
1.8666 16.5839 -12.1054 2 10 1
-6.62633 -1.82027 16.2835 66 39 8
0.682697 24.4559 -5.64912 20 29 19
-8.79663 -1.08432 0.165432 66 55 19
-0.977524 22.7731 -0.733619 62 33 1
0.386307 -13.3988 -28.5322 98 88 52
1.20168 15.267 32.9122 60 70 60
-0.843296 4.93715 -12.5272 14 26 6
-11.3538 -16.655 6.46037 94 112 97
2.69738 -10.9452 -25.207 133 76 14
2.54005 20.8273 31.2233 64 77 69
-3.68604 -3.04275 11.3711 71 84 74
-0.239113 25.2072 -5.17372 68 32 1
-1.36689 9.44783 21.7287 56 53 33
-0.648834 15.8843 -6.33523 76 65 22
-0.937008 23.0341 31.7323 62 75 66
3.40545 11.3377 19.608 62 76 66
0.861493 3.43438 19.688 57 68 58
-3.06942 18.11 29.4458 62 72 59
0.421638 12.3095 -14.7731 5 36 16
-13.5244 -21.9822 11.963 77 92 83
-2.3424 15.3031 28.7308 56 68 58
1.11153 11.0015 23.9364 61 73 65
-6.08948 -0.399223 13.4917 63 41 1
3.72935 -16.5761 -35.7251 85 39 2
-1.20633 20.3416 -1.06033 15 9 0
4.5128 -18.6192 -7.17423 71 83 72
-12.064 -22.4657 7.73554 106 126 113
0.720398 -14.9991 -30.0177 88 79 56
-1.91518 21.2055 28.5424 57 66 56
0.102013 5.6682 -19.0772 0 13 6
4.72843 5.60777 -3.31774 21 25 6
2.23402 19.4902 21.1952 124 120 85
-1.60109 13.5248 37.7325 81 92 82
6.29458 3.26711 5.9087 14 48 34
-4.65652 0.513008 13.5866 68 56 28
0.164879 22.2174 -9.68562 55 24 0
5.2466 -21.0178 -0.384201 55 60 50
3.1951 17.6741 21.7742 69 79 67
3.98537 -21.8397 -0.757248 63 69 53
2.00945 18.2763 -12.8089 10 13 7
2.59431 -9.45295 -22.9283 91 47 3
5.67494 5.89024 1.44619 55 67 47
-8.6761 -15.0797 8.09615 73 85 76
10.3198 -22.1755 -2.16375 68 78 64
8.03729 -19.0588 -3.95711 55 36 13
-3.76092 -7.55405 -13.9803 0 67 43
-2.4264 -10.7036 -17.8866 80 90 74
-0.092804 21.9067 -8.30827 109 72 18
0.813293 -1.92763 30.3323 75 89 81
3.20369 12.2972 14.8949 44 80 63
-3.43942 -8.32955 2.12674 65 83 72
8.13758 -7.49396 -1.37818 77 86 76
2.96886 10.9441 3.82023 0 17 1
0.421783 17.134 37.8533 65 77 68
-5.87876 -9.92056 19.9193 78 93 85
2.92554 -22.152 -39.4241 51 61 52
2.29786 23.5906 29.4675 47 54 47
4.6205 7.50037 15.4924 25 63 52
-0.10059 3.6851 -19.3236 32 63 38
3.61341 20.2051 27.5728 73 90 77
2.55753 -3.41483 -15.8509 0 26 8
-8.54873 -2.89027 -4.8888 5 69 51
3.97208 8.23267 3.5494 29 28 7
-5.15884 -22.642 10.5613 112 141 124
0.857368 15.5519 6.43786 1 19 2
-1.58009 7.95641 17.4824 54 66 57
-6.56981 -2.99845 18.3059 72 58 28
4.6007 -19.3377 -5.41145 52 59 49
4.97557 -17.0384 -31.0758 73 49 14
0.469828 -2.66501 -20.7094 135 137 94
0.623302 19.9065 -3.85505 45 63 50
-10.6351 -10.9461 6.44617 67 80 69
-6.55514 -1.33434 -8.38457 26 74 49
-1.08037 13.9968 -1.42485 0 21 6
0.755707 24.027 -10.9914 55 28 1
1.73436 17.6927 -8.30923 4 22 12
4.91232 5.88789 16.2252 33 64 56
-0.956589 23.7372 -3.35913 25 21 5
0.373081 21.6558 -1.26492 25 28 19
0.799657 8.67239 22.703 68 79 70
0.242764 -14.4075 -28.454 92 109 89
7.89688 -7.22031 -1.23299 72 83 76
5.27435 5.20893 -2.40102 14 29 6
0.921783 13.3989 -18.2589 0 5 0
1.94087 15.8624 -11.7726 0 31 9
-5.53027 -6.30104 19.2451 67 74 61
5.10363 4.52918 -3.96965 2 20 3
2.65936 9.69413 20.3592 69 82 71
3.255 -16.8798 -36.7 113 83 16
-2.1193 6.11579 14.0142 7 42 31
-3.76604 -5.04688 -13.99 0 67 39
-1.03437 12.5072 -4.0266 13 32 16
-3.4506 14.573 34.8447 61 74 63
-7.07888 -6.0437 20.459 82 91 84
-1.01708 24.9442 0.170593 25 21 5
2.39766 -20.0608 -40.0998 60 69 57
-6.34598 2.55847 -3.16282 5 67 52
3.29393 16.0657 21.8866 66 78 68
-0.414993 -13.3997 -26.2749 93 98 79
4.97221 -18.4611 -6.51411 69 79 65
7.51632 -20.088 -1.65141 62 51 26
1.11297 2.03841 -18.2201 57 26 6
-6.79111 -0.572899 11.9157 77 54 8
5.42015 4.3327 -3.01756 23 51 26
3.81458 3.33917 21.3227 68 74 60
5.02455 -17.5254 -31.8296 66 39 0
-8.87656 -9.16804 19.0711 58 69 59
4.31022 -14.7557 -27.0211 90 53 5
0.745308 16.3414 1.84053 52 40 5
-1.99734 15.3756 26.8362 57 71 60
0.922604 23.2231 25.0608 111 110 81
0.85173 5.83179 -17.5742 41 45 27
3.65984 -20.2767 -46.4178 87 81 50
-6.89162 1.49998 -2.76253 19 31 8
2.59447 9.44014 -3.66013 26 15 2
-0.142498 25.0516 -1.3211 38 20 3
3.24106 4.06924 20.8321 75 85 72
-0.0613327 21.4036 -0.264362 54 47 23
-1.78421 10.3371 5.89288 35 19 3
5.41387 -21.066 0.0368962 51 57 45
6.11143 -7.24389 -7.20614 102 129 111
-10.4952 -22.5301 14.8603 68 81 74
-5.31977 5.24458 6.24965 13 44 35
-2.07177 19.7048 27.7304 82 82 65
1.56726 23.5885 26.4506 74 81 64
-10.4006 -16.5047 8.49264 81 92 83
-2.32 1.85205 -12.2264 3 46 25
-0.431393 16.8554 -7.93342 2 9 0
-5.88822 -1.39713 15.9217 63 36 2
1.35178 10.378 -7.18853 30 31 32
5.28611 6.38367 0.960548 3 28 8
1.00991 23.548 26.0334 85 88 67
8.59232 -3.55875 -2.30192 17 39 33
-3.33413 -4.12395 8.43211 73 89 80
-1.81764 17.8786 39.1463 58 71 60
-0.376068 22.0962 -7.87655 46 40 1
-5.98663 -7.79349 -3.71243 16 88 66
-1.02633 14.9174 -4.21698 0 15 3
-0.441742 6.08148 -13.9536 4 26 7
-6.59775 -3.0982 13.6727 81 97 83
4.39395 -14.0493 -24.8003 118 69 19
-10.3358 -5.877 4.97697 85 104 87
0.438297 18.257 37.5587 68 83 74
1.67884 19.7281 33.2155 69 83 74
0.0320549 22.0892 0.982712 60 55 44
1.49387 11.9075 -5.8594 15 32 16
-0.328651 4.24551 -17.2207 0 11 3
0.0490112 21.681 -10.0435 12 9 0
3.79688 -1.20472 29.8726 67 79 70
-0.264355 23.1078 -0.485268 46 55 24
-1.23552 21.4012 25.8077 104 107 76
-10.3652 -9.52567 6.75824 72 84 73
-0.956806 16.9185 -4.55296 4 17 1
0.688782 -17.6494 -30.0248 67 77 66
-7.81356 0.254456 -4.36249 0 31 15
4.67667 -17.2163 -35.3414 93 42 0
-2.91423 4.86937 13.4757 64 73 58
2.32987 11.9025 4.76526 13 15 2
1.15664 19.9101 -4.45502 7 17 10
3.32843 -6.5225 -15.6408 45 54 16
-0.66127 20.0526 24.7737 90 91 67
7.25494 -18.2582 -6.13759 71 59 38
-0.27882 11.2378 -11.8048 10 20 6
-0.878159 22.7427 -6.26232 1 8 0
-5.75418 -1.01075 -9.30593 0 67 53
1.06755 18.9749 -6.91385 68 38 10
-0.939537 2.59404 -13.316 88 77 49
-4.01886 -7.9298 -10.5229 0 40 28
0.942854 10.2989 23.6193 66 77 69
3.40685 -14.8618 -19.7402 63 61 49
-0.294998 18.5881 -10.3212 0 28 13
-3.01973 -10.5266 -11.8779 59 72 62
-0.176627 -6.23434 3.84911 69 84 76
-7.09152 -6.51922 20.5071 76 91 83
-0.340759 0.0998917 -19.1385 81 68 32
-4.85904 -2.96596 16.384 66 74 63
5.82307 0.152817 7.20503 1 43 31
5.08981 7.30235 10.8873 1 52 38
0.922501 15.1448 6.29758 1 19 0
6.94552 -6.57851 -0.590935 71 84 76
-5.06786 -3.74831 16.9817 64 73 61
-6.89238 -7.31924 20.5395 77 92 83
-1.52594 18.7339 25.6758 100 92 58
2.12229 14.9734 16.4041 56 57 16
5.42941 3.37399 -4.40443 27 45 31
-1.95273 23.1009 28.6184 82 97 81
-5.42348 -3.34811 17.6779 62 67 54
-0.131378 7.11422 -14.7648 32 52 26
-0.728203 16.9528 -6.3566 76 68 21
1.52332 -18.4924 -34.8356 64 64 53
2.74216 -3.24342 -15.5454 0 20 4
-12.8922 -22.4101 14.2205 69 83 76
4.99624 -19.7504 -2.73557 48 52 40
0.250438 -6.31876 3.55396 66 80 73
-3.07341 -7.50962 -15.752 2 61 42
-3.03135 7.51271 -3.65772 29 50 35
7.16717 -1.14402 -1.79157 0 25 11
3.3855 13.6537 19.2366 64 73 61
3.2866 21.7356 26.7578 97 113 99
-7.48511 -18.844 8.96966 57 60 39
-0.0397072 20.1836 5.34595 16 31 19
-1.39144 20.3152 26.1687 95 107 79
-2.62591 17.2026 31.0722 56 66 55
6.55371 3.71217 2.30535 44 67 53
8.30095 -1.72238 -4.19091 1 13 6
-2.58633 -7.17618 -16.731 31 80 67
-3.09586 -0.195698 14.9552 75 86 74
-3.93899 6.14798 11.9501 20 47 30
-0.840782 14.0443 19.8846 98 71 9
-0.333427 17.3917 22.0351 109 88 33
2.14028 10.2704 -3.62235 86 44 4
0.147606 22.366 -11.73 15 31 18
-2.00526 13.2587 37.6031 68 86 75
-2.02276 15.1034 27.9138 48 60 51
0.287918 19.2783 -13.2642 1 25 7
5.48041 2.8778 8.86159 67 74 64
0.410568 -11.0035 -26.4211 105 77 9
-2.07679 0.890764 15.5418 73 74 58
-2.8683 18.737 28.9788 79 87 68
-0.68264 16.4181 -8.47649 0 7 0
-0.990837 22.5496 26.2513 129 132 96
1.05105 20.9412 35.1296 65 79 71
-4.32174 -7.39758 -10.3319 1 40 27
1.01763 5.39446 -19.3638 2 25 9
4.26582 -19.9167 -4.15674 48 53 39
0.45488 19.9439 -12.9171 14 11 0
-6.22729 3.31973 2.64727 1 33 21
-6.07401 -0.136909 13.095 65 44 4
1.22621 1.41234 28.752 66 66 51
-1.12968 15.7565 1.49098 2 20 3
-1.32155 -4.11577 -17.0877 3 46 9
2.95221 11.1327 12.2462 10 27 11
-1.45721 5.94048 16.0265 59 69 59
-13.0089 -22.539 10.5106 74 94 85
3.92453 7.89084 -0.695396 4 33 8
-6.8675 -6.23975 20.5193 75 91 81
-5.56558 3.28258 -4.97293 20 62 52
-3.01178 14.1242 36.3349 61 71 60
2.11694 -20.3655 -33.8099 52 64 56
-2.36626 9.34795 5.65862 0 8 0
3.48716 -10.3079 -18.4936 68 54 41
0.323784 16.9372 19.601 96 67 7
-3.55081 -1.59026 14.4824 67 78 73
2.78418 13.4246 15.3958 16 53 37
0.627277 17.4208 -13.7964 0 35 14
-0.900269 7.23965 -9.69451 93 77 39
-5.24882 -7.5042 19.2967 76 88 79
-2.47522 -5.79588 -16.0863 32 76 67
1.15891 3.89713 -14.3703 2 35 18
6.92559 -0.870876 -1.58552 2 26 13
0.924343 -0.958092 -20.209 65 43 3
2.10708 -9.03055 -23.4094 100 41 4
3.18951 20.1333 30.3996 62 75 66
5.97961 1.75835 -4.11721 0 25 7
0.321865 11.6116 -14.8591 63 53 18
-0.795647 15.3783 4.65841 11 23 2
-3.89162 -5.19301 -13.7844 1 78 51
0.749062 12.8602 -15.9073 65 45 6
2.62375 16.7266 19.3066 107 112 89
0.892498 1.22382 -19.8803 64 49 6
-4.243 -4.89474 -13.1718 0 50 29
-5.21355 1.36273 8.89734 85 94 74
2.24197 20.7717 22.5006 119 121 95
5.1683 -18.9725 -5.18688 55 62 53
-10.9529 -20.2264 6.53569 136 166 147
-0.285873 13.1618 16.5138 29 29 8
0.604568 16.6351 2.63133 7 18 13
1.30283 10.4467 -19.5033 68 44 11
-0.113501 13.3472 6.63594 52 48 26
6.57138 3.27897 4.90997 10 51 36
-2.96715 -9.89499 -16.0577 86 100 82
2.32881 11.3696 2.00676 3 14 3
-0.487541 -15.2895 -21.3448 61 72 64
-0.820456 14.5015 -5.46426 69 72 32
-6.40386 2.60952 -1.34716 25 63 55
-7.52432 -1.7369 3.73252 64 43 0
-4.34312 7.2267 3.57971 1 16 6
-8.86451 -10.7567 3.24355 152 178 156
0.995131 19.3512 -4.06915 3 7 0
0.478577 19.6141 -13.938 21 23 8
0.971947 5.43642 -14.2535 54 39 1
4.10196 9.29108 13.6436 14 47 37
-0.135986 -0.169975 -19.6971 82 80 54
-8.24287 -20.7293 14.5177 53 60 53
-1.28131 23.3628 2.47181 64 39 5
0.422249 10.9436 -17.0058 42 53 38
-0.305557 -4.10099 -20.1636 88 79 44
0.665274 -5.34329 4.64574 65 79 72
-8.64524 -10.4419 19.3068 62 72 64
1.31084 13.4822 5.74999 68 54 13
4.63937 7.41034 3.91791 23 45 36
3.93781 10.0102 12.3268 4 35 20
0.602659 20.1853 36.6874 68 83 74
-5.77241 2.89768 -4.90062 11 56 37
-0.630722 3.61842 16.8627 62 73 62
4.86318 7.13686 7.43191 12 55 36
0.0629044 -16.7132 -27.2316 61 71 62
-0.337126 26.4229 -2.53339 49 33 2
0.174276 23.8309 -1.20244 11 16 5
-1.26247 13.2517 20.4002 70 57 20
-5.56183 -1.86422 10.037 80 95 79
1.74969 1.56433 26.3569 95 96 72
-1.24629 19.7533 2.77627 47 34 3
-0.766186 21.7763 25.3495 110 108 72
2.31839 10.7081 -0.613838 8 7 2
3.67898 8.53245 -0.0926857 5 27 14
-1.30321 20.738 35.626 61 73 63
-0.920509 11.4467 16.2829 26 28 3
0.790825 10.0539 -18.4201 63 44 2
-1.22453 20.6052 -1.70001 3 10 3
6.40498 2.41956 -0.374367 85 87 65
-2.43329 14.2604 37.0027 61 72 63
-1.6027 21.4918 32.9824 63 78 68
-1.62225 -13.4395 -20.1538 58 69 59
1.56979 20.1526 -8.93503 20 34 18
-8.952 -1.68154 -2.01896 2 38 23
-1.72586 -13.0808 -19.8294 68 76 62
5.18753 -19.593 -2.40339 40 49 37
2.07326 18.1611 -17.4344 118 112 94
4.19646 4.51929 -6.62937 2 3 2
-0.025959 15.7409 19.4826 95 60 5
5.37091 -18.4298 -34.0012 74 44 1
-3.59345 -9.41655 -12.3726 49 66 58
-6.36952 1.86954 2.6147 0 42 29
-1.84687 6.56966 -8.87665 86 44 0
1.68078 13.8759 25.4492 65 78 69
0.869221 19.2008 -5.50805 55 58 49
6.01247 1.61777 -8.28343 36 51 29
-7.39471 0.122238 0.867086 65 46 1
2.27769 2.39788 22.4143 62 64 53
-9.07932 -3.17799 -2.81914 7 62 47
-1.71124 -7.18518 -19.5283 68 72 36
1.35754 19.8059 -7.90427 48 32 7
-8.047 -3.18125 5.90744 73 48 4
-4.24594 -3.82632 -12.8999 5 78 58
0.999954 0.281776 27.4092 109 101 67
-4.39892 -6.85437 4.78331 15 14 24
10.2221 -22.2197 -1.73563 71 82 69
0.0397453 15.5473 8.31227 62 55 35
3.49479 -3.63238 -13.5149 40 75 55
-1.33458 13.564 21.4503 73 67 40
-0.468983 12.766 16.4613 26 27 2
-0.215378 4.61217 -18.0071 0 6 0
2.3887 11.3511 11.0562 34 40 22
3.26348 -9.19369 -19.0804 68 51 1
-0.657089 11.789 0.534107 94 73 25
-1.7964 21.5973 26.6853 102 109 84
4.77483 -21.4507 -47.2366 72 53 10
4.88926 -17.1611 -31.6859 96 58 0
-1.27956 19.5734 -1.72687 1 22 4
1.09565 11.7042 -6.9778 83 65 9
1.92209 9.81978 21.7803 67 78 69
-5.31046 -7.26958 19.1443 86 99 85
-0.936489 13.5466 -0.682751 0 20 3
1.80629 -0.332344 -15.5888 141 91 1
-3.59251 7.61137 1.31707 0 0 0
-1.17343 18.6397 -0.0651722 55 36 2
-0.125668 -8.91257 -23.7676 171 134 88
-5.0195 0.168755 8.55919 83 92 74
0.657108 17.2345 7.36336 13 40 28
-1.86511 2.74667 15.1148 68 75 64
-1.05532 1.66391 16.2747 69 81 71
0.0643463 -0.690689 -20.2107 88 76 45
4.95628 6.86205 6.68839 3 49 33
-9.10209 -11.1167 3.33937 151 170 148
-2.98421 14.9772 35.9209 61 69 59
-12.8342 -20.7828 11.9924 63 75 65
4.33873 7.79809 2.98034 6 18 0
0.63517 22.24 33.4733 68 79 71
-7.29322 -5.78796 20.395 75 88 79
-0.833763 17.2539 -6.15819 16 32 0
-7.41724 -6.53486 8.15726 75 87 77
-7.46662 -3.94425 16.441 75 85 65
3.74446 6.25191 19.1019 71 86 75
5.56635 -20.2632 -36.724 66 48 17
1.36711 0.341925 29.6343 72 87 77
0.299889 19.3504 -11.7617 76 53 18
5.30726 5.45599 -1.72132 1 24 6
0.250366 13.7917 8.30586 65 62 45
-5.71446 3.05679 11.2588 1 32 18
7.82833 -2.86169 -1.32009 2 26 11
10.4584 -22.2529 -3.97147 126 153 132
-2.36097 18.4703 30.6797 61 73 61
-0.263803 15.6137 36.5036 57 70 62
4.68865 1.92921 11.304 61 75 67
1.61301 -16.7691 -33.6785 64 62 47
-5.59874 1.20585 9.49693 82 87 68
3.34106 -6.79293 -16.3565 13 48 25
1.22609 -2.05045 -18.2544 77 53 6
3.6704 11.3944 18.2604 37 66 54
1.05174 15.1319 4.84915 24 40 29
5.55681 3.19739 -4.57369 22 37 14
-3.62766 3.32372 -8.64888 17 47 19
1.76745 1.55345 -14.5352 106 74 3
8.28372 -22.1923 0.0348969 50 50 44
10.0827 -20.3283 -3.38076 75 64 42
-8.4732 -22.0893 15.5917 57 68 60
1.04156 11.7147 -18.7936 4 40 9
4.77674 -20.7998 -1.15719 55 63 48
-0.657295 22.9727 -6.87677 19 27 1
-0.697601 19.3016 -6.77575 9 25 0
0.723431 16.2774 7.79022 8 28 22
1.64016 12.3756 -2.50058 14 32 6
6.03883 -12.4269 -2.75079 76 90 81
0.311337 19.2015 1.94872 15 26 20
7.66537 -1.27479 -7.03707 21 52 42
1.22943 16.7568 -9.29984 51 46 22
-1.37827 17.0721 1.27932 5 23 1
-4.46806 5.01075 -5.17863 6 22 11
-1.00009 11.0008 16.1426 71 46 6
-2.66798 -2.37043 -13.9147 18 62 39
1.40468 14.1707 -2.47945 15 23 6
6.45704 1.25858 -6.62575 20 65 42
-1.05421 24.4136 -3.37246 0 14 3
5.26434 -19.3894 -3.40317 50 54 43
8.93443 -4.1779 -4.14409 71 87 73
-0.414989 -3.9783 -19.5006 68 72 51
-8.79474 -9.09616 18.6893 94 99 88
0.229767 16.6355 19.5893 91 63 8
-6.9856 -21.635 7.7069 138 164 147
0.328938 12.7416 14.8898 1 20 13
-1.73457 21.6207 31.1268 68 84 72
3.2606 15.855 20.1487 97 106 89
0.914703 10.7885 -18.3586 64 62 27
2.03204 15.1972 16.4045 74 68 19
2.39893 11.4959 12.3042 68 44 7
3.21103 9.73056 -0.0709686 22 45 26
3.21058 13.6253 21.6464 64 76 66
6.95461 -19.5761 -1.61818 52 44 21
2.99906 -22.5291 -43.5294 46 58 51
0.232426 3.56617 -19.9239 111 116 89
-8.13409 -5.31973 7.56473 84 69 43
3.2669 7.09163 19.3851 75 89 78
-5.60406 1.66457 9.44317 79 97 78
-6.24087 -1.57544 16.1791 60 37 2
0.0387421 25.8468 -7.10345 69 32 2
0.798164 17.337 -5.69236 57 38 5
-1.42849 9.29461 18.823 53 64 55
7.2707 -0.00653076 -7.52084 8 62 52
0.169037 25.913 -7.41483 43 35 10
8.58698 -3.76378 -2.19368 2 32 23
2.82396 18.9976 31.7545 66 78 68
-0.460464 17.428 -9.71775 4 32 13
0.442055 25.1818 -8.78972 133 120 81
-2.23753 -6.49281 -17.4651 32 73 47
-3.71476 3.9834 12.7902 63 71 58
0.0380268 17.7419 -11.1168 72 54 13
2.62885 22.6988 26.0125 82 91 74
0.658371 15.966 6.29723 2 10 0
-9.24633 -2.02548 1.85595 64 48 15
-10.5532 -13.6015 4.64572 109 138 118
-4.2642 0.232079 -10.3616 37 61 33
0.277243 11.7091 25.7784 61 74 65
4.04261 2.94576 23.9081 66 68 49
3.73075 -11.2002 -21.4599 82 46 2
-1.09135 -8.06502 1.95027 65 79 70
1.62014 10.2461 -15.7185 3 28 11
-2.55236 14.9903 30.4005 57 70 58
-2.70263 17.8758 36.9484 56 66 58
1.9189 10.6691 -3.27225 87 45 4
-10.6625 -15.6239 8.12752 76 88 77
-4.55026 -5.14008 -12.5954 0 87 60
-3.91425 -1.52315 14.7336 65 75 69
2.06606 22.0255 23.4046 114 112 84
-8.95054 -4.75938 -3.28149 0 57 39
-11.3684 -20.3138 6.80542 148 165 146
3.87705 10.4853 10.1681 0 16 3
-9.42822 -5.73391 -1.68789 6 66 47
-0.0069313 -15.481 -27.4826 70 75 61
4.38656 7.76159 3.84949 5 20 7
6.68377 -12.0473 -7.25313 159 150 102
-1.46212 1.17681 15.987 68 76 65
-0.662094 -0.780014 -17.2592 74 66 31
2.77346 -20.1197 -42.3072 79 85 69
3.08913 -11.2064 -25.118 105 48 6
1.61019 1.23655 -14.9579 107 81 30
2.02664 12.6821 6.85999 63 47 13
2.45314 -1.32903 -15.0034 8 32 16
-10.0894 -17.1024 8.71937 83 98 89
0.00824738 17.9927 21.7302 104 82 28
0.939842 22.0517 23.4407 124 111 65
-1.05278 2.10761 16.2445 71 77 66
1.21421 13.2154 -1.38072 64 54 12
0.789565 9.42055 23.237 69 81 70
3.01013 22.793 28.0098 87 99 80
-8.78781 -3.88163 -3.47695 5 57 43
0.0190163 16.6001 20.2222 90 64 8
-7.86623 -3.67673 -6.16772 0 60 38
-1.70255 -12.5912 -20.9002 87 98 81
0.203983 -6.37695 -21.8183 173 162 131
-9.64258 -6.07407 0.755057 64 82 72
2.45988 8.67006 -6.20441 90 53 3
1.06877 12.2658 25.1347 65 78 68
0.795116 17.7032 -14.4163 41 43 22
-2.23102 6.50479 -8.17522 1 19 6
6.1333 1.83326 -4.70375 0 11 2
-0.945127 16.2528 38.8455 72 83 75
-4.78159 6.12532 -2.04452 0 6 5
-6.35849 -4.36147 7.4388 76 77 59
8.87921 -6.95844 -3.41689 14 60 48
-0.437767 16.1327 -7.45244 19 21 1
-1.12292 8.05457 20.5331 52 58 45
5.20404 -18.3818 -6.29338 69 76 53
0.0984497 -13.6249 -27.7551 78 79 63
2.51036 11.672 10.0476 47 41 27
4.32783 9.89125 9.1183 3 23 11
0.254784 22.6659 24.8 109 107 71
3.21848 18.5186 22.8758 73 84 75
-1.00178 -11.3372 -23.8514 74 75 55
-2.6427 5.86829 -8.04034 2 28 7
-1.12902 17.6014 -0.603279 30 25 1
0.309177 12.6887 -14.5871 1 37 7
1.96627 0.317204 30.0617 75 84 75
3.74486 9.2657 4.29609 1 30 10
-8.66346 -2.06699 -4.3689 17 73 53
-0.643646 15.035 -7.53566 1 3 0
3.1359 -20.432 -44.6099 63 70 60
9.15294 -20.6787 -1.57236 53 51 38
-0.213028 23.3699 26.737 111 118 94
2.11673 17.4317 -11.3962 7 20 10
-0.464195 -0.279949 -18.418 73 65 34
0.867252 20.8688 -4.53799 1 3 0
-10.4361 -19.9225 6.25618 158 195 173
-0.558685 12.2456 -10.0862 0 31 12
3.45271 8.55452 -0.620014 3 23 4
-0.619535 23.5301 30.4768 55 66 56
4.75048 -19.7511 -43.9515 75 38 7
4.47577 -16.1457 -31.5062 67 33 2
5.6268 -21.6797 -44.0573 64 42 1
-2.24971 3.48949 14.3848 65 74 62
-5.93537 -5.60401 -9.09075 59 76 65
-4.53975 1.78346 -8.9169 38 104 74
-1.91578 20.0492 29.8668 56 63 52
-1.26032 24.3307 1.3025 31 20 7
1.32821 17.6947 -10.3194 56 53 38
1.52577 9.12723 -17.0318 3 10 0
0.273243 19.5114 0.705715 54 33 0
0.299622 19.9943 1.33225 27 36 35
2.24943 12.005 22.8634 65 76 67
1.13212 14.3458 3.52767 63 47 9
-0.672413 24.6443 -4.45309 91 49 3
-1.41227 20.6813 4.06135 0 16 3
-1.44858 23.7732 0.63716 0 8 0
1.9475 18.7753 20.2338 147 127 84
0.0781416 15.1893 35.2565 69 82 72
-9.25085 -21.4322 15.3332 65 84 73
-1.11069 18.6043 -3.01234 32 38 7
1.48873 10.876 -18.983 125 100 35
4.48775 5.30292 17.9886 66 80 69
-0.933624 11.677 -6.71445 0 13 0
7.63676 -11.5557 -6.05625 134 123 87
-9.28697 -18.6251 9.5631 69 87 77
-0.796722 -14.5397 -24.0617 76 86 73
-8.28008 -3.15924 5.72353 68 43 2
5.71944 3.47334 -3.38749 5 42 25
1.67842 9.90588 22.2642 68 80 71
1.22209 14.0233 7.30161 49 54 41
-0.863231 3.91806 16.4362 63 73 63
1.03912 23.99 -9.4715 56 25 4
-5.54902 0.907391 -8.47468 54 112 81
0.545456 -1.19581 28.0861 100 111 78
1.84688 18.3058 -12.2754 1 36 19
-0.0134354 -13.6667 -27.4821 92 97 74
-7.29888 -6.96213 -3.39477 45 81 67
-1.1452 12.576 25.7885 52 65 56
-2.01644 3.58793 -11.5599 0 12 0
-9.66034 -8.08425 3.97174 131 161 140
2.35839 -20.9542 -35.9526 48 58 52
3.75805 22.5148 29.1565 84 96 82
-0.763204 3.34003 -16.2343 0 11 2
-10.873 -16.1183 8.02472 72 86 78
-6.33702 2.52526 2.51567 0 48 31
-0.91761 18.8849 -5.34811 15 24 2
0.0334778 7.63089 -16.4651 0 9 0
4.58972 3.4548 -7.05777 40 43 16
0.112076 5.28948 20.1685 51 60 50
1.8047 -8.26846 -22.6789 111 54 7
-0.851048 13.542 19.4153 89 61 1
0.903019 15.9691 4.90436 5 36 17
-1.16647 22.0419 -1.94955 0 9 2
-2.22697 3.0174 14.489 69 77 62
2.9992 -6.07294 -16.9136 23 45 34
-4.4962 -5.34067 6.96964 62 76 67
4.40366 9.53781 8.30019 0 44 26
-8.25171 -10.4493 19.5838 69 88 79
-0.78355 14.0934 -8.03683 8 36 17
-1.35642 11.0369 2.56815 72 37 2
1.6238 -15.2959 -32.3456 77 75 43
6.21334 -19.2357 -1.88087 57 48 28
7.29167 -1.48529 -1.85688 1 31 17
-6.69988 1.6902 -5.22625 0 20 0
0.586463 22.4755 -3.25102 73 39 1
0.460503 21.7303 -2.13913 7 15 8
-8.23475 -21.4221 15.4996 47 57 48
-0.65377 13.6077 3.98519 10 28 11
-3.71882 6.38597 12.0476 4 31 18
-5.52347 -9.75748 19.8496 69 87 79
1.38175 2.61737 19.9973 61 70 64
3.05382 19.8676 22.9787 91 104 89
-7.29278 -0.871155 -6.8974 2 60 36
-3.25824 4.9884 -7.51947 4 33 31
-11.1555 -20.5946 6.65829 149 177 153
-1.67507 8.43399 17.7186 60 62 45
7.63517 -0.3853 -5.22266 1 21 10
0.120842 18.3556 6.85033 0 14 5
-1.8065 10.0256 6.38844 11 11 0
0.653984 25.1776 -6.52329 0 15 7
3.16091 11.1477 9.82826 0 19 7
6.73883 2.83569 2.44232 68 63 45
2.19078 18.9188 -16.5928 69 49 26
1.28854 21.5089 22.6667 129 111 70
2.3123 -0.615204 -15.1249 33 41 13
1.27135 1.86776 27.7831 76 72 51
-1.22322 19.7006 4.2549 22 25 3
1.43212 20.8266 34.3443 72 86 77
0.539467 20.8406 -4.24037 22 32 27
-0.0279617 8.36498 -15.3483 56 63 33
-5.32595 5.85424 3.41869 23 39 15
-1.05148 15.6491 22.6036 80 81 52
-12.0193 -18.9813 7.84915 103 123 107
2.49392 23.1725 30.8928 58 70 62
-12.4602 -22.0047 8.38519 95 114 100
-10.0176 -8.48788 4.3274 120 140 123
2.77027 -22.0743 -41.6518 52 64 55
-1.92225 -11.0125 -20.0937 80 88 70
-1.44117 22.4852 1.08986 1 6 1
-1.14714 17.5805 2.13454 7 22 3
-1.31849 22.0767 26.2793 140 142 104
-2.1146 -12.7842 -16.4589 73 89 77
-8.67399 -9.39472 3.41987 145 171 147
5.01738 6.90862 1.36081 2 5 1
-4.02621 7.17644 -0.244976 0 1 0
-5.57905 4.94299 -2.05733 19 26 14
0.110882 20.4251 22.8515 92 78 39
0.191917 13.9035 16.0468 1 25 14
-1.51434 -2.686 -16.1778 11 44 0
-10.4146 -5.52067 6.00875 62 76 64
4.87209 -13.9409 -9.26262 185 167 110
-2.06038 8.30262 11.6301 3 26 11
-1.85677 3.86068 14.9431 69 76 68
2.96187 -22.2662 -46.4316 54 67 57
0.253858 -6.72981 2.90989 67 78 69
-4.93926 4.41159 -5.58375 1 15 3
-1.00318 -6.31008 -20.4723 78 56 0
-8.1961 -6.54312 18.1642 139 120 57
-6.19408 1.72768 3.96472 1 37 26
-1.56343 -3.21723 9.98528 70 84 74
-0.0307202 18.6706 7.58358 34 37 17
-5.71725 3.81621 -3.50902 13 26 17
-0.85862 2.66162 16.4271 60 74 63
-6.92901 -1.00511 11.9365 84 57 15
-0.575268 -3.6504 -18.9357 71 78 58
2.51582 -17.9684 -37.7751 75 87 71
7.70423 -16.0442 -7.57705 72 66 62
-2.02912 -13.1311 -16.1255 60 70 63
1.4102 12.3882 -11.584 20 20 2
1.39195 -5.11617 -19.8119 114 71 8
1.00314 15.3652 4.81245 23 38 30
0.0331888 11.4024 8.08796 67 39 0
-6.79471 -0.802971 3.41406 67 60 32
4.454 -18.8705 -6.95611 76 80 66
-8.30671 -0.538445 0.186144 69 56 20
-10.6506 -12.9442 4.90604 99 121 104
2.1039 -20.0138 -37.8766 54 65 54
-0.995396 18.1525 4.93171 8 24 2
-1.01377 16.0872 -0.541672 10 18 1
3.91002 9.16128 14.9012 3 46 32
-0.613014 26.2903 -3.93752 20 20 6
4.20114 -20.8398 -1.62358 57 59 47
-0.940708 23.5203 28.6143 70 77 63
-7.11133 -2.77522 17.293 62 48 19
2.46039 10.8776 21.7613 70 82 71
-1.30211 12.9624 24.3266 61 69 58
2.42697 2.95715 26.887 64 67 56
-4.87163 -0.135239 14.1458 70 56 20
3.34158 10.4979 4.9172 0 26 14
0.906441 18.8494 -5.95839 77 48 6
-6.22181 -0.186493 -8.0687 0 42 28
-4.27348 -0.727188 -11.3698 3 61 36
3.19804 -10.8433 -14.8783 64 73 61
-11.7843 -20.619 12.8092 71 77 69
-5.12204 2.73055 12.2096 57 68 51
1.5534 14.5506 -6.57445 3 26 16
-0.949524 11.8032 -3.25704 9 27 8
7.46609 -7.15449 -0.898514 70 86 77
0.461567 15.4932 -13.9882 58 33 1
-0.181469 19.727 4.08632 34 47 29
-9.59557 -19.3847 11.3173 61 70 62
-6.67086 1.69993 -1.08689 65 69 52
0.0158863 7.9081 -17.4353 0 22 14
2.06705 -15.7578 -33.4387 99 90 68
-1.67488 20.0041 32.6114 63 74 62
-5.74265 -2.51153 6.93928 72 75 59
5.12202 6.63334 10.766 1 47 30
2.25239 -20.712 -35.3186 51 64 55
3.60681 5.54137 -5.93141 8 19 6
-1.25648 10.6065 16.7402 100 69 9
2.68496 -11.55 -26.3623 108 47 7
-1.46461 17.4943 24.7718 105 90 46
0.519409 9.20078 -18.8241 0 8 0
-2.05555 9.58137 -3.33257 43 43 9
5.92612 2.51625 -3.34406 16 41 26
0.351742 19.205 5.22672 5 24 22
3.58817 8.85255 -0.0107002 1 30 12
-2.29181 -11.7684 -17.9398 81 88 77
3.14966 19.4461 23.4523 82 95 82
-6.17654 -0.15089 10.6219 91 80 39
1.41469 11.4827 23.9481 61 72 63
-0.584167 20.0498 -7.16455 28 37 0
3.01366 -21.0811 -47.035 50 61 51
-9.25606 -2.13995 2.32755 66 44 2
0.385372 21.8809 -4.38312 61 72 72
8.32763 -4.32238 -1.65498 5 35 21
2.85335 -12.3453 -27.3001 105 54 9
-6.77463 -2.71064 13.164 74 85 72
-0.837009 6.70047 -12.1912 0 36 19
-4.55353 6.43672 -1.79932 0 1 0
-5.8127 -7.60867 20.2045 69 85 76
-6.54816 -3.04909 -8.63633 0 79 50
3.67178 4.87506 19.9586 72 83 73
3.25638 3.63522 -9.19522 3 24 15
-0.247818 19.8123 2.8832 30 49 38
0.178062 16.1002 19.0743 75 51 7
3.72591 -20.5733 -47.5396 86 75 43
-8.9677 -19.0965 10.9272 58 65 60
5.7222 -21.1366 0.814064 52 58 44
-8.06794 -1.15025 -5.49059 4 70 58
8.57396 -19.5046 -3.06469 52 36 7
3.61039 -0.900665 -12.8517 5 37 1
-9.31694 -7.27641 3.41944 86 111 98
-6.04198 -3.78446 -9.80325 77 88 67
1.83381 12.8072 -12.5552 0 17 2
-0.955123 13.6623 37.5028 80 91 82
-7.25519 -3.01129 6.09261 70 50 1
-1.93279 -4.47833 -16.1851 10 74 58
-3.93411 7.30925 6.86547 11 15 1
2.7098 -21.1464 -4.92442 72 81 63
2.8953 8.8723 19.6088 68 81 72
0.631252 17.869 1.63195 32 35 8
1.27549 4.68305 20.873 66 75 67
-7.17693 -1.87579 14.0055 73 73 56
4.54347 7.79954 14.9629 13 50 37
-11.1595 -14.597 6.34304 67 75 63
-8.53587 -7.78432 18.3022 125 129 93
-0.990898 22.778 -0.427408 78 51 2
0.474678 25.6782 -6.67413 44 42 24
-8.89013 -2.33367 -3.67374 25 79 68
1.4114 15.8591 -8.32955 2 17 8
-1.01796 23.9475 -0.605186 83 46 3
-0.911949 24.9316 1.08257 53 54 40
3.68519 -11.8458 -18.8047 66 55 27
3.84863 -5.02259 -13.7644 38 53 43
4.87453 -19.9445 -2.2896 46 48 37
-0.36338 10.8223 13.4273 5 15 5
-3.01087 4.47633 13.458 67 72 60
1.16814 24.0507 -10.9336 45 27 14
-2.88111 7.94363 -3.848 1 36 18
-4.83274 4.22475 -5.90664 1 22 3
0.723335 18.9304 36.2731 64 81 72
3.01392 -22.5378 -44.8711 49 60 51
-3.67491 5.64957 12.5619 41 59 43
2.58439 -21.4587 -40.5063 51 63 53
3.66506 12.6058 16.9082 27 72 61
-6.74992 -9.63427 20.1733 78 95 86
3.85528 -19.826 -6.29864 67 74 60
1.48111 9.55163 -20.6604 109 129 109
-1.4693 23.3988 29.1882 63 72 60
0.573395 18.6487 1.47709 3 19 0
-10.3478 -6.59576 5.40065 77 92 77
7.53597 -21.9101 0.255634 54 57 44
-0.0502243 17.131 -12.2672 1 24 14
-1.23648 13.7003 20.8445 69 52 16
1.37543 -7.34219 -22.2052 128 65 10
-5.84856 2.53101 11.3827 15 45 33
-10.3713 -14.8662 8.14259 76 91 79
-0.00525665 -0.601425 28.9008 78 65 36
4.84555 7.60561 13.1097 12 56 43
2.7597 12.4253 22.2097 62 74 65
0.243534 -13.9588 -28.4483 98 102 71
4.29281 -17.4715 -8.68603 70 81 75
-1.45421 10.3202 19.6405 57 63 57
-6.68372 1.8638 -3.19612 2 18 4
6.78972 -2.23349 -10.2111 6 78 61
3.27816 10.4592 12.8829 11 49 37
0.267414 21.5614 -0.943604 8 18 10
0.696171 12.3286 11.0761 64 31 0
4.91008 -6.47234 0.180565 74 87 78
0.959236 14.3111 -4.76139 67 41 8
3.5177 6.1226 -5.42879 7 42 23
8.2243 -2.19035 -3.29046 18 48 32
0.302235 8.38361 -17.0143 4 13 8
-0.192139 20.6009 5.04577 17 31 22
5.03114 -19.4656 -4.07477 53 58 47
3.81359 9.79879 5.59254 9 36 20
3.48861 -10.7617 -16.8907 65 61 45
3.02268 6.4481 -6.79948 1 35 7
3.0239 15.3234 18.3592 99 104 80
-5.74144 2.69203 5.66936 0 45 29
7.33526 -22.2004 0.568283 61 62 48
2.55928 -21.3265 -4.53832 73 76 58
-9.73048 -4.59413 6.59446 74 64 41
7.6107 -15.3809 -8.0219 121 119 84
-10.6061 -14.3919 4.69782 107 133 116
-1.772 10.6212 0.752863 63 25 0
-1.77622 7.93339 16.724 58 55 28
-2.01399 -2.5237 -15.1024 1 65 37
-7.715 -0.21698 -5.80153 3 59 39
-3.40258 -7.79375 3.13644 50 67 58
0.54443 1.80885 -21.0726 110 106 81
0.957222 19.9938 21.396 134 103 23
0.0414314 21.5095 -8.85404 69 45 16
5.45113 -18.6303 -5.40756 54 58 48
3.6956 5.37843 19.6181 69 81 71
1.44814 14.7301 15.6545 136 86 18
2.28068 18.7415 20.6363 135 128 80
-0.436884 11.0579 6.81292 61 39 1
-1.18759 21.8739 0.0222168 34 37 11
6.30102 -0.908829 -0.526463 1 51 36
-2.35767 3.83282 -10.8013 0 31 15
-5.66485 4.89259 -0.631069 12 48 33
3.05208 20.795 24.1571 92 106 94
