ply
format ascii 1.0
comment Created by Open3D
element vertex 1392
property double x
property double y
property double z
property uchar red
property uchar green
property uchar blue
end_header
-6.89334 -3.11157 18.2152 64 53 25
-1.18534 -6.10167 -19.6764 10 36 18
-0.374496 0.0371552 -18.8614 66 53 26
-2.04058 5.17999 14.7995 61 67 48
-1.29946 23.4111 28.7174 78 88 72
-6.75432 0.431393 -6.62185 2 45 23
-12.9197 -20.7658 11.6757 64 76 66
-2.01854 3.98711 -11.1646 27 64 41
-0.751221 5.15805 -14.463 6 29 14
-5.68248 -1.02386 5.64106 63 74 61
-0.783974 24.4679 -7.00256 18 31 16
4.62998 -19.6862 -43.9051 73 38 5
-0.352249 15.5478 -9.46766 23 37 17
-6.36488 -19.7219 11.2944 53 48 33
-1.20911 19.8825 -2.20443 5 19 18
-1.35203 11.0548 0.372212 63 25 0
-1.96931 21.995 31.1115 84 101 89
-2.73296 -4.49408 -14.801 63 94 68
-5.98822 -3.80403 -9.94176 81 92 70
-5.63711 -1.65443 10.0187 84 98 81
-0.0678291 11.5718 6.85702 64 50 20
0.196655 5.92828 -19.5762 0 8 4
-11.2645 -18.617 8.79232 78 90 81
-2.81112 -2.18205 -13.6061 12 57 36
-3.49184 7.87228 2.42806 11 15 5
-5.0877 -0.452744 8.79713 84 94 76
-0.740639 24.6084 -7.30358 30 70 45
-0.4137 6.35756 -16.4251 7 32 22
-1.37292 9.45553 20.6949 55 59 44
0.602654 11.9709 -17.6799 20 44 41
0.0301628 12.4176 -13.4126 18 31 13
-1.35539 11.2456 22.1891 64 62 42
-4.33831 -3.68906 -12.5032 7 60 48
-10.5958 -9.97916 5.10582 96 119 101
-2.83199 7.93175 10.4888 2 20 3
-6.22964 3.12121 -1.79772 9 76 62
-6.64104 -0.797012 11.2402 88 74 30
0.0278473 10.9141 -13.9424 32 40 24
0.549992 13.0992 -15.0543 3 34 12
-8.40279 -0.440506 -2.13414 44 34 8
-0.493195 23.1813 -7.69053 18 47 34
-9.63846 -4.93334 0.503489 55 71 63
-6.41428 2.27001 1.5123 0 45 31
0.0798759 -15.1163 -27.8517 76 83 71
-9.9517 -4.75197 6.52363 72 66 44
-0.270561 22.7096 32.6937 66 80 71
1.59758 21.677 22.8158 150 140 101
-1.29871 11.4095 21.8306 59 64 46
0.805542 14.2155 15.9191 58 50 13
-4.5148 6.53394 -1.31141 5 0 1
-0.45269 -8.79428 -23.3007 113 82 18
-0.484711 -4.80125 -20.2796 76 65 27
0.161289 5.96986 -19.387 0 17 12
0.672085 16.7207 -15.3163 75 46 2
-5.86957 4.23318 4.7393 4 40 26
-9.83898 -2.87883 -0.0487146 73 83 66
-8.57512 -7.89045 18.3428 124 130 98
-7.68527 -6.3291 17.8785 132 144 123
-0.517738 -12.5374 -25.8016 83 85 63
-2.06789 4.45921 14.629 65 74 63
-3.07866 -2.80465 -13.834 1 46 6
0.459435 0.256065 28.2476 98 80 38
-1.81562 -1.92072 -15.3574 1 50 24
-8.85806 -8.49757 18.9031 73 85 65
-11.0146 -18.1968 6.18177 105 130 113
-5.35814 4.78371 8.94976 0 14 0
-2.47139 17.8206 33.3739 72 87 75
1.17979 13.9038 -17.3451 55 29 0
-6.57368 0.362511 -7.24077 4 42 18
-2.82677 1.07153 14.7646 74 71 50
-9.70735 -4.9568 -0.838241 2 36 26
-2.15363 -6.62949 -17.7859 27 75 55
-1.61126 11.0218 18.612 67 55 21
-0.111435 8.55921 -15.145 9 44 25
-1.93784 -5.69741 -17.2465 0 57 41
-8.4834 -19.2774 11.2138 55 61 56
-1.51062 10.949 3.40884 54 29 3
-1.9484 -10.318 -20.0818 77 87 70
-1.35887 9.46412 15.7179 83 62 10
-6.81878 0.0733795 -7.06404 18 72 49
-5.52393 3.8185 10.9258 4 27 14
-0.94101 20.3622 25.3109 100 101 73
-1.22527 16.5369 1.76351 8 30 17
-1.4873 15.5173 23.8059 82 83 60
1.71591 2.34969 20.4033 57 66 57
-7.23877 0.161564 -6.27322 0 36 22
-0.0603485 11.2739 13.4736 32 60 37
-3.25988 14.6511 33.2891 65 80 68
-1.18964 -7.91818 -21.4275 112 93 42
-3.06942 -9.73377 -15.6281 87 96 81
-1.7175 20.3548 33.67 64 76 67
-0.976707 25.7856 -3.84039 14 20 17
-0.190605 1.85279 -19.7091 63 45 7
-1.06731 15.558 -5.02879 0 31 5
-2.44738 18.1611 32.6375 70 82 66
-0.504539 -4.77834 -19.8783 69 56 26
-10.2486 -20.5817 13.4661 61 73 65
-0.558025 6.2468 -15.8923 16 45 35
0.859428 15.0145 10.4093 64 39 0
-2.14079 9.39583 7.38283 6 18 6
-1.17142 18.298 0.0696149 50 38 4
-2.70599 19.0396 29.7928 59 65 53
-6.53387 -3.14053 6.62 71 53 14
-5.20416 -1.21306 7.50496 71 77 63
-3.01836 8.36129 4.64778 12 23 7
-5.95448 4.85027 0.709522 5 26 14
-0.830307 4.84454 -14.0422 0 21 9
-2.24746 8.63943 10.1823 0 15 0
-0.80323 5.19029 -13.2104 0 16 1
-1.09791 15.6396 1.40234 0 22 4
-1.85629 0.569019 -13.6039 27 83 57
-1.25159 18.1701 -2.48119 1 25 6
-5.28577 0.109474 13.4722 68 46 2
0.0620193 5.90923 -18.5845 7 35 22
-5.82563 -3.55006 7.28823 65 71 55
-9.95046 -12.5158 3.90733 124 147 127
-1.64422 8.43402 12.2045 6 28 16
-1.2469 9.94647 -4.51277 76 34 2
-0.180916 5.50787 -16.9005 24 61 42
-9.06733 -20.5432 14.4641 57 70 61
-9.11213 -2.48991 -2.71435 16 48 29
-7.60837 -3.8756 -6.76068 4 58 38
0.843399 -0.0750694 27.6345 114 106 64
0.876877 12.8962 10.5127 68 51 17
0.507954 14.344 10.0386 65 44 6
0.0361633 25.3685 -8.49597 125 133 122
-3.17845 16.4056 31.8385 57 66 53
-1.34835 12.0388 18.9861 97 70 24
-0.636272 24.6267 -6.19274 56 27 4
-1.20094 14.0573 21.2742 86 70 28
-2.52412 8.41624 9.82243 25 24 5
-1.17656 17.2431 -2.29655 1 28 8
-0.467712 24.3329 -4.87874 98 74 41
0.436806 13.348 8.85706 67 47 14
-1.48232 13.921 26.0684 52 62 54
-0.267433 15.0825 6.06665 0 13 1
-7.34694 -0.579491 2.37804 67 44 1
-3.91077 5.90564 12.2551 19 44 30
-2.6235 8.79887 7.63145 1 1 0
0.0155487 10.7274 -15.8438 0 13 6
-0.228901 20.9791 -10.958 0 14 11
-0.873055 12.4066 -1.83216 55 61 38
-1.80158 10.6032 2.06544 60 32 1
-3.16679 8.16881 2.3343 19 40 20
1.13319 1.24802 28.86 67 67 52
1.55119 0.737022 26.825 113 113 82
-2.09031 22.9638 28.652 79 94 79
-2.99035 14.5557 32.5306 72 86 76
-0.40921 -15.6484 -24.0891 56 67 58
-0.695862 6.19641 -12.8016 68 73 58
-2.25819 17.0007 33.9331 64 80 66
-1.33262 2.56686 15.7962 67 78 67
-8.67107 -18.8458 9.95553 59 66 57
-6.19127 3.74541 -0.959975 1 30 15
-0.304459 17.7058 -10.0371 1 35 10
-4.67291 2.3403 -8.37067 5 33 9
-8.42365 -0.664822 0.115974 66 49 8
-4.60694 6.13997 8.56906 0 2 1
-1.16853 23.9302 -2.41604 0 7 1
-3.89182 7.44043 0.966973 1 2 0
-3.42359 -9.17094 -14.543 74 84 67
0.329597 19.0708 21.7415 100 78 22
-1.20299 26.0032 -2.77044 35 24 5
-7.90741 -2.58434 4.99007 68 45 1
-1.27363 20.0264 -1.37311 0 8 0
-1.56414 20.9816 30.0608 94 111 95
-5.3438 -3.40905 -10.6814 47 84 61
-6.67737 -2.90982 18.1344 69 57 28
1.15085 15.8741 -16.6858 2 28 7
-0.25021 15.9626 20.345 100 73 2
-7.64035 -4.48331 -6.49184 4 66 45
-7.63508 -0.802284 2.37608 66 43 0
-7.47208 0.688965 -2.38879 52 32 2
-1.63759 -12.8005 -21.0684 84 97 83
-0.208725 0.141335 -19.6209 83 75 50
-2.25932 18.6153 26.8644 84 86 65
1.45567 22.0916 -13.3883 61 35 8
-0.124153 11.3815 6.87549 64 46 14
0.976273 14.933 16.3267 109 75 9
-8.6569 -4.30993 6.82115 77 63 35
-7.55041 0.645931 -2.64646 46 38 10
-1.17128 15.279 22.7656 86 89 67
-6.01268 -2.0451 6.11604 71 68 46
-9.11959 -4.6675 -2.84804 22 82 66
-0.692177 9.72849 -7.4308 30 34 18
-2.51451 4.32958 -10.0511 21 80 57
-0.298164 18.7238 -9.23963 26 30 5
-0.900852 4.92104 -12.9502 2 17 2
-1.40863 4.0831 -11.8067 95 60 5
-2.74928 5.82993 13.2331 28 42 28
0.387756 11.8923 -14.9286 50 46 19
0.929321 13.9263 -19.0422 1 3 1
-1.25462 -11.0958 -22.9816 80 90 72
-6.89281 1.20454 -0.044014 60 59 41
-9.19302 -20.6974 14.6617 56 69 61
-0.0952072 16.0917 -10.4991 52 47 12
-11.4225 -20.4203 12.7441 66 76 66
-2.84819 14.6008 32.0234 67 81 70
-2.17461 19.0644 32.1414 60 68 56
0.410706 3.19321 18.7503 57 66 57
-0.906418 21.5983 -3.94499 83 59 5
-0.679314 19.084 5.95988 1 5 0
0.159286 23.5983 -11.2354 19 10 0
0.208115 5.9184 -19.9382 0 5 0
0.909004 -16.965 -31.2266 67 70 52
-1.62157 21.5233 30.1561 77 93 81
0.400814 -14.7941 -28.9192 87 78 57
-3.19724 15.3546 31.9595 71 86 73
-1.23598 13.5102 20.5531 74 55 20
-6.67596 -1.47988 15.2249 59 34 2
-1.14574 19.489 5.07074 23 29 11
-0.35321 11.6567 4.95544 66 59 37
-3.46257 7.84583 3.96116 10 32 30
-4.10533 -0.97316 -11.5774 1 65 30
-0.334351 1.95246 -17.6638 70 74 56
-1.74144 21.2407 26.6529 94 101 78
-0.47728 0.670998 -17.7684 62 50 17
1.46356 16.0938 17.0804 143 101 38
-2.81626 4.23625 -9.6036 11 48 24
-1.8605 -10.7959 -20.4752 82 88 66
2.01687 1.17643 25.8102 80 89 70
-0.855358 -6.02746 -20.2149 78 49 1
-5.46679 -1.53348 7.04047 69 72 57
0.958359 13.0441 10.6784 68 52 23
-1.43791 -12.7079 -22.1302 77 87 74
-1.21687 21.5761 3.20824 5 4 7
-5.72889 -20.0179 11.1857 56 52 36
0.0678596 15.1951 18.0161 94 64 8
2.82577 -20.7215 -43.5988 69 80 65
-7.00219 -3.99302 19.2498 67 65 45
-0.725277 14.7554 3.77285 0 21 6
0.720909 15.9128 -15.3048 16 33 17
-1.00453 15.0691 22.0955 79 75 54
-5.85034 4.34314 -0.452256 18 38 23
-0.590801 13.6604 3.39657 2 11 1
-10.6932 -14.5761 4.89066 101 128 113
-0.335533 13.4926 17.0435 22 33 14
0.284073 19.4419 21.964 100 81 35
-3.52998 1.43549 13.6673 68 70 53
-0.714546 6.20855 -12.6229 58 67 52
-1.16283 16.3239 0.969965 1 26 8
-1.47601 0.969597 -14.1553 5 42 10
-5.48594 4.58803 5.61102 0 40 29
-12.5484 -21.3754 8.4966 98 118 103
-0.720383 -0.796516 -16.9474 80 79 42
-0.312603 25.0897 -5.75293 61 25 1
-0.886215 4.90059 -12.7722 5 17 2
0.135902 23.1296 -10.9143 16 13 0
-2.35834 4.98985 -9.59527 5 19 2
-3.5821 3.92974 -8.01017 63 63 28
0.989243 11.6709 -18.6473 1 40 11
-5.28601 0.00234604 13.5926 69 45 2
-4.26944 -7.43911 -11.8502 0 51 34
0.567581 -12.8374 -28.3992 106 95 56
-5.6152 -1.60911 16.2751 67 46 5
-3.05664 8.17312 6.87136 0 5 2
-3.12651 -10.1517 -11.2689 67 80 72
-4.35453 6.80742 9.78343 0 2 0
-5.18402 1.09928 7.28207 72 77 65
-1.18607 9.14993 15.1195 71 51 2
-2.68089 8.90783 4.18957 5 32 13
-7.02778 -0.716541 -7.15821 0 52 35
-4.20504 -2.84821 -12.4502 3 77 60
-0.685158 18.3186 5.93026 0 8 0
-0.569397 13.6384 3.23507 9 18 4
-2.23605 22.8964 29.368 56 65 55
-3.06983 2.96346 -9.92278 4 50 27
-4.63272 4.93446 -5.04442 3 7 1
-0.723324 23.1783 -5.91732 11 6 0
-1.69692 6.45273 15.836 61 68 57
-3.33146 14.1934 34.8321 58 71 61
-0.197006 12.0334 -11.4689 74 51 18
-9.28831 -3.40153 -2.26998 1 67 47
-0.65855 -9.23177 -23.3482 110 109 70
-1.40511 22.3913 32.4553 66 83 72
-1.87052 21.4663 26.8493 104 113 92
-0.156593 12.5405 5.47128 70 52 12
1.46637 -12.8322 -29.3228 128 78 17
-11.6807 -19.7959 10.5056 67 72 68
-4.32317 7.01516 0.715586 0 2 0
-1.87297 19.3055 26.7157 100 101 76
0.60759 -0.251289 27.8666 109 92 63
0.27948 23.3889 26.2449 89 92 70
-3.10973 -10.0577 -15.6559 99 105 85
-3.27217 -6.54787 -15.0905 1 57 32
-0.254627 20.7985 -10.9695 0 17 11
-4.66491 5.97191 8.40872 0 7 2
-6.17481 3.83252 -1.38616 3 62 48
-2.41389 6.9481 -7.45087 7 22 6
-2.47129 1.16311 15.055 72 72 53
-0.10371 15.5899 19.5075 97 63 8
-9.47986 -20.6392 14.2036 61 72 64
-0.226444 19.7059 -7.80456 88 63 8
-4.00507 4.68154 -6.59828 1 7 4
-1.34125 20.4816 1.63836 4 0 0
-3.59187 2.60946 -9.45337 1 42 20
-0.785229 13.2377 18.3487 86 65 8
-1.67065 -9.96819 -21.2961 83 93 71
-6.22432 0.345451 12.3076 62 51 19
-1.75803 19.7143 32.7349 63 75 62
-8.45113 -10.5318 17.9525 141 136 92
-7.96428 -0.355988 -5.23534 8 57 42
0.00341034 22.854 -8.43946 101 63 0
-2.08193 19.1895 32.2975 60 69 58
-0.573013 15.2907 -6.83559 56 43 5
2.46554 2.70353 27.8543 65 71 58
0.517784 12.5223 9.30499 60 52 27
-1.18065 19.1631 4.30393 5 15 1
-4.87437 2.67209 -7.74058 1 22 1
-4.46511 6.90907 0.711092 1 1 0
-0.231537 -8.75428 -23.5241 133 90 21
-10.7978 -12.7664 6.78516 70 83 74
-1.15934 18.2924 -0.248285 57 36 1
-0.432457 13.5277 -11.0428 9 40 18
-2.0443 18.619 26.4606 97 99 71
-1.76962 8.911 17.0932 60 53 28
-0.429077 -15.0313 -25.8652 69 77 64
-2.54794 9.27637 4.84619 0 11 3
-0.511665 16.4941 -7.90233 0 5 2
-0.599678 17.4517 7.09776 3 17 2
-1.89426 19.796 27.3205 82 89 67
-2.84335 8.55738 4.89655 6 19 2
-0.172642 20.9036 -8.22438 92 65 3
-6.03735 1.11271 10.4884 23 42 29
-8.77137 -7.29008 19.6123 56 64 47
-10.1099 -4.94505 6.436 71 71 54
-0.720329 8.73183 -10.2219 25 35 19
-1.2823 23.3811 30.5028 57 64 60
-0.685574 23.6324 29.1161 62 69 56
-9.27256 -3.21101 4.3678 63 42 4
-1.06434 18.4876 4.77837 1 17 1
-2.41425 -6.96837 -17.2062 39 82 62
-0.382877 16.895 7.7405 55 38 6
-5.49633 1.99229 -7.3931 1 39 16
-0.635876 24.2485 -5.9065 54 27 3
-6.0258 3.23649 4.12099 0 34 21
-4.97654 0.306496 13.481 69 51 17
-0.0313148 12.2384 -13.5933 9 19 10
-12.4738 -21.5468 8.31072 98 115 102
-0.857819 21.249 -6.43374 3 29 4
-6.43382 0.845631 -6.96821 5 67 47
-6.52695 -1.51038 15.5264 60 35 3
2.19068 2.90313 26.7818 65 65 53
0.897858 9.99446 -20.3569 6 11 11
-0.98687 7.12899 18.8268 56 67 57
-0.453468 15.9734 -7.43698 10 14 1
-9.55692 -3.27971 4.09222 68 49 10
0.231049 13.539 -14.1096 31 37 14
-0.528053 9.03382 -14.3746 0 18 9
0.9646 17.765 -15.2184 59 33 3
0.142548 11.0348 11.7374 63 30 0
-0.126732 17.3051 8.02928 44 50 32
-5.31251 -1.77635 7.45811 69 76 61
-0.171257 13.6714 16.6179 11 32 16
1.69624 -17.6677 -34.8223 73 85 63
-5.94633 0.892132 -7.67341 2 45 28
-0.789993 14.5798 20.4496 90 63 9
-10.4802 -10.1177 6.76931 70 84 72
1.33279 22.0075 -14.1498 76 55 16
-0.330864 6.54356 -16.9438 12 31 22
-8.71522 -6.69117 7.9112 78 90 80
-1.97564 19.8335 28.2178 64 74 60
1.74606 18.8437 -16.9617 107 124 101
-9.19518 -4.53814 -2.66651 16 76 57
1.68139 13.562 14.3704 157 94 27
-2.0697 22.204 31.1532 76 91 80
-1.54896 2.78272 -12.7203 80 88 60
-9.22124 -5.24363 -2.6499 7 83 66
-5.0455 5.45297 -2.83445 5 19 2
-4.41662 0.665127 13.6641 64 56 29
-1.27656 23.3182 28.0691 79 87 68
-4.51792 2.66338 -8.19175 3 19 0
-4.91268 -3.16792 -11.116 4 86 63
-1.09401 23.4787 -2.10525 0 3 0
-2.49525 7.21239 12.2215 38 32 6
-1.02846 17.6848 3.31814 0 14 0
-2.16175 4.16639 14.4437 64 75 63
-1.0074 -14.1654 -23.3991 75 86 75
-3.30147 -10.5029 -14.9844 71 84 73
-0.851414 5.14276 -12.3955 47 55 27
-8.60037 -10.2574 18.0679 125 122 91
-1.18285 19.3352 4.92191 5 16 4
-2.3843 -7.62209 -17.5601 10 49 40
-3.15771 16.9636 29.0844 58 65 54
0.182068 16.8282 19.9134 88 62 4
-0.0893326 5.14061 -17.9282 7 29 17
-1.45391 21.3407 0.533945 2 17 2
-0.192387 11.4597 6.68862 63 57 35
0.0395203 21.7394 -10.4633 1 11 2
-4.47941 6.71484 -0.467626 2 14 1
-5.12408 1.70944 12.4967 63 66 48
0.39642 16.0123 18.0343 97 64 7
-3.17615 2.06087 -10.3784 6 73 48
-0.00474548 22.8636 -11.0744 6 13 4
-2.621 4.74674 -9.41796 1 12 0
0.339973 11.6068 -16.388 0 5 0
-7.69412 -5.81251 17.7862 114 124 99
-4.26628 7.08354 0.796576 0 1 0
-1.05863 12.4498 18.476 95 65 4
-1.76991 -12.192 -20.1336 65 77 64
-1.10305 15.6465 1.24066 0 23 6
-1.35317 14.8892 23.0177 75 68 42
-2.04312 8.49972 10.92 11 28 14
-5.75335 4.46 5.00356 5 46 30
-2.1265 22.075 27.8026 78 89 73
-6.10347 -19.7469 10.4528 69 69 50
2.98127 -21.3892 -46.3885 54 66 55
1.44024 -15.7084 -32.389 88 83 69
-0.935555 18.8643 5.31098 54 48 19
-1.1813 18.6431 3.71044 0 15 3
-0.35009 10.6531 13.1655 1 9 4
-0.879856 25.5575 -4.03455 39 32 3
-0.698002 23.9239 -5.90984 53 29 4
-5.6202 2.25581 10.1597 0 29 16
0.570206 17.6973 -13.7654 0 38 12
-1.24139 -6.30929 -19.8839 16 29 20
-1.79861 -3.80617 -16.1527 0 59 30
-0.633385 2.63156 -17.0195 24 48 32
-10.4025 -5.15923 5.31604 65 81 69
1.38287 23.5011 25.9144 75 80 63
-1.44971 12.0996 19.2833 77 65 28
-1.00761 17.52 -5.02977 22 29 8
-0.151764 14.8817 -10.3294 0 10 0
-1.6001 14.6494 25.1323 67 76 61
-1.38749 9.56535 21.9228 54 51 33
-1.21175 24.6987 0.585598 6 18 14
0.505581 16.3554 18.2917 99 64 9
0.0197258 15.6967 19.1791 80 52 2
-2.16993 16.3044 25.8552 89 99 81
-3.27727 1.80712 13.7182 68 76 59
-2.57058 18.4322 33.7974 59 70 60
-4.55833 6.76817 0.542233 8 1 0
-3.37395 14.2351 35.4433 60 71 63
-6.54931 0.0528336 12.2063 63 44 6
2.88856 -17.4265 -37.4429 98 88 60
-1.15653 17.7456 0.302283 35 40 13
-0.311996 15.2522 19.6122 91 65 8
-1.91181 -9.21676 -20.1448 76 80 63
0.271469 23.6908 -11.0858 36 19 3
-4.1745 6.65615 11.1321 4 24 8
0.47287 18.2144 -13.7857 4 32 9
-10.184 -5.19205 6.45709 72 76 60
-5.22654 4.03981 6.98962 27 55 38
-1.46249 19.1224 25.8203 96 96 63
0.190498 14.5099 -12.5325 30 45 19
-10.6336 -19.7542 11.1408 62 74 65
-0.437302 1.66705 -16.7759 75 82 63
-0.754639 3.16371 -14.2456 63 71 45
-5.02444 -1.13727 8.77843 81 89 71
1.67264 23.7049 29.8454 45 52 46
-0.111786 5.16238 -19.3564 0 9 7
-3.20072 8.19943 3.3589 15 6 0
-0.73431 -1.11066 -16.8769 63 63 31
0.251274 6.85871 -19.2195 61 63 35
1.0596 16.6592 -16.2689 47 40 9
-8.58066 -2.86049 -4.7137 0 56 35
-4.24955 5.64862 12.1104 8 35 24
-5.61015 -1.80531 6.79143 65 65 45
-0.976807 7.20618 19.3293 54 62 52
-0.495079 -12.6625 -25.9309 84 86 64
-1.30813 4.25526 -11.7165 168 134 70
-0.670898 0.704178 -14.7986 82 92 76
-1.08915 25.6721 -2.19855 54 26 1
0.0378265 8.67083 -15.4999 34 55 34
-9.33691 -3.93824 -1.57391 3 40 24
-3.95559 -3.56573 -13.2768 5 49 25
-0.00930786 -8.72501 -23.6738 142 92 27
-1.69338 -9.8595 -21.1852 82 90 70
-0.80191 4.53396 -13.9672 3 37 22
-8.58019 -8.67513 18.3197 118 114 76
-2.55254 7.87316 -5.37569 0 38 26
-5.76218 -0.166229 13.4536 64 43 4
0.274582 -10.0631 -25.2974 131 95 31
0.351158 17.2844 20.0279 82 56 6
0.833893 22.2524 23.6886 128 118 76
-12.3078 -21.5301 14.0863 64 71 62
-0.139473 14.7863 18.257 84 54 7
-7.858 -2.3884 4.62732 66 39 0
-1.91848 23.0052 28.2484 90 104 85
-1.40422 22.9356 27.2563 118 127 100
-10.9312 -14.1525 6.99957 70 83 73
-9.9846 -7.07008 4.40633 91 114 98
-3.671 -3.3 -13.4613 6 85 61
-10.778 -13.635 7.05168 69 82 73
-3.40524 1.10163 -10.5858 122 133 98
-0.129345 14.9674 -10.2399 0 12 0
-1.21866 19.183 3.98152 0 17 0
-1.31208 14.1195 21.8898 80 62 28
-1.5639 19.9774 26.4509 97 104 79
2.11214 -19.6111 -38.3235 60 71 57
-1.10876 21.9322 -3.24306 6 15 1
0.312813 -13.1594 -28.1946 88 80 46
-1.20847 19.0207 -2.02401 3 15 3
-11.765 -18.56 8.24241 75 87 77
-1.37393 8.56886 13.699 0 26 10
-4.38031 6.60453 8.89138 0 0 6
0.0576401 12.1791 7.46769 64 63 39
-10.4378 -8.56355 5.19213 69 81 69
-6.83016 -1.4733 14.9248 59 37 4
-2.72494 4.01119 -9.88162 30 63 32
-0.692482 -12.2667 -25.0987 78 73 42
-1.18929 19.1677 4.14431 2 17 0
-0.630959 19.407 5.93504 10 9 0
-2.28588 18.9504 31.3452 62 70 58
-5.1997 4.88737 6.56853 19 49 39
-1.4315 20.6522 3.68589 0 16 2
-7.54604 -3.61356 16.8275 75 76 57
3.21726 -20.0273 -44.1643 76 81 70
-0.800453 23.352 -4.26728 71 53 12
-2.44433 16.9871 32.1439 59 68 57
-1.08542 10.7009 16.0819 78 52 6
-5.36393 3.79837 6.59378 31 59 44
-9.71819 -5.45933 1.83444 76 94 82
-5.43431 4.85672 5.51817 4 33 21
-6.8631 -0.525688 -7.25747 0 40 16
-4.45967 2.61798 -8.36942 0 22 1
-0.630722 3.61842 16.8627 62 73 62
-0.9445 9.9636 10.0589 7 4 0
0.778778 17.1649 -15.0402 58 29 0
-5.15649 -3.33239 -10.8693 29 79 57
-6.18505 -2.63572 17.7843 70 57 29
-2.11344 18.0379 26.0338 103 102 69
-5.21436 5.52894 9.39699 0 16 3
-0.570778 5.30872 18.0785 53 64 53
-1.65091 14.575 26.7733 57 68 58
-0.888916 16.896 3.06529 10 16 2
-3.17541 -2.66376 -13.6265 5 45 11
-1.09966 15.6443 1.0802 1 26 7
-1.36097 8.55503 13.5302 3 35 18
-7.22139 -4.73702 7.44012 82 78 61
-1.51288 0.0640831 -14.398 3 42 16
-3.40562 15.0088 33.3203 71 89 77
3.69101 -19.9092 -44.9231 84 74 47
-0.28215 14.768 -10.8249 9 25 11
1.31641 23.2766 25.0826 102 103 80
-0.32518 -15.7355 -23.9057 51 63 54
-0.0578804 -14.0706 -27.4204 86 98 79
-6.80229 -0.264465 2.64786 67 61 39
-0.93029 16.913 4.67891 4 16 1
-2.97662 15.5848 34.8702 60 71 59
-3.00827 4.81164 -8.35309 32 69 66
0.777054 14.0013 -15.6416 10 33 5
-0.803062 14.2753 -0.0575657 50 40 9
-5.72065 -1.81783 6.49031 71 67 48
0.806717 17.1491 -14.5515 58 38 0
-5.24308 3.83378 7.00761 36 57 42
-3.11263 -8.26194 -15.806 11 66 43
-1.21629 8.97031 13.5892 0 15 3
-1.36314 20.5468 31.3757 80 99 83
-0.475388 24.8122 -5.78927 60 27 3
-7.22044 -0.547535 -6.80351 15 81 65
-6.35657 2.99981 -0.771515 0 33 19
-2.05889 -3.09162 -15.1336 60 100 76
-3.11259 16.1267 29.6094 74 86 72
-5.65625 -20.0423 11.3289 63 59 40
-4.06279 2.97524 -8.54648 10 17 2
-6.21284 3.30292 3.84842 7 37 28
-1.42213 21.1788 1.12538 0 8 0
-0.672379 5.99788 18.7958 54 64 54
-1.18535 18.8715 -0.543966 52 36 1
-0.293869 23.4676 -8.10411 13 23 0
0.0730591 11.0031 10.6167 65 45 9
-1.73714 10.4196 4.96564 39 23 0
-5.73345 2.79423 5.61033 2 47 30
-0.975166 -9.88486 -23.2115 102 92 52
1.35785 14.4283 -16.9594 64 51 20
-2.54932 -3.65857 -14.5703 73 78 53
-0.67334 10.8494 14.4407 21 25 4
-3.479 -5.71001 -14.6405 2 66 43
-3.67287 7.58934 1.41103 0 1 0
-10.6915 -11.4957 5.0304 102 121 104
-1.78685 -0.974243 -14.8882 1 27 2
-1.46194 10.9858 2.07058 61 25 0
-10.3734 -7.95779 5.41399 76 91 77
-1.31904 13.7431 22.4709 58 63 49
-2.23508 -9.62252 -18.9296 79 83 67
-0.707428 17.8173 23.3305 77 70 44
-1.11441 -5.14547 -18.4363 61 41 0
-1.28597 10.9379 4.27305 61 29 4
-2.58384 4.50249 -9.7793 12 48 26
-0.769772 3.28612 -13.8187 58 65 46
2.35474 2.5738 22.399 62 65 56
-10.5823 -16.2281 5.19893 129 149 134
0.726021 22.22 -12.255 0 46 19
-0.854729 12.2037 -2.83631 33 29 5
-0.172493 10.2305 -13.1132 10 30 14
-1.39759 8.67947 13.2515 2 32 17
-3.46029 5.99232 -5.3822 22 49 42
-0.108208 12.0744 -13.6038 11 25 17
-0.0884361 23.5105 26.9823 93 100 79
-0.0592804 14.1989 -11.7671 0 31 5
-1.4981 10.9401 2.90393 55 27 0
-8.96147 -12.0652 3.19094 156 180 158
-1.06286 17.3559 -0.0420661 58 37 1
-1.67304 14.5946 27.248 59 72 62
-0.673203 14.7024 20.2905 96 64 4
-1.0173 11.0176 16.3263 65 43 4
-3.15446 16.9613 29.2448 60 68 56
0.220619 17.983 -13.1318 27 57 51
-11.9715 -18.9107 7.76735 102 120 105
-7.30966 -1.52739 -7.0921 13 85 75
-6.97105 -19.7057 11.701 53 52 40
0.557644 11.1222 -17.3179 31 48 33
-0.436455 13.2471 17.3035 55 40 10
-2.27636 -0.502132 -13.6403 0 36 10
-0.507141 13.3282 4.85936 57 59 42
-1.04736 18.9205 5.13332 36 40 14
-4.93373 4.89664 7.11602 33 71 52
-5.67142 0.695312 12.5799 67 62 47
-3.06182 16.1825 33.0279 56 62 50
1.04115 13.4708 -16.5641 82 58 11
0.392296 -15.6082 -29.2981 69 76 61
-4.81173 5.23328 7.27007 10 46 26
-0.422859 -1.27191 -17.9585 79 93 73
-2.4326 -8.80434 -17.8119 82 91 71
1.65659 -17.1825 -34.2529 70 87 76
-3.61538 3.2949 -8.7266 19 44 18
-2.43321 5.38677 -9.11383 19 41 25
-6.27578 -2.45222 -9.16585 0 69 44
-1.07455 -10.8861 -23.5677 82 88 69
-1.79499 4.87232 -10.7606 61 42 4
-4.97784 -1.65086 8.11861 65 75 65
-0.467644 -9.37902 -23.6845 122 114 76
-1.28463 4.80782 -11.321 172 136 81
-0.732941 -12.6016 -25.1512 82 84 57
-10.4961 -11.4542 4.76837 118 142 120
-0.897453 14.1488 -2.7083 58 48 16
-1.96011 19.4755 31.3131 63 72 60
2.13544 -19.6472 -38.5656 71 84 71
3.86385 -19.7535 -44.6826 77 56 31
-2.35212 -7.65088 -17.7591 15 53 45
-1.51358 11.7445 20.1795 57 60 38
-5.22654 6.1929 4.91973 12 23 3
0.140377 5.9909 -19.0229 2 28 20
-10.1078 -20.7666 13.9102 64 76 68
-0.483852 4.41877 -15.1899 0 49 29
-7.85217 -1.62376 -6.28557 3 59 41
2.94051 -18.7532 -40.5279 92 99 80
0.5271 9.80635 -17.1946 59 58 24
0.350121 11.7173 -14.9389 62 53 18
-6.06397 3.86056 -0.616259 3 27 6
1.05699 15.6388 16.8907 117 78 24
-0.576874 17.6179 7.24525 7 15 1
0.518028 0.645802 28.2957 96 78 38
2.88509 -21.25 -44.9303 56 65 51
2.89619 -22.1777 -44.987 50 61 52
-1.06208 16.5287 0.383619 41 45 11
-8.45417 -9.05724 3.33553 148 179 156
-2.86575 -3.63079 -14.3552 30 74 37
-0.0243721 -0.10186 -20.0524 101 97 70
-3.7349 3.16522 -8.72659 33 51 23
-0.774216 8.76405 -9.35223 68 59 33
-0.643082 4.42212 -14.7052 33 67 50
-7.45564 -1.7453 -6.99235 0 66 49
-1.75914 8.28611 17.0351 59 60 42
-5.33298 3.74033 -5.56435 7 68 44
-5.68471 3.31036 5.7948 26 41 20
-1.28903 4.79107 15.7201 62 77 65
-0.915131 4.931 -12.228 55 51 19
-10.4056 -5.15995 5.68812 68 76 65
-10.6243 -9.15122 5.39947 64 75 64
-0.977467 23.2989 30.937 60 74 63
1.17233 1.21548 27.3547 101 95 57
-2.16153 21.7614 28.4964 69 82 70
-5.35982 5.44238 5.47633 21 53 40
-0.882843 25.2848 -3.98281 40 44 12
-6.81616 -1.60242 15.2273 58 38 3
-0.47612 11.3259 14.4065 4 23 15
-1.47034 -1.08681 -15.2983 10 41 8
-5.76041 1.64506 -7.3138 2 35 15
-10.1984 -3.61557 3.33928 63 71 60
-8.05802 -2.5854 4.69784 66 39 0
-10.177 -8.71782 4.54244 118 136 119
-1.24802 19.1989 3.50266 1 13 2
1.46461 -11.1648 -27.0872 143 73 14
-0.989525 16.1652 22.6646 95 79 36
-1.25474 8.87841 21.6284 48 57 47
-2.88751 16.0989 28.6498 69 83 69
-0.933002 14.7815 -0.475565 11 18 1
-1.57871 9.19711 16.4005 74 57 20
1.51813 15.4343 -17.1717 49 54 13
-3.91793 -8.82974 -12.7059 35 63 52
-5.32449 0.224693 9.22808 88 95 67
-10.2453 -20.5062 13.3304 60 72 64
-2.31792 17.2063 33.9682 65 81 68
-1.35096 14.1406 22.2041 68 60 34
-0.807426 15.6019 21.9431 92 70 24
-1.32344 20.7707 3.22058 0 6 1
0.413132 8.85308 -18.1477 1 0 2
-0.845535 -5.69035 -19.7709 83 58 6
-1.04987 24.9328 0.290803 21 23 10
2.04329 1.97442 25.423 85 88 67
-3.27545 8.02949 2.33792 17 31 13
-0.0898209 21.7454 -10.9722 0 12 7
-1.34232 14.3234 22.3301 67 59 32
-1.46177 14.7608 24.1643 69 77 65
-4.36217 -3.65517 -12.3088 2 54 40
-4.37271 2.89794 -8.09849 7 23 2
-9.74759 -19.5554 11.5373 60 70 63
0.662792 23.9968 28.5041 62 70 59
-6.28548 3.14865 2.13902 8 50 37
1.79133 21.929 -14.4266 96 100 74
1.13631 13.8084 -18.4072 1 5 0
1.04399 13.1889 10.8451 63 49 22
-2.01937 6.6753 -8.33253 23 23 4
-0.669003 23.6213 28.6832 70 78 64
1.93415 -15.5458 -33.0304 99 103 75
-8.40469 -3.46082 6.05496 74 48 6
-10.2369 -5.94709 4.65192 80 100 89
-8.50399 -0.699928 -2.56113 40 57 21
-7.64448 -0.175095 -5.92708 0 51 29
-0.113033 17.3894 21.7217 104 81 29
1.74627 14.9807 -18.0795 66 39 1
-0.971802 13.3595 19.4903 91 62 1
-2.11163 -10.5577 -19.2327 74 86 71
-12.3038 -19.7077 8.76159 76 90 79
-8.25744 -2.73507 4.78823 68 38 2
-2.43453 4.39349 -10.1419 19 83 49
-1.20397 19.1773 3.35058 0 13 4
-2.76802 5.41252 13.4651 59 67 50
-3.82467 7.49023 1.06573 1 2 0
-12.2501 -20.0825 7.84177 116 141 126
-4.18473 6.87749 10.0805 0 3 1
-7.78925 0.403084 -3.85548 0 34 23
-8.53804 -20.6979 14.8767 52 61 53
-0.940056 13.5319 19.6306 101 70 3
-6.66393 0.495178 -6.87619 0 28 10
-0.126175 13.6468 16.2967 1 18 10
-5.74772 -2.42297 10.794 88 106 88
-0.508499 -10.4265 -24.6127 109 116 89
-5.46776 3.33142 11.6894 27 56 45
-0.542625 15.2798 -8.81129 2 37 7
-2.44685 8.62096 -3.83955 2 3 0
-1.20798 18.148 -2.63868 0 29 8
-1.21087 25.8749 -2.65551 42 25 3
-8.76799 -4.51675 -3.96413 10 65 53
-4.31641 2.05638 -8.91611 14 62 38
-6.27186 2.35262 3.29529 0 41 26
-0.454117 6.3753 -13.5702 70 71 53
0.516991 9.61787 -19.9971 8 22 18
-5.45756 -0.0480156 5.9396 41 62 47
-1.8695 7.11908 13.9112 2 24 12
-0.512524 12.8331 4.48072 58 56 31
0.985268 23.8242 27.2454 76 83 67
-2.65512 -2.34287 -13.9144 22 68 45
0.452988 18.6818 -13.8178 21 38 17
-3.30265 2.28289 13.4657 66 76 64
-3.90966 -2.48048 -12.9091 0 61 34
-5.79183 -1.3273 -9.50288 20 61 48
1.52127 1.3936 26.8103 105 102 69
-6.79765 1.81887 -3.85137 1 19 5
0.800968 10.3468 -18.1295 69 54 22
-2.80424 18.0719 27.686 62 65 50
0.212189 18.9521 21.8948 107 84 31
-1.12482 7.92865 19.9949 54 60 48
0.0587044 11.1347 -13.8697 8 38 24
-6.97963 -1.68504 15.0334 59 41 4
-0.539299 22.9227 -7.34147 18 21 2
-4.99368 6.45602 1.03537 0 10 7
1.61894 -17.9795 -34.7605 70 76 65
-5.73683 1.99715 10.0804 5 26 15
-6.63874 -0.176414 2.83167 67 66 48
-3.09433 8.2157 2.44073 26 46 28
-1.53537 20.9779 26.3377 99 100 76
1.30414 -10.4666 -26.1414 133 62 16
-3.60345 7.63321 0.626969 0 1 0
-1.65361 14.583 26.2817 56 66 55
-6.44849 0.693977 2.52128 51 68 62
-0.292015 14.7732 -10.6584 2 16 5
-1.72611 -12.3167 -20.8562 75 83 66
-4.67216 6.64157 0.540653 4 0 4
-2.74225 3.14102 13.8291 65 74 65
-7.48369 -4.07396 16.5593 77 88 69
-0.259506 6.54622 -14.5826 1 23 4
-1.05476 -14.7231 -18.7482 73 85 76
-0.944351 24.6642 -0.842052 64 32 11
-11.8387 -19.7156 9.98417 71 84 73
-0.904419 13.2028 -3.3572 4 26 8
0.613197 9.75393 -17.7323 69 55 22
-8.91774 -2.92749 4.29323 68 41 5
-6.59413 2.07888 0.109936 28 65 49
-0.138649 9.39833 -14.0359 17 16 2
-2.92332 8.50124 4.64698 7 19 8
2.58616 -19.4847 -40.4346 82 92 76
-7.11922 -0.803001 -7.07927 0 68 47
-3.33567 6.46812 12.3376 2 21 9
0.588474 -16.765 -30.2199 73 84 70
-2.96931 -9.1172 -15.9823 65 84 74
-1.10863 19.7588 25.5717 96 97 71
-3.67179 7.68462 3.71325 19 38 28
-9.9146 -11.5492 4.00429 119 143 123
-5.971 3.4673 4.10336 0 41 25
0.919449 23.9695 28.4467 64 72 61
-0.285797 4.622 -18.3147 1 4 0
-2.04195 9.11867 9.64448 0 11 3
-0.0587273 22.9156 25.5787 117 119 86
0.773006 23.3533 25.5029 96 98 75
-0.771645 16.1057 3.13176 4 17 2
-0.156158 13.6633 16.4549 6 25 15
-8.64641 -19.4443 12.2914 49 61 53
0.284901 11.6489 -14.5136 32 41 22
0.214516 22.4358 -9.39503 61 33 0
-0.339939 -14.4484 -26.3761 82 90 73
1.45365 -18.14 -34.2207 74 76 59
-0.135868 14.9864 -11.5429 66 58 34
-0.0890121 15.9638 -10.9431 0 5 0
0.331131 10.5356 -16.7564 23 47 35
-5.08559 2.22109 -7.83875 5 33 19
-0.623322 5.94038 -15.4808 0 19 8
-6.2056 3.18901 3.93455 14 48 40
-0.931812 15.005 0.648317 22 37 5
-6.4796 -0.356361 11.3014 93 87 54
-1.05993 17.6983 4.27738 7 23 7
-1.16058 4.89108 16.1744 62 73 63
-0.633957 11.2231 14.5603 0 19 13
-2.22183 -6.46901 -17.4752 33 76 51
-6.14978 -1.55351 10.6848 91 97 72
-0.975132 15.7603 -0.528113 6 16 1
-10.4196 -5.26363 5.45868 63 77 63
-1.35098 13.0009 21.464 59 60 44
2.37652 -18.31 -37.5781 74 80 61
-4.94334 5.00775 7.54002 3 35 22
0.067894 10.3665 -15.143 0 9 3
-0.468964 8.98829 -12.3034 46 58 32
-0.87199 2.21079 -14.2759 59 57 28
-0.722748 10.5599 -8.61027 2 20 7
-6.28894 -2.02895 11.1135 90 100 91
-1.1448 11.5273 17.4487 89 64 12
-5.24733 -4.40705 -11.5582 81 106 84
-3.0835 2.21529 -10.5546 19 67 44
-5.49936 -2.17149 7.30047 73 81 65
-0.629913 22.2473 25.6649 108 105 74
-1.49983 12.1277 19.9356 57 53 33
-11.2519 -15.7922 7.15045 71 85 73
-3.41746 1.89707 -10.1472 4 60 32
-5.35529 2.47617 12.1299 41 54 37
-6.51817 0.604568 -7.05547 0 38 16
-0.252453 -9.46963 -24.0515 94 76 30
-7.5299 -19.3281 10.5692 54 56 44
1.09137 22.8943 24.4029 116 109 76
-0.145412 25.691 -6.89739 59 31 6
-6.28415 2.37344 3.11462 0 37 23
-2.20728 8.40461 10.7325 38 49 30
-0.875252 21.7564 -6.42763 3 23 12
-1.82824 -11.3798 -20.343 75 87 72
-1.30379 -10.1461 -22.5971 87 87 58
-4.76199 -3.68565 -11.6376 52 92 70
-1.72177 8.27901 12.2119 14 35 25
-6.3204 3.04878 3.58525 6 51 37
0.00875854 10.8433 10.282 61 42 3
-1.24484 12.3477 24.3271 54 61 45
-2.54202 3.4774 -10.8154 0 24 1
-5.6091 1.97002 -6.96273 31 48 17
-7.66444 -1.79368 -6.63925 7 81 61
-2.27107 18.1563 30.6081 57 69 58
-5.72346 0.935177 -8.02745 1 43 22
0.251137 16.339 -12.7534 15 42 26
-8.58117 -2.78044 4.4901 67 38 3
-2.58794 8.88452 5.84307 1 13 0
-10.9626 -14.0841 6.78762 69 81 71
-1.46053 10.9267 0.0362849 62 27 0
-0.585609 11.8064 15.7162 14 24 10
-0.246227 16.0763 7.71469 59 39 1
0.0955887 5.77439 -20.128 1 3 1
-7.1864 -2.59161 16.8057 60 45 14
-1.09807 15.9205 1.97302 0 32 14
-1.57817 8.519 15.9321 67 48 2
-8.69502 -1.56843 -3.50526 0 37 20
-1.0013 -9.08796 -22.672 97 85 47
-2.96598 3.12968 -10.0983 7 50 27
-1.326 11.4197 23.8501 56 59 43
-0.567287 17.5422 6.04176 0 17 1
-0.313904 12.1151 4.9095 68 62 50
-0.611366 13.7752 3.47659 4 12 4
-0.243141 16.7739 -9.91636 2 32 9
-0.422424 16.6279 -7.73958 5 10 0
-6.20694 2.18874 3.75714 2 52 40
-6.15723 -19.7474 10.2045 60 64 51
-8.45065 -0.631783 -1.61341 52 43 12
-7.99428 -4.46223 7.09773 77 60 36
-5.73802 4.3457 5.08934 2 45 29
-0.318535 -1.83411 -19.343 60 47 13
0.0832634 5.77531 -18.8679 2 34 22
-2.52705 4.46082 -9.95919 12 69 50
-1.79118 19.7288 33.3438 64 76 64
0.181458 11.7773 9.06326 62 33 0
-1.47339 23.1619 30.9775 62 75 69
-5.60183 4.55654 5.35383 12 52 44
-0.0182571 12.221 -13.2594 11 31 15
-2.83944 -8.1745 -16.5028 14 65 44
-7.50717 -0.87677 -6.5328 0 57 26
-0.00617981 6.17054 -18.0145 41 55 39
-0.84008 11.4205 -6.04113 2 24 6
-11.2213 -21.4216 14.4254 68 82 72
-0.629547 15.1414 -8.64797 6 39 8
-1.24852 19.0252 3.67406 0 12 1
-2.73467 8.6683 7.29404 5 4 5
-4.78849 -2.54249 8.963 56 66 56
-1.19712 17.1398 -1.87348 3 19 1
-1.32852 11.4248 22.8332 67 59 31
-0.326096 13.6579 -11.2097 5 45 20
-1.29824 -10.7792 -22.7368 91 98 77
-5.67538 -0.185928 5.39204 2 49 34
-3.13268 3.94685 -8.97867 31 68 47
-1.61457 10.819 2.73694 67 32 0
-1.80001 20.597 27.2816 73 81 67
2.10066 15.001 -19.2547 70 42 12
-3.30795 4.16203 -8.36147 23 59 45
-0.589577 3.27848 -17.3277 0 35 17
-2.57447 8.50167 -3.67037 0 7 0
-1.8638 5.28523 -10.3087 93 90 44
-2.61509 -6.63112 -16.4916 24 76 68
-1.58406 15.4658 24.5403 73 84 70
-2.72633 17.4459 26.8913 83 94 76
-13.1978 -20.6876 10.4683 66 78 69
-1.07003 18.4948 4.62116 0 13 0
0.299713 20.2879 -11.7987 40 44 20
-3.33138 -3.2253 -13.9188 0 35 9
-0.337383 -0.332817 -18.9132 92 85 55
-2.74237 -2.51203 -13.9186 11 55 31
-0.788643 15.1896 4.34567 0 14 2
-0.404148 24.9834 -5.89875 58 25 2
-5.08272 -1.0821 7.68754 67 74 58
-0.447426 -0.53096 -18.4449 78 78 49
-3.56105 7.71753 1.41258 4 0 5
-5.23591 -0.47625 7.07234 71 81 67
-5.50743 1.21126 -8.0263 3 49 18
-1.49089 10.9394 20.523 51 58 40
0.577507 17.8889 20.2899 97 67 8
-0.0515213 5.34076 -19.8819 6 18 8
1.48162 -17.237 -33.7348 73 78 61
-3.83284 7.48829 3.10161 0 17 2
-0.350254 0.95192 -18.7435 66 58 37
-1.24439 12.5402 24.7839 54 57 45
-0.299911 6.7968 -17.0328 8 22 15
1.54498 -13.2039 -29.8924 122 73 2
0.619839 11.3106 -17.64 7 28 13
-1.96541 -6.18366 -17.8608 38 75 63
-0.413979 19.9444 23.8585 91 89 58
-0.327965 -1.82538 -19.7177 62 51 23
-4.54452 6.95089 4.59503 9 33 20
-10.0327 -6.58617 4.16918 80 99 89
-0.00839615 21.3808 -10.4845 1 10 0
3.49206 -17.528 -38.2582 109 72 32
-10.1387 -7.06626 4.74807 85 107 92
-2.16898 -6.51601 -17.6767 43 95 69
-2.48816 -7.52768 -16.9629 2 57 35
-0.0116959 2.85982 -19.2579 76 78 52
-0.982487 11.1558 -0.797904 60 37 7
-1.5613 22.846 31.6803 68 80 72
1.79704 -16.3572 -33.6453 73 63 42
-5.94681 1.26485 10.3099 25 49 29
-0.352882 16.4208 6.0946 0 15 0
-1.29742 20.0814 3.27425 1 6 5
0.552032 -7.11084 -22.3723 159 118 26
3.1263 -17.3692 -37.5954 98 77 38
-2.70745 8.38471 -3.331 0 10 2
0.183224 -6.82159 -22.0409 149 132 70
-1.30297 19.9116 3.91446 4 15 3
-0.109673 10.7919 13.115 14 28 11
-0.605049 23.1947 26.8028 106 113 88
-9.79198 -5.91679 7.1838 82 90 76
2.22742 -15.59 -33.5297 121 106 81
-0.628403 17.8623 -6.63668 77 65 17
-10.6246 -12.9895 7.29986 72 83 73
-9.21402 -1.80355 -1.09367 57 56 35
-0.355446 10.9427 -11.8575 0 21 11
0.13504 11.2804 13.3993 70 77 33
-4.14051 7.20218 0.796109 0 1 0
-0.690742 3.34275 -14.7807 8 36 25
-6.90394 0.330708 -6.44763 30 84 58
-3.89393 -6.90698 -13.5369 8 51 37
-0.792938 14.3692 2.16929 11 32 14
-0.988113 16.0492 0.182352 60 51 18
-9.33187 -4.67875 -2.2937 2 60 45
-9.9014 -20.7664 14.0604 63 74 66
-1.06274 11.6742 17.4415 91 64 11
-0.695831 13.8213 4.29791 10 23 4
-7.49039 -0.691849 2.37717 67 43 0
0.308174 0.0943031 29.1154 60 53 40
-1.26551 8.63315 20.6519 55 60 47
-0.469791 0.788277 -18.0019 65 53 20
-5.90536 -2.56914 6.74581 71 72 55
-10.7136 -14.2649 4.86555 99 121 104
-8.52715 -6.25999 19.6592 60 58 50
1.6122 18.3634 19.75 139 103 22
-6.26674 2.68747 3.02767 0 36 22
-0.0830917 16.8775 -12.0405 1 23 3
-0.383545 20.1013 23.8291 94 91 56
-1.26895 18.1757 -1.366 1 16 4
-2.31932 17.2902 33.7814 59 73 61
-3.53455 7.89809 3.44096 0 3 3
-11.279 -16.1903 6.2756 102 123 109
-10.7413 -14.8239 7.72892 75 86 74
-11.2967 -15.6852 6.52251 66 76 67
-5.90504 3.05148 4.41379 0 34 17
-0.055275 10.9633 -13.4178 0 38 16
-2.03683 9.0318 -4.86071 62 44 8
-10.568 -11.7832 6.97047 74 87 77
-0.151909 19.7319 -8.20896 66 43 0
-2.31535 19.7168 29.6353 62 67 50
-7.39824 -19.5698 11.3758 51 56 46
-3.95201 7.16819 0.223436 0 0 2
-5.1278 -1.27999 7.70111 71 78 62
-10.7917 -10.4611 5.63083 61 74 63
-0.96917 24.8509 -3.82924 9 20 4
-1.01785 14.788 -5.02792 0 41 19
0.315296 17.4214 20.3729 81 57 7
-0.333008 17.7139 -7.77328 64 39 0
-2.66739 -10.7619 -17.1912 86 97 82
-1.7661 2.33651 -12.7765 19 59 32
-7.14698 0.973618 -1.25858 68 47 6
-7.78486 0.400238 -4.02769 0 35 24
3.84858 -18.0777 -39.3811 102 59 26
-0.721718 6.1275 -12.5075 61 68 52
-10.0368 -5.79227 3.53431 89 107 95
-0.818085 21.3981 -6.58806 16 31 0
1.38936 10.9063 -18.9297 124 102 34
-1.56188 2.51493 15.575 71 79 69
-5.65429 0.709679 9.66721 88 95 76
-1.09901 17.467 0.165386 51 42 10
-7.32829 0.00915909 -6.27405 1 44 27
-1.13778 14.6678 -4.69974 0 28 9
-5.72956 2.68288 5.49857 4 50 32
-0.591873 9.67443 -10.1894 81 64 26
-0.675697 11.5229 -7.73676 79 74 43
-0.449886 17.9845 -7.0696 84 62 20
-9.075 -1.69485 -1.6096 22 48 35
-2.13606 5.59734 14.3439 59 58 38
-1.51952 23.0064 31.3265 66 81 73
0.0458641 10.4003 -15.9953 5 36 26
-1.17613 22.5807 -2.22297 0 7 1
-9.08363 -5.10213 -3.02488 5 87 68
-0.724861 26.6045 -3.10131 67 45 16
-4.34303 -1.9589 -12.0063 0 65 33
-10.836 -11.2242 5.50744 64 77 67
-1.2397 11.6957 24.3766 58 61 46
-5.98049 4.01062 -0.276103 10 34 20
-0.592129 24.7777 -6.48033 58 28 1
0.917744 15.0349 16.5763 105 86 37
-2.19608 -7.66354 -18.3038 11 60 45
-5.4335 2.27545 -6.96062 0 38 18
-10.2821 -18.9646 9.54435 78 91 80
-2.7892 -8.25172 -16.7155 49 84 64
0.786087 9.85434 -18.789 24 15 0
-0.301476 19.0848 23.0329 90 84 43
-9.06321 -6.15781 7.65997 78 76 61
-0.55529 12.5885 3.39808 31 27 9
-12.1174 -21.4474 14.0976 63 70 60
-6.67678 -3.27061 18.5921 69 61 38
-5.5841 5.10262 -0.54381 8 42 28
-5.47278 -5.02258 -11.1108 101 118 104
-3.27602 2.4878 13.4412 66 74 62
-6.30775 3.18314 -1.46018 9 72 57
-0.953495 11.8657 25.5719 55 68 58
-1.51923 10.2728 19.3046 55 63 54
-2.73235 8.56265 8.40857 0 8 1
-10.1405 -19.6957 11.2993 62 73 65
2.08452 12.9807 13.8171 118 76 25
-0.882473 13.3393 18.8004 67 49 3
-0.955269 21.2925 -5.96559 1 11 2
-1.18761 24.7803 -2.47932 0 10 3
1.4593 -14.4058 -31.1678 95 89 60
-8.78457 -19.3296 11.7736 49 61 54
-2.85977 16.3299 28.0264 70 83 69
-0.338654 5.0906 -16.1143 5 54 37
-10.4052 -13.2106 4.44533 111 137 118
-0.747902 16.9035 22.5184 101 87 50
-1.78892 21.4132 32.6171 65 80 69
0.314026 8.92161 -19.5256 5 10 3
-1.21144 -2.81982 -16.5073 63 64 23
2.88282 -21.2541 -44.4673 53 61 49
-7.42532 -2.55338 5.39412 66 46 4
-2.26674 -2.28785 -14.5992 32 61 49
0.572128 -17.2256 -29.9322 64 74 63
-3.2708 8.12676 3.78985 6 10 1
1.8979 2.67618 20.9478 59 68 58
-8.88169 -2.99186 4.48634 70 43 6
-6.68301 0.560013 1.73626 60 68 50
-0.0206528 11.7696 7.00614 61 49 11
-2.06908 19.2411 31.7559 61 68 56
-8.26789 -2.00167 3.50503 64 44 0
1.13172 16.0476 -16.7301 1 29 9
-0.503456 11.5705 5.51459 54 34 0
-5.26341 4.06139 8.5308 12 46 25
-0.441071 0.876209 -17.7532 61 47 15
-2.93772 8.29541 7.38587 0 9 0
0.727787 14.3471 10.5648 67 44 2
-0.655048 14.6904 2.80567 53 47 14
-7.60852 -3.52919 -6.83823 4 47 25
-5.19382 1.40779 -8.38026 4 43 17
-11.3539 -16.6948 7.4483 71 86 76
0.288021 11.3901 10.8412 67 55 23
-6.00037 -2.41702 6.53218 71 69 46
0.609436 12.7468 14.5338 51 48 25
0.256413 14.8565 8.4417 59 61 45
-1.4024 20.3961 31.408 73 90 77
-3.32835 2.85333 -9.63192 13 64 39
-1.2599 20.7566 -2.85212 2 11 2
-5.46719 4.64834 9.80294 1 28 18
-0.919014 -5.82231 -19.8744 75 48 0
-2.1566 -1.44347 -14.5298 11 71 46
-0.570946 11.8268 0.0596552 60 46 26
-4.17584 2.84092 -8.54679 6 14 1
-6.81984 0.25922 -6.79746 12 50 35
-3.83416 7.49004 2.93166 0 8 0
1.83173 -16.3892 -34.0835 80 80 53
-1.69438 9.17354 18.0057 58 61 47
-1.21331 17.3814 -2.04053 5 21 1
-2.71967 8.57397 3.13126 11 22 0
-0.837402 18.6676 -4.39169 14 9 2
-1.24844 17.9914 -2.31727 3 20 3
-0.957474 13.0343 -1.01706 0 21 6
-0.229881 23.3475 31.4128 62 74 66
-0.675705 4.53968 17.0573 61 71 62
-1.67989 20.0171 32.6677 63 74 62
-1.12006 23.1152 -2.09269 0 5 0
-1.05471 12.9084 -3.85767 0 13 0
-13.0466 -21.8706 13.7296 62 74 66
-1.3428 20.2738 1.80721 0 10 0
0.216194 14.9687 17.4782 97 61 8
-3.21109 3.75169 -8.9847 12 42 23
-1.95525 -6.56023 -18.3914 58 93 85
0.658329 -12.3815 -28.0502 102 72 22
-0.554749 12.6297 -9.22973 0 8 2
0.114689 -0.285965 -20.2828 126 112 84
-1.1663 22.697 -2.27477 0 7 1
-7.46953 0.682182 -2.20921 56 35 0
-5.029 5.86101 -1.65343 3 7 0
-3.09842 3.78727 -9.43227 6 37 20
-1.05236 15.8168 2.03462 0 32 15
-7.10307 0.235615 1.37433 66 50 17
-4.42075 2.96368 -7.91677 6 33 2
-0.988556 15.8754 -2.74578 62 53 21
-1.06109 15.6223 -0.846858 0 20 6
-1.15837 16.5106 -1.46857 5 25 7
-7.17297 -19.5411 11.1804 48 53 41
-12.1954 -20.4657 7.69082 115 145 128
-0.117817 13.0524 -11.5155 22 43 19
-2.65897 8.72331 7.04011 7 24 17
0.969601 21.4312 22.7376 112 99 56
-1.15623 17.7679 -2.62879 2 27 8
-1.74429 -12.2993 -20.6515 60 67 53
-0.448643 25.4009 -7.33317 18 41 26
-0.435562 6.66124 -16.0333 15 41 34
-0.245979 18.5574 -8.07728 66 42 2
-4.43459 6.88776 0.544699 4 2 1
0.0518913 18.3236 21.7909 83 64 24
-4.57329 6.89381 2.85601 0 9 1
-11.4701 -18.9624 8.99199 73 85 76
-1.3802 9.56772 20.8918 55 60 45
-1.2815 19.5791 2.48278 37 36 5
-8.66784 -6.37004 19.2837 57 57 45
1.13718 -15.9543 -31.4538 80 81 73
-1.35269 8.64857 13.4377 3 36 20
-1.72568 8.67488 17.49 62 64 48
-0.793144 11.5744 -1.80648 81 75 47
-4.09999 -3.78047 -13.1566 2 47 25
-4.12762 1.65319 13.1741 67 68 56
-0.279236 25.6228 -7.18525 41 27 7
-0.762413 3.27821 -14.0031 57 62 42
-4.85778 6.11053 9.55444 0 10 2
-8.95982 -4.56773 -3.21977 1 56 39
0.0696602 13.3515 -12.9988 47 29 1
-1.55082 8.24466 13.2136 8 34 23
2.23689 2.1909 23.763 66 71 57
0.5672 12.1891 -17.6532 34 60 54
-0.212688 12.907 -11.1882 0 35 9
-0.626251 5.94116 -15.126 2 20 8
-2.32 1.85205 -12.2264 3 46 25
-4.82785 5.6675 8.58876 1 10 1
-4.58216 6.76342 5.96138 18 47 33
-1.14827 -9.24166 -22.475 96 89 52
-4.44355 -3.97068 -12.2224 52 104 81
2.88665 -22.0757 -45.1606 50 62 52
-2.29551 -8.49546 -18.2301 83 79 58
-5.61415 1.89908 9.41456 83 93 73
-0.651924 13.795 4.47139 26 34 13
-0.938721 4.09489 -13.3767 20 55 38
-10.737 -11.8727 6.56912 71 84 75
-0.601433 8.86501 -11.4351 0 32 16
-6.35374 -0.00727081 12.6839 67 41 3
-0.251068 -8.50496 -23.211 111 82 14
0.850952 16.85 18.4402 114 72 10
-2.37207 17.4133 33.8736 59 72 61
-9.18172 -21.0291 15.1093 64 76 68
-5.83256 -0.58757 -8.94504 26 89 76
-0.648537 17.4787 6.44155 0 16 2
0.365173 14.1573 8.41753 64 54 37
-1.65785 9.14475 16.6416 87 68 27
0.178955 -0.54171 -20.3975 122 107 69
0.68998 19.0742 21.0391 107 81 13
0.721001 10.1748 -17.8001 59 52 23
-4.62794 6.29828 10.6954 13 44 32
-10.5975 -14.999 7.95276 74 85 72
-9.21709 -4.44794 -2.59667 10 73 52
-8.52319 -0.671165 -2.3821 46 55 23
1.42035 -17.658 -33.8787 77 85 68
-11.297 -16.47 7.43464 72 87 77
-2.74542 8.678 7.63442 2 1 0
1.38004 1.26311 27.0077 103 97 65
-0.27877 12.3134 6.06785 76 50 13
-1.48098 3.59426 -12.2988 76 62 17
-0.147388 -1.84629 29.5436 54 60 52
-0.504059 15.0724 -8.81903 0 34 0
-1.45826 8.38963 14.5904 9 32 17
-9.37601 -19.3635 11.5526 59 69 62
-6.12999 0.403992 12.3852 64 54 27
-0.401222 11.7605 -10.792 33 48 17
-1.11403 6.68818 -9.76044 101 60 8
-0.284782 -4.83592 -21.2014 109 84 27
-8.40375 -2.83776 4.78064 67 37 1
-6.17039 1.5311 -6.61456 5 19 0
-7.68766 0.540573 -3.33802 34 45 34
0.447609 -0.246338 28.1163 100 86 50
-10.39 -5.96803 6.33816 66 79 71
0.0647049 11.0089 10.2708 63 45 0
0.19593 20.0917 -11.5529 7 33 10
-0.231617 13.1448 16.3128 37 36 8
-2.68294 2.47462 14.0937 69 74 62
-0.542648 17.2475 5.50553 12 31 17
-0.970901 -1.11948 -16.0966 59 102 99
-2.81094 4.45125 -9.42069 3 29 9
-0.689178 12.674 1.5298 18 28 12
1.74086 18.981 -16.4032 65 41 14
-0.126274 -13.1498 -27.0256 92 95 73
-1.40366 -5.91001 -19.0519 8 39 14
-1.31025 16.8772 24.0137 82 80 55
-4.14198 -6.89572 -12.5379 9 58 38
-0.827335 20.8877 -6.54645 17 33 16
-0.53096 22.7566 -7.49926 4 17 2
-5.72048 1.83628 -6.9632 17 34 7
-2.75312 -1.92994 -13.5888 5 62 37
-4.03141 7.283 5.7883 25 29 11
-7.04603 -19.8128 12.1011 57 56 43
-1.09466 15.6345 1.56376 2 25 7
0.774769 17.0578 -14.3229 73 56 12
-8.66691 -6.37035 19.1035 68 61 38
-9.07574 -9.76372 3.59221 150 179 154
-12.4431 -20.5712 8.20126 72 88 78
-3.8545 -3.37125 -13.2667 5 68 46
-1.2282 20.9074 -1.91996 23 36 23
-1.42775 20.3088 30.8921 64 77 66
-1.05148 9.67776 14.3752 12 14 4
-10.4735 -8.97898 4.92945 102 121 103
-0.361847 -1.8025 -18.5809 69 64 35
-10.5118 -13.0872 4.61249 109 135 116
-0.870701 -13.6116 -24.0264 70 78 66
-6.81208 -3.18802 18.4279 67 60 36
0.0856094 13.2349 -13.1085 28 24 7
-3.1424 16.9567 28.6174 63 71 58
-0.827133 23.5238 -4.11622 73 57 25
-7.39656 -0.624779 -6.62811 0 49 27
-1.07102 14.6183 -0.911595 6 28 12
-10.6466 -13.492 4.81506 96 118 101
-0.831745 14.1752 1.85454 0 30 11
0.215733 5.90727 -19.7608 1 4 2
-3.26727 -10.5935 -15.0812 75 88 76
-2.5243 18.7358 27.8595 79 84 62
-0.00286484 23.797 29.7113 58 66 56
-0.820114 22.5493 -4.26146 88 55 6
-0.809193 4.82014 -14.226 0 22 8
2.71554 -18.7753 -39.7315 88 90 71
-0.341812 4.65287 -15.9715 0 40 24
1.10941 -16.567 -31.8348 63 62 46
-12.0102 -18.8617 8.14114 70 80 72
-0.308041 14.6786 -9.59694 74 61 25
-3.60627 7.09983 7.92843 48 36 11
-0.656063 23.6123 28.3957 71 78 64
0.309246 -0.498978 28.2575 93 86 51
-1.70511 9.18849 17.8278 57 59 43
-0.748199 20.5254 -6.91432 3 28 8
-8.58562 -0.739769 -1.96111 45 48 30
0.846737 11.5723 -18.307 4 38 19
-1.53347 11.9535 19.7946 63 51 29
-1.38332 9.66592 20.6483 56 60 45
-8.88282 -19.4376 12.2624 52 64 56
-10.3499 -7.20433 5.53001 84 100 89
-9.81839 -20.9551 14.5333 60 73 65
-9.77637 -19.4907 11.3118 61 71 63
-0.839542 23.0922 -6.36093 1 9 3
0.279869 11.6782 -16.8829 9 32 16
0.635643 20.7463 -12.8179 63 34 5
0.507996 8.99854 -17.9699 1 2 0
-1.34024 13.1848 21.9265 53 65 55
-3.68726 7.69253 4.74238 38 30 12
-1.28308 19.0561 -1.23711 0 5 0
-2.2315 17.1613 33.5424 52 64 54
3.8316 -20.2008 -46.3158 73 63 33
-6.84237 0.278275 -6.62284 5 53 31
2.2579 2.41395 22.0296 61 67 56
-0.780472 3.29555 -13.4507 65 75 54
-7.71992 -2.43701 4.89566 66 45 0
-2.04758 -6.36755 -17.8685 51 88 74
1.86845 0.647125 26.5408 96 106 83
-4.95913 3.23081 -6.95297 12 53 13
-1.00512 7.24476 18.9608 55 64 54
-6.78382 1.57644 -2.64104 21 33 14
0.704468 20.0427 21.7258 114 86 5
-1.50404 -11.6906 -22.0175 70 82 65
0.629387 20.7485 -12.6583 68 41 11
-9.93804 -3.28331 3.6099 68 51 7
-0.304344 11.8998 -11.1301 69 64 25
-2.24821 -10.1538 -18.7832 80 96 73
-4.42436 -3.00557 -11.9894 0 48 23
-2.41972 18.5563 27.3037 85 87 66
0.491699 14.0815 9.96073 67 47 14
-3.25845 3.90609 -8.72033 57 79 57
-5.67325 -20.0228 11.5288 56 52 35
-6.09455 -0.828934 -8.7667 15 66 45
-1.01785 20.6308 -3.51484 60 52 19
-1.20665 19.128 -2.8735 4 25 7
-0.650246 18.0155 5.90548 0 11 0
-4.50812 5.85883 7.58997 0 16 0
-1.48677 20.4408 29.7924 62 76 62
-0.256638 14.7526 -10.4955 0 13 1
-7.76322 0.371941 -2.13028 55 33 1
-6.22381 2.27188 4.01879 8 54 43
-1.12894 15.2347 -1.47727 1 15 3
-0.70871 10.5475 -7.58608 34 41 21
-0.542912 23.0305 -7.54663 17 35 17
-0.749393 21.5618 25.1307 113 110 76
0.892853 16.3775 -15.7796 46 44 14
-1.16544 25.7956 -3.47434 13 26 23
-5.50977 3.03697 10.0522 5 38 26
-1.26581 -9.17838 -22.1524 100 90 61
-5.90847 4.29015 4.55516 0 32 19
-0.162254 19.7366 -8.0494 74 50 4
-0.976978 15.0405 1.94036 2 26 12
-5.49441 4.68778 5.52574 2 38 28
-0.126678 11.8447 -13.6237 10 42 26
-13.2007 -21.0077 11.6596 64 79 70
-1.3655 11.054 22.2288 56 54 35
-0.560097 11.3766 14.5513 4 21 13
-1.46557 13.9172 24.5976 62 71 58
-5.8682 0.940971 -7.77579 3 45 22
0.0501328 7.62774 -18.5796 10 39 33
-2.37784 6.29007 -8.1588 1 22 0
-3.43291 1.61523 13.6482 67 73 57
-1.81991 21.262 32.4997 66 80 69
-4.37449 -6.15508 -12.2824 33 89 68
-10.3774 -4.42493 3.94911 70 79 67
-1.64423 9.65632 17.0405 82 64 22
-3.47909 15.1462 33.5119 67 82 68
-11.3942 -17.2394 7.68395 71 87 76
2.22 2.20955 22.0607 60 67 55
-1.53445 23.1719 1.80463 25 14 0
-0.367882 21.5296 -7.84169 86 55 4
0.265476 -1.41104 28.34 110 112 77
-1.43163 -9.94945 -22.1413 98 99 76
-6.21471 2.19468 3.92875 3 50 39
-0.126282 15.7074 19.7338 97 65 7
-0.606316 0.527126 -15.3658 72 81 55
-1.77424 20.0304 29.3711 88 100 87
-0.469643 12.3891 -10.5905 3 35 15
-10.397 -5.17893 5.87713 71 75 64
-1.27527 8.92038 20.0526 58 65 52
-0.836395 18.6657 -3.91327 57 42 0
-0.605652 -0.308128 -17.3668 77 77 57
-2.96076 2.8277 13.6739 67 75 63
-1.41807 -9.57564 -21.9801 89 93 70
-1.26273 11.577 24.1706 58 58 44
-1.17475 24.3148 -2.42918 3 8 7
-5.96186 2.6544 4.43838 9 44 27
0.128494 25.049 -8.68291 90 82 40
-7.04245 -0.471409 -6.97932 10 73 59
0.698895 16.9082 -14.1727 55 48 14
-1.03482 -5.76908 -19.5653 58 42 0
-9.78595 -20.2409 13.3043 58 71 63
-1.61813 14.4679 26.6528 57 68 58
-1.1372 22.6994 26.5402 124 127 96
-5.05918 0.0664711 8.64437 85 95 76
-0.000404358 -1.57931 28.6779 93 98 68
-9.30551 -4.85545 -2.41433 1 55 42
-0.972836 15.0407 1.45424 1 22 7
-10.2334 -4.28541 2.65427 79 94 82
-0.360222 13.673 -9.70311 3 10 0
-0.844063 18.9927 5.46979 49 43 15
-1.24987 16.9445 0.821996 3 22 1
-5.96948 -0.343102 13.5105 62 41 1
-6.43693 2.62418 -1.10584 32 67 60
-0.362099 4.66649 -15.7889 0 38 23
-5.59412 3.46 5.44798 46 65 55
-1.06068 12.0617 18.0924 98 64 10
-6.51927 2.15828 -2.22363 22 57 46
-12.2852 -19.943 10.0384 66 79 71
-2.28758 4.50408 -10.3206 1 37 6
-1.18368 16.5237 -1.30825 2 24 1
-5.76885 2.91174 11.1736 0 28 13
-0.393478 14.0264 18.0591 96 61 6
-8.33022 -9.31279 18.0667 148 131 79
-8.98975 -1.5529 0.984453 66 60 30
