ply
format ascii 1.0
comment Created by Open3D
element vertex 1401
property double x
property double y
property double z
property uchar red
property uchar green
property uchar blue
end_header
-7.77209 0.390022 -4.19977 1 41 27
0.887108 20.0351 -2.34455 73 55 28
2.89106 -21.6883 -45.8213 59 70 59
0.317703 21.0802 0.634872 80 50 13
-7.18456 -3.14905 17.8241 63 50 19
-11.4972 -17.7035 7.1414 89 111 96
-4.23611 -3.9066 -12.97 1 72 51
3.11736 19.9064 24.0374 68 78 67
6.55598 3.28098 2.29168 63 71 54
3.91713 7.07803 -1.73785 11 29 4
-8.19323 -0.444672 -3.8597 1 32 25
1.52914 8.64435 -20.0803 98 96 46
-0.673676 16.1193 -6.29313 78 67 24
-6.33908 -5.33249 7.81509 75 78 63
3.41197 17.9512 27.013 91 108 97
2.95753 4.33309 20.8909 75 87 73
2.09451 12.668 13.3298 117 78 27
8.34283 -1.74044 -5.01643 21 50 40
-8.00897 -16.1875 6.70982 65 81 71
-8.04075 -15.6012 7.28038 69 83 72
-5.44396 4.19703 10.6079 2 43 30
0.561184 16.1477 -14.7266 53 29 1
0.872055 0.242027 16.7235 68 84 74
-0.70002 5.8209 -12.8892 53 61 42
-0.740692 23.4899 -5.66869 54 28 1
-2.1727 14.9622 29.2568 54 64 53
-1.51876 11.3532 20.4284 54 59 39
5.38546 2.30481 9.48222 67 78 68
0.414223 16.2469 34.8223 61 74 66
2.24952 21.8009 -14.6491 111 100 63
-0.758141 13.1632 36.5899 66 76 68
2.90522 16.7427 26.6307 104 126 111
7.94337 -11.1757 -4.61912 76 85 68
-4.37963 -0.535744 14.5669 78 85 73
-0.819191 14.6777 -5.52156 67 70 30
-3.64223 -5.76833 -14.3476 0 71 51
-1.75658 1.05902 15.765 67 72 58
5.90356 -21.754 -8.63062 168 204 178
3.03491 23.1347 29.04 65 77 67
1.01282 -2.45344 -18.8819 78 81 62
-1.9407 22.6074 31.3619 60 74 62
-0.884624 11.965 -6.92567 2 20 4
-0.930649 2.60694 -15.3428 4 14 4
6.3899 0.133191 0.999878 82 105 85
-1.06271 22.1453 3.91716 10 36 29
1.52312 14.3034 -9.09271 10 22 3
2.44146 21.4587 31.7678 61 76 68
-3.1722 5.36159 -7.46644 5 24 7
-1.53587 7.63796 -7.81928 91 45 0
4.48516 -20.2992 -45.9183 82 65 10
-2.8177 16.589 32.3608 59 67 54
-9.13213 -17.5803 5.58823 141 171 151
4.77657 7.88465 13.3043 33 62 53
-0.751221 2.96963 -14.5825 17 33 14
3.36977 10.7573 11.2669 4 19 5
3.73223 10.6176 17.4532 12 52 39
-0.349655 11.6991 14.482 12 15 13
3.33323 9.46663 0.699699 17 38 29
-6.18512 -4.95734 19.7617 64 69 59
2.84107 -3.59638 -15.6934 1 43 6
5.99987 2.36802 -2.88121 27 50 35
-10.7988 -20.9378 13.9008 64 76 67
1.53499 22.6287 -9.90377 31 43 36
5.03507 3.9294 11.928 0 39 25
1.92309 19.0689 33.5906 66 80 70
-6.14961 -5.33951 7.79168 73 79 71
-5.41023 5.0499 6.18568 14 41 31
4.52763 -4.75365 0.984627 58 74 66
5.29261 6.50208 4.16713 5 26 12
7.176 -19.0068 -9.12716 170 189 164
-0.46594 14.4334 5.06935 37 53 40
-7.16008 -1.64746 14.3535 62 56 28
2.8602 -11.875 -26.5922 107 49 13
1.01147 -18.0078 -26.3151 60 69 61
2.06311 15.4361 -11.0189 3 17 10
1.22106 20.5728 35.0972 67 83 74
-5.63728 4.18162 -3.31835 32 67 54
3.48577 -8.10293 -15.9651 2 37 19
1.37787 19.9935 34.5289 66 78 70
-5.0358 4.66925 7.61576 8 45 37
5.97641 1.3473 7.41872 0 49 36
-9.50683 -6.42444 0.651601 41 62 53
1.58153 14.8882 -9.37662 15 23 13
-1.08097 4.2865 -11.9951 65 46 6
1.93999 18.3059 33.6134 65 74 66
-0.337345 13.8122 36.5578 73 84 76
-2.49445 6.28854 13.2156 9 42 26
0.164597 16.2029 35.8936 57 69 63
-2.75817 0.81826 -12.0739 14 72 55
3.40839 -22.7352 -49.6058 145 171 158
-0.977711 23.7658 -2.98887 16 24 2
-0.952835 1.92594 -14.8927 20 34 14
1.52946 12.7134 2.01105 70 51 15
-5.24381 -20.6616 10.4881 104 121 110
-0.450546 13.2557 17.1305 47 36 14
0.322998 18.0744 38.0264 67 81 72
1.91379 18.4846 33.796 67 79 70
-1.44985 4.77165 -11.2363 97 57 4
-0.114758 7.39725 -17.2117 3 28 16
-4.98218 -0.534798 -10.3456 13 38 12
1.20797 19.9502 35.2387 66 80 73
0.343864 -12.2429 -27.4614 116 114 83
-0.0761719 -2.17647 -20.7316 136 141 101
-2.18988 7.09205 13.2487 1 20 1
-11.515 -20.5218 12.8649 65 73 64
-9.29845 -1.87821 1.0779 61 48 10
-2.07914 14.0412 31.2509 68 81 69
-7.66752 -3.4745 -6.65902 4 52 30
4.37486 8.97391 12.4989 23 60 47
1.95377 9.54756 -18.6996 2 1 0
2.02805 -9.86591 -24.6693 136 64 2
1.61555 12.7586 8.02797 59 41 7
2.38002 10.3694 -1.91663 24 18 0
1.57444 11.798 -19.1556 111 131 98
-2.97739 17.2255 27.5363 78 93 78
1.64314 14.8634 -17.8543 60 37 8
3.37042 21.7875 27.2067 86 101 89
1.89738 10.1463 -18.43 34 22 7
-12.9617 -20.6895 9.34885 79 95 83
-1.40666 10.1101 22.2756 59 56 33
-1.31598 8.19056 -7.63247 88 49 4
1.97724 13.4962 -14.7063 6 35 13
-8.43735 -1.52318 2.73232 63 37 0
-2.33916 18.5291 30.8024 62 73 62
-0.0798798 16.5112 -11.735 0 17 4
5.58672 -21.0019 -43.0756 70 50 1
-1.35645 22.2211 26.3629 142 145 108
-1.12411 4.32195 16.0091 61 73 61
0.244305 17.6427 38.497 70 83 72
1.04254 12.0061 13.066 125 90 48
0.209381 14.316 35.3715 63 76 68
2.52473 -15.0856 -32.985 111 82 38
0.656555 12.5215 -17.8189 8 25 17
1.73079 -9.60677 -24.6489 133 64 6
-0.821217 7.35498 -11.1791 56 53 28
0.155058 18.7013 -11.2751 67 55 14
-1.76087 3.6329 15.157 67 76 64
1.00011 15.2035 -2.08361 71 49 13
-1.52308 14.8879 37.5496 73 86 77
3.69267 4.36461 -7.55851 22 24 4
1.48143 20.1857 34.3708 66 79 71
-6.35154 -5.8392 -7.13912 1 66 44
-2.20531 -8.58781 -18.8025 76 88 61
-0.207455 9.35706 -13.5003 43 47 28
-5.55253 5.73293 1.71185 2 24 6
1.50336 13.6141 -12.1937 24 25 2
-0.477951 5.49305 18.9318 52 61 50
-10.7949 -10.5639 5.49496 66 79 68
-1.11779 20.2186 5.34567 52 40 7
7.86845 -11.8815 -5.72121 96 93 66
-1.37369 10.0117 21.6192 55 63 52
-0.137115 -15.9382 -22.2949 57 68 62
-5.24905 4.02431 11.6855 24 61 45
-1.03027 23.121 -1.20935 57 29 0
6.36283 4.83438 2.88993 0 51 41
-9.40723 -3.07832 3.9951 67 42 0
-5.86952 -1.09459 5.26981 59 70 57
-6.15756 -3.26627 -9.22042 8 84 58
-5.84123 3.68195 -3.68211 2 22 9
-0.285881 12.4752 15.4509 9 12 10
-8.32236 -0.968643 -4.36023 1 45 30
1.98749 9.78111 -4.80171 133 96 52
5.94866 4.24158 6.25183 15 58 47
-0.255795 9.15367 -14.0355 1 9 1
4.38171 9.19377 12.2378 22 61 58
1.58603 -16.0555 -32.8593 107 114 98
-2.74462 -5.16817 6.7047 47 61 54
3.40187 -5.2412 -15.1151 14 66 46
-6.19058 -2.0023 5.81468 70 65 40
-3.09053 16.1169 29.532 74 86 72
2.91135 13.3803 22.5844 62 74 65
3.25655 -17.7975 -38.801 115 94 49
1.75402 12.9401 6.21656 72 42 0
-6.1354 2.26827 4.33668 10 49 36
1.94469 19.2722 33.3984 65 79 69
3.33098 6.85432 -5.17422 3 20 3
-1.25315 18.8721 39.0574 70 83 76
-1.20993 18.4663 -0.834599 17 14 0
2.96545 2.71447 27.3269 59 65 55
7.04802 -3.13038 -9.91143 33 92 69
1.94903 3.23578 20.9742 66 79 68
0.875511 12.1026 13.5354 88 64 22
-0.782776 4.99237 17.2696 54 65 54
0.891457 17.4521 -5.36575 55 39 0
-0.509373 3.89417 -17.9784 1 31 17
6.02866 3.2957 -2.10856 2 51 33
2.86421 -22.0612 -43.5992 50 64 56
-4.30403 7.20769 2.03459 2 0 0
-10.2744 -10.8712 4.47849 121 144 124
5.79959 2.00003 -7.8438 2 19 2
1.43483 -2.82279 -17.8292 138 120 81
-4.41273 6.58773 10.6758 2 33 20
-1.08623 16.3003 -5.02941 4 14 0
6.1352 -1.33253 1.22644 63 74 62
3.56097 -20.3386 -46.4546 89 90 62
-0.753899 10.3893 -9.62412 22 32 14
-7.6504 0.656265 -3.82604 12 45 27
-1.74611 3.33091 15.2277 68 75 64
3.08781 -4.36304 3.58895 56 70 62
-1.59592 7.98026 -7.28741 88 48 0
5.79563 5.86482 4.02307 3 38 28
0.144508 25.1808 -2.00565 17 16 6
1.32809 9.23991 -13.7174 0 5 1
-4.72825 2.46871 -8.10672 5 24 4
-11.6043 -20.2373 12.1188 60 70 62
4.35941 -16.8767 -24.5789 61 69 54
-0.920898 15.2772 -0.270933 29 27 2
-2.19408 22.8625 28.8083 62 76 64
2.39066 -8.51631 -22.1641 107 48 8
-5.71672 3.81689 -3.47995 15 30 19
2.99261 22.7244 27.426 55 67 57
-1.05932 14.6217 -4.20487 0 13 3
-9.39874 -2.38118 -1.44882 9 55 36
-1.03601 19.102 5.1746 44 43 17
-6.73794 -6.03502 7.98534 68 78 65
-2.41819 16.5122 37.9999 53 65 56
3.55937 22.5081 30.5112 56 69 62
1.93531 11.8054 -19.0966 109 112 69
6.16174 1.45695 -8.2295 15 40 9
-1.93602 -11.5192 -19.9159 85 94 76
5.6288 -19.5999 -34.1941 75 50 2
3.91921 -5.48659 -13.6556 17 53 39
-0.0521679 18.8241 7.11821 7 13 10
2.82719 -19.8555 -42.1916 67 76 56
3.38655 22.6902 30.5725 61 73 67
0.714424 0.0240784 27.7585 104 92 57
-1.43244 10.1541 7.5751 9 4 0
6.60212 2.36613 0.74699 85 90 69
0.677597 -17.4849 -30.2719 71 81 69
-1.4745 -4.13266 -16.8272 0 47 21
1.3676 14.2548 -17.419 60 36 6
0.310448 12.638 26.7513 55 71 62
-1.84746 19.3964 35.8218 60 72 62
2.08028 7.58882 20.7797 70 82 71
0.796318 15.9229 7.78943 16 32 18
-2.7882 -5.93466 -15.5253 47 79 52
-3.07872 17.5135 29.173 69 80 66
-9.2354 -19.6817 12.685 60 70 63
0.600969 3.68508 -20.1527 133 129 82
2.38717 -21.0057 -37.3475 52 64 56
-10.7884 -14.0947 7.29043 73 86 77
-10.6226 -11.2721 6.65275 71 84 74
1.69513 22.031 -9.99615 4 9 3
0.499153 0.0129046 16.3797 70 87 76
-6.54504 -0.671879 -7.86854 19 69 48
-0.47094 -15.4762 -22.6401 56 66 58
-0.485468 9.65763 24.1159 65 75 65
0.417387 6.33612 21.6868 58 71 60
0.567516 4.01631 19.5924 51 61 52
1.03012 7.21224 -13.4771 71 69 48
4.44607 3.07372 20.3585 65 75 62
1.67405 13.0488 10.6336 61 67 49
-5.44523 -2.63672 17.2131 67 69 55
-3.96951 6.46315 -3.24721 0 4 0
2.68077 5.21558 -9.605 29 53 31
2.48757 12.6734 22.8985 64 76 67
0.862423 14.9477 9.38451 120 68 29
4.90602 1.87765 10.5062 58 72 62
-9.96236 -9.15029 7.33592 73 88 77
5.98282 -19.7433 -1.04954 62 62 42
-4.04587 -5.9303 -13.2588 2 58 40
-6.0975 4.33535 1.43584 6 41 30
1.17972 13.8989 -16.8458 67 47 7
-8.03947 -2.40431 -5.94001 3 74 56
-1.6431 17.6406 39.3672 68 83 74
3.49474 10.6162 11.9756 1 26 12
-5.66704 1.26235 9.655 72 83 65
-0.915792 -10.4835 -23.8378 94 105 79
-1.46479 21.6306 0.667221 0 13 0
1.78563 10.784 -4.27623 60 36 1
-0.607555 25.3053 -1.29174 65 35 2
8.11898 -12.1027 -4.46045 69 67 49
-0.623055 14.1939 -6.85086 0 12 0
-8.85986 -9.3345 19.0346 55 67 57
-5.14925 -4.48467 7.8059 60 69 62
8.01419 -4.5754 -1.00558 2 38 29
-7.63879 -20.3732 7.01511 134 166 147
-4.5639 5.71375 7.67355 0 16 3
-1.98399 -6.02667 -17.3841 2 45 23
2.26111 3.86256 21.014 73 84 73
-9.42568 -19.7648 12.7119 61 71 64
-0.340683 15.0778 36.1194 64 78 68
3.20058 14.4122 19.7505 79 91 80
-0.733881 23.1624 31.5308 61 73 65
-1.13052 17.9264 -0.637234 33 26 1
-9.77978 -14.5768 3.89642 148 171 149
-1.26252 25.6154 -2.74479 27 22 8
-2.90418 -3.61243 9.22831 73 88 79
0.24567 20.2588 0.444572 70 34 1
1.67591 16.2082 17.2513 136 92 24
1.52905 12.0947 -5.68116 14 37 21
-1.82539 -12.2351 -19.6612 70 84 72
-5.52011 3.45548 9.46564 1 34 21
6.2849 -6.00696 -0.252747 53 80 70
-1.0524 14.8752 37.2106 74 87 79
-2.2652 -9.28045 -18.6374 76 83 64
0.474014 -15.1276 -29.4498 84 84 62
1.93257 8.83424 -7.25255 110 81 50
-0.16766 19.881 -10.2665 17 17 0
0.642113 9.73693 -17.9116 69 54 21
-3.9803 -1.16502 -11.8211 0 60 28
3.71237 22.3153 30.4291 57 71 63
3.47089 -4.1077 -14.1765 3 30 15
2.39518 11.8698 9.84953 55 45 20
2.49515 2.92227 25.3694 74 77 64
-8.11526 -12.3571 7.26805 73 81 72
-4.13713 6.82319 8.42467 2 3 2
10.1035 -21.9929 -1.4365 72 80 70
-1.02042 4.41787 -12.7944 12 30 17
-9.65165 -4.91328 0.688308 64 78 70
-0.610867 12.2046 3.86656 59 48 12
-1.27506 20.6194 5.18286 38 30 2
-1.07156 15.4641 1.0784 1 22 5
4.80463 3.16325 -7.65612 11 30 5
-0.716948 9.53371 23.8483 60 69 58
7.69847 -19.0576 -3.51612 55 39 1
0.72621 -11.034 -26.6774 124 83 20
-0.799789 2.44381 -16.1068 42 77 62
0.145817 11.5753 8.06905 70 45 2
0.297812 -9.68847 -24.9329 129 80 7
-0.65406 8.27589 -13.5703 5 19 7
6.72169 1.02824 2.7063 64 72 63
-2.47415 2.47996 -11.6048 9 50 24
1.75281 2.52449 27.6703 64 61 45
-6.35402 3.21317 0.247493 0 39 20
3.13789 14.9095 22.7578 63 77 68
-0.33379 24.827 -0.911903 32 21 8
-7.55583 -3.96 16.8997 68 76 61
-7.02188 -19.2469 9.63963 54 56 42
-2.99883 16.4023 32.4821 58 66 53
5.81976 -3.04854 -0.100075 37 61 52
1.24212 -12.6326 -28.9115 116 74 10
2.94184 14.0944 22.8924 65 77 68
1.8296 -16.4431 -34.1529 84 88 63
-10.1338 -3.34592 2.40533 64 70 59
2.41957 15.9585 25.5726 59 71 61
-0.879166 1.89392 -14.5061 40 36 5
-0.156418 19.426 4.49067 40 47 22
-5.35801 5.94109 1.84374 0 11 0
0.187294 18.4868 -11.4638 73 53 14
-9.25277 -9.87646 7.51818 80 96 87
4.52238 1.53744 23.6655 66 78 67
-6.25555 4.00249 1.37909 19 55 36
-0.48563 6.14551 -14.8378 0 14 2
-0.713673 10.2191 10.0475 34 18 1
2.30433 9.8397 -4.17341 68 37 1
-0.0432281 5.11629 -19.9086 8 30 13
3.87785 -1.0894 -12.823 6 44 0
2.31356 2.59511 24.4499 68 74 60
7.72945 -11.2562 -5.60462 96 92 59
0.493835 13.1201 9.40107 65 51 19
-0.748699 3.28455 -16.0198 0 8 0
0.25132 15.8773 34.7679 56 70 61
-0.566564 2.91239 -17.6332 22 45 24
1.28736 14.3082 0.349075 37 44 30
-9.63834 -2.36068 0.543235 77 73 52
4.83894 -16.6097 -30.7017 66 37 2
4.14145 -19.7965 -44.8899 115 80 31
-8.63747 -20.1618 13.656 64 77 72
4.086 -21.5405 -7.439 113 138 116
0.638943 12.5322 -16.9741 39 43 33
3.80824 9.27274 4.82665 8 43 24
0.339336 21.2612 23.316 116 102 54
-0.539875 5.18844 -15.519 3 49 37
3.02423 19.649 22.6976 103 117 101
-3.45492 3.1396 13.1913 65 72 58
0.997856 10.3173 -10.0315 51 42 9
1.11103 15.8637 -16.6255 1 28 6
0.15947 16.0343 35.5087 56 70 62
2.03217 -19.6666 -30.8426 51 57 50
2.24162 16.8719 -14.787 4 10 1
4.25896 7.28312 -0.27425 3 18 1
0.341272 7.53128 22.4438 68 81 70
5.50691 -19.6642 -37.8128 76 47 2
3.18846 3.40492 21.9139 68 75 62
-1.92487 -12.8916 -17.4926 50 61 52
-0.602379 13.5235 -6.01335 53 48 25
0.818495 18.9799 -1.20352 6 12 4
-8.36676 -16.5767 7.97194 74 86 76
-5.36407 3.01616 8.73717 68 83 61
2.15147 1.49277 20.9592 55 66 57
-3.16716 7.93642 -1.4318 0 16 6
-7.12502 -1.77831 13.5521 63 67 53
-0.964302 15.924 -0.39423 30 29 6
-0.504902 -0.115303 -18.111 77 70 40
-1.29202 8.93827 20.2177 53 61 48
-1.65498 21.5367 32.8213 64 80 70
7.43564 -22.0239 0.398598 56 60 46
1.0596 16.6592 -16.2689 47 40 9
-2.18808 19.0452 32.4409 59 68 57
-5.40483 0.441246 -9.10487 3 56 40
1.10748 17.5248 -16.4 28 41 39
2.37015 2.78195 25.1764 73 72 60
-9.936 -4.99387 2.6729 75 94 83
2.33961 -1.85052 -15.851 10 50 36
2.82359 17.1291 20.354 114 122 94
-10.4605 -15.8636 8.33154 80 93 82
5.87754 5.1088 0.0144424 13 33 16
-8.14156 -18.3109 8.59899 67 72 60
0.752686 17.06 36.6628 64 76 69
-0.936234 15.2783 2.18913 4 30 14
-1.20584 24.3074 1.45945 48 36 21
-2.85899 0.201729 -12.1004 2 64 52
-7.61331 -5.10851 -5.98001 0 56 33
0.478371 16.5779 35.6157 56 70 62
-2.71854 17.0339 36.5084 55 66 57
-0.145086 11.7704 26.402 59 73 65
-1.00091 2.21248 -13.7461 95 79 44
1.46767 12.0295 -0.815247 77 55 1
-1.32058 20.8681 29.7275 94 108 92
1.65914 11.7221 -0.552082 79 43 0
7.65082 -3.41459 -8.8581 101 110 93
0.488087 1.56219 -21.0394 113 115 80
-8.08272 -6.20198 20.0899 69 78 71
-0.858032 20.4934 25.1471 96 100 71
1.66154 16.6883 -13.3902 66 47 6
8.34909 -2.37743 -6.3577 4 57 31
-10.2449 -9.31205 6.90681 69 81 70
0.430916 19.9849 -13.1719 7 10 0
3.71659 -15.8446 -33.0442 65 31 0
5.18284 6.87727 2.81637 14 47 32
1.12364 8.66207 -13.0645 0 1 1
2.71217 -10.9334 -25.1819 127 70 10
-6.69299 -6.77961 -5.07373 0 89 68
-2.48776 16.3255 36.9211 51 63 54
-10.2908 -13.9084 4.31833 125 153 132
-4.14851 6.4031 -2.97003 4 0 0
-2.20558 19.7033 29.2891 75 85 67
-0.0499763 19.0189 2.62247 24 27 11
-0.60564 16.8204 -8.36805 0 2 0
0.86063 0.726927 29.2328 58 63 51
3.33048 11.2347 7.32405 1 14 5
9.0425 -5.13314 -3.24826 59 75 65
5.49483 5.23014 -1.26066 14 25 10
2.2746 18.3164 20.2969 137 126 90
-7.88711 -19.5461 11.7493 49 54 43
-1.35249 9.84131 22.6753 52 55 43
6.64237 -18.1011 -9.44117 178 203 173
1.10637 1.43865 18.9319 57 71 60
-1.52714 9.57084 16.5184 88 62 10
-0.0780411 15.6508 35.8166 61 75 66
-3.09765 -0.30608 -12.1123 82 89 64
-0.927292 20.7576 -5.27703 1 8 0
-0.653488 14.6866 20.195 92 62 5
2.60008 -6.66735 -18.8699 7 34 17
-8.58504 -8.35307 8.02345 82 98 90
-0.554813 16.5844 -6.66607 86 64 20
3.89905 9.04137 15.6337 4 61 44
-8.32804 -22.0174 15.5889 56 65 57
-1.26729 22.4018 2.53882 66 42 6
0.511242 -12.4705 -27.9073 96 77 37
-1.14439 16.6223 0.672783 7 23 4
-5.73176 -2.89721 17.8171 65 66 50
-0.694525 9.79541 -7.30257 47 46 25
-3.38724 7.56406 9.61548 6 20 4
7.50132 -18.4312 -5.92359 65 46 10
1.38685 20.7502 34.5162 72 86 77
2.15858 12.8368 13.621 110 75 22
7.342 -0.945751 -2.54343 11 31 14
-1.45749 22.3062 32.4818 65 83 72
4.8214 -23.0481 -47.3171 70 78 62
-0.744392 9.91975 -7.76441 1 23 8
-0.931816 15.8471 -3.72267 6 12 0
-6.12186 0.0562363 12.8123 66 47 6
-1.97199 15.0826 37.3374 62 75 65
2.54546 -10.9039 -25.3297 114 60 1
0.545811 3.37422 19.1131 58 67 59
-5.62774 -1.06479 15.307 64 44 3
-6.79935 -9.84748 18.1334 151 141 76
-6.25984 -2.44727 11.4305 77 90 67
-7.10743 -19.6804 11.6407 54 54 43
1.57492 15.5318 16.4148 138 82 12
0.522125 0.175697 28.0966 100 85 42
-4.8951 5.95382 10.5469 0 20 8
-3.24299 4.67948 13.1307 66 74 60
-3.1359 -7.86362 -15.6877 0 63 42
-9.98339 -3.74427 4.48932 63 42 5
0.89122 7.75739 -11.2199 73 66 43
1.19762 -0.97773 30.1918 73 85 75
-2.79129 13.7667 33.8459 66 80 70
3.56876 -7.64139 0.412231 73 87 77
1.29826 -10.1997 -25.7658 128 61 8
1.39877 22.8994 24.4191 106 103 74
6.84183 -10.9852 -6.70658 154 144 100
1.14432 20.907 34.9744 68 82 73
3.07978 -4.32025 -15.3511 3 31 16
-7.10332 1.1109 -2.74768 34 28 0
-6.90376 -2.9368 14.0104 77 89 71
-0.767631 21.1283 4.91964 27 33 9
5.6821 -3.24416 -11.4191 0 102 64
-6.58735 -4.15746 -8.90751 98 120 101
-0.0884476 19.2199 3.95195 38 32 14
-7.46699 0.714073 -4.7194 2 37 22
1.60371 12.6961 -2.70493 7 20 2
-9.84475 -12.3618 7.81512 82 96 84
3.65903 22.6694 30.3312 56 69 62
-4.45308 6.49751 -1.87488 0 0 0
-6.67412 -0.617004 3.32998 67 61 38
9.70694 -21.7918 -0.795471 61 74 64
5.78178 4.25622 6.97776 11 41 34
0.984711 14.2888 8.21375 66 57 37
-4.40077 -0.101753 14.3102 76 65 37
5.17164 -4.63788 -11.4635 1 97 72
3.01396 -8.5588 0.0677185 74 89 81
-6.76343 -22.3278 14.0481 60 77 67
-1.8559 10.2481 -0.628151 66 43 9
-0.996841 -3.65205 -17.2011 79 88 38
-0.366539 17.5517 -7.45264 75 51 10
1.65393 11.7464 0.071537 60 37 1
-9.55414 -4.12564 -0.507856 2 54 39
-7.50247 -6.54101 8.16142 74 86 77
4.87112 -17.4536 -34.3476 68 30 0
1.28009 11.7983 12.6183 98 58 22
-2.84792 5.53084 -7.96826 3 32 5
1.17716 7.01624 -10.7685 82 69 24
-1.7711 10.7536 1.71829 58 25 0
-2.55117 -5.68481 -15.6759 11 69 41
0.702461 12.6966 -15.6131 56 47 19
-3.98979 6.75383 -1.93596 3 7 2
-0.847527 14.4821 2.08037 8 30 13
-7.49207 -21.5697 14.6148 54 65 58
-0.137169 5.17043 -16.8448 0 36 22
1.09374 10.1184 -20.3185 19 25 6
4.86608 -14.2747 -4.78085 64 74 64
2.01141 14.9176 -10.7194 1 12 0
3.84412 0.197693 -11.95 0 34 2
-1.21256 18.0664 39.5354 75 90 81
4.33638 3.1374 -8.47298 8 32 13
-2.44913 18.5255 27.3197 83 84 64
5.35946 -21.1431 -37.5677 56 62 59
0.66761 15.7556 -15.1466 10 28 2
1.44521 13.3725 11.1812 57 50 41
3.32943 11.6337 20.2152 63 76 67
2.94644 -20.9525 -44.8258 55 61 47
0.882477 19.4859 -4.02103 7 13 6
3.56283 -17.4124 -37.8255 98 62 9
-0.0733681 13.1034 -11.6929 42 47 20
0.859688 23.2955 31.6417 61 73 64
8.23805 -3.27697 -1.85683 5 42 32
-0.529404 13.3853 -8.87066 79 67 25
-0.349537 17.5495 -7.67276 64 40 1
-1.0937 11.1598 0.0564528 68 28 0
-0.386818 10.4865 9.74534 55 29 0
0.504076 17.9588 7.28696 4 30 24
-2.29872 -9.63032 -18.563 82 88 74
-5.29288 4.94118 10.6496 4 40 27
-1.1211 0.230291 16.1442 70 81 72
-0.713558 10.6624 -7.57376 40 45 25
-0.850716 5.00885 -14.1088 0 23 9
5.13778 -14.3904 -4.58475 72 83 73
-8.74153 -1.41096 1.62405 64 38 1
0.168334 -8.6568 -23.7094 136 81 14
2.49981 0.510328 -14.0369 21 53 34
5.89867 -7.59021 -0.334686 72 88 78
-6.91113 -2.10249 12.6965 70 89 72
-5.99806 4.24936 -1.98904 27 84 68
5.51593 -2.34017 -11.6565 23 88 66
0.884048 15.7105 7.28669 2 30 21
-10.535 -18.0324 8.83202 78 94 86
-8.98101 -2.48845 -3.1512 4 62 33
4.89199 -3.0273 -12.0943 0 99 77
1.61775 3.40972 20.5423 67 79 69
2.72639 8.74938 19.7863 67 81 71
-0.807632 6.78983 19.9939 54 62 51
0.171429 17.689 38.6601 68 83 73
-5.93972 -20.6658 12.5946 63 72 63
4.43606 6.62891 17.415 65 78 67
2.08633 2.81109 26.5117 78 80 62
7.98387 -19.5227 -8.54434 156 153 123
0.883739 -9.34959 -24.677 153 81 18
0.07267 18.2395 4.37028 24 32 16
-1.06482 17.2786 0.179459 59 47 11
-2.87502 3.84061 -9.79139 20 37 9
4.75187 -0.330101 -11.5654 27 56 32
-5.98364 -8.28537 4.3852 49 53 45
4.14723 2.73628 23.3294 79 79 60
-0.492317 13.4435 -9.98407 0 12 3
-0.499451 -0.715462 -18.0483 84 71 38
-0.237778 15.9142 -9.95003 57 45 20
-4.7103 6.2014 10.3808 6 41 29
-1.43429 3.82999 -12.1025 78 62 8
3.6075 22.8581 29.92 53 65 58
3.46797 11.2749 19.2237 62 76 65
-2.38244 9.18659 -2.82527 2 18 9
2.94917 -21.4845 -48.1253 56 68 60
-1.06348 24.2587 -3.06751 6 17 6
0.794544 15.8745 0.873787 106 80 35
-6.20088 0.178505 12.5971 67 48 9
-8.57647 -6.59612 19.764 59 69 53
-0.501919 19.6187 38.4005 69 85 74
2.24797 -4.14171 -17.6603 71 92 87
3.23257 -11.9875 -16.4333 68 68 53
1.86456 10.1274 -18.217 38 26 5
4.86576 -16.4299 -28.1917 66 44 13
-5.24609 6.01256 0.870734 0 14 0
-0.200007 -8.2608 -23.02 136 102 20
-0.190336 5.59724 19.9164 50 58 49
-4.40524 6.17184 -3.31837 0 6 0
-2.07193 18.6928 37.6854 56 67 57
-6.62031 -20.9014 13.1065 63 72 62
-2.42233 9.00207 8.31178 1 7 2
-0.183563 19.7678 -8.88781 30 19 0
-7.74944 -1.29219 2.98049 67 43 0
-0.219933 14.1116 6.83162 52 47 25
4.14498 -22.1894 -7.2431 127 159 135
-8.07756 -1.00459 -5.44519 5 67 54
-7.3105 -0.986069 2.95901 63 54 7
0.608795 -4.41406 6.9211 64 78 69
-10.4205 -7.29046 6.16355 60 75 65
-1.02173 -7.8254 -21.6582 113 91 40
0.102654 5.66838 -19.6877 2 2 0
-7.98912 -21.2603 14.9707 51 63 52
0.885361 17.1203 35.5644 60 72 65
-6.01685 -6.28865 20.1225 60 71 67
1.60324 19.0029 34.346 64 76 68
-2.031 22.0221 31.5364 76 93 81
2.97401 -6.57442 1.26302 66 82 73
-1.07921 14.4383 -1.89526 6 34 6
-6.86387 -2.65031 17.4244 64 49 20
0.412697 8.85107 -17.4478 18 30 5
-1.37245 13.426 24.1336 63 73 61
7.14517 -22.0909 0.705124 64 62 49
8.90931 -4.78722 -4.66681 26 60 51
-5.35989 -1.09569 7.01354 69 76 65
-1.78902 19.7541 34.3685 67 80 69
-7.06198 -1.73906 14.9183 61 46 11
0.43416 2.07034 18.3652 59 69 60
-2.72661 7.78325 -4.69187 15 47 36
-10.5353 -13.1394 7.45979 73 84 74
3.65111 -17.0898 -37.024 103 57 6
1.00456 21.5968 -12.9493 66 42 5
-2.82398 -4.28498 -14.674 45 82 55
6.06854 -5.7176 -0.201378 50 72 64
-9.30217 -2.1819 -1.81681 4 36 22
-3.17017 8.07904 -1.97804 1 32 22
-0.771404 11.4206 -0.294252 57 39 9
1.36716 17.6901 34.962 63 76 68
4.70229 -7.50179 0.126434 74 92 81
6.31964 3.23327 5.80325 8 40 28
7.69066 -18.7867 -4.55932 51 39 15
-0.0508881 0.820312 -20.3971 90 88 50
6.50338 -10.7933 -1.71982 73 89 79
-9.62311 -10.594 7.53367 80 97 88
3.16252 17.6948 29.9148 69 82 72
-0.0172005 7.53628 -15.4369 27 39 24
-0.623219 5.68273 -15.4791 3 35 15
2.66991 11.2466 2.92369 0 19 3
0.81292 13.2124 -16.0528 65 52 20
4.50197 5.18273 -4.52798 17 54 26
-1.29125 14.7069 37.4038 76 89 80
-9.43961 -6.53174 1.53122 53 65 56
-2.8404 16.2564 33.4362 53 64 53
-0.0724487 21.2207 -8.5182 86 64 26
3.69107 11.5414 18.069 19 56 43
0.349342 8.47623 -17.6522 0 4 0
3.93179 -16.4552 -23.003 61 62 46
3.41117 -14.5649 -30.7157 89 39 2
1.33031 -0.33436 29.9509 73 85 75
-1.2078 -12.6718 -23.0619 85 95 80
-10.6409 -16.4046 8.31364 75 91 82
2.64813 23.1477 27.4942 58 66 54
0.558201 -6.82821 -22.1697 150 124 34
-8.75742 -12.7552 7.8949 73 89 78
-7.40663 -10.3285 17.8681 162 105 34
-7.76549 -14.0014 4.32198 86 87 81
-8.50687 -10.6508 7.43933 73 88 76
-0.652214 12.6035 2.01338 46 44 23
1.81765 21.092 22.2182 135 130 88
-9.66339 -5.00348 -0.481427 0 44 32
4.36552 -20.0504 -3.41335 55 51 37
5.21971 4.02033 14.6655 68 75 66
-8.49646 -10.1112 7.37144 78 90 80
-0.599584 23.0545 31.845 63 76 68
1.06168 2.43617 -19.3523 65 30 3
1.01775 15.0125 3.75782 31 33 11
2.05645 21.0485 33.0733 64 77 67
1.75077 16.8738 -7.5122 8 21 14
3.77185 7.49451 -1.51766 7 30 9
-0.474648 17.0718 -8.27121 0 3 0
-0.111122 15.0387 35.8368 60 72 65
3.67785 -0.944138 -12.8525 12 44 6
-0.414862 20.5818 2.91187 7 28 28
4.33477 -17.56 -25.4473 63 69 63
0.200539 11.5244 10.2293 64 31 1
0.772079 21.268 -13.6005 55 28 1
1.09565 23.3297 -9.20917 63 35 5
-2.10213 1.2254 -12.9993 4 33 4
1.35692 12.9774 1.30164 77 54 3
-11.0869 -21.8782 6.78453 143 174 152
-2.84894 -0.478233 -12.5301 71 88 60
-0.74337 14.8679 -7.73902 1 5 0
2.45564 8.08575 -7.06075 105 80 22
1.47881 9.33903 -20.6291 107 130 88
4.64907 2.43991 -9.19203 0 36 12
-2.30501 -4.73679 7.32214 63 78 70
6.81175 -13.0341 -7.52195 120 101 50
-6.03266 4.35197 -1.19625 3 24 12
10.3104 -20.7484 -3.533 117 112 83
-1.01112 8.35893 -8.23346 98 89 46
2.35069 22.7913 31.9047 61 74 70
-9.97767 -13.3403 3.97344 125 149 128
-3.32131 14.0313 35.5072 57 68 59
-2.93829 8.07882 9.24471 0 13 1
-10.6262 -13.235 4.7982 102 125 108
1.33663 20.155 34.8971 66 80 72
0.29022 4.80808 19.9639 48 59 51
-3.43951 -6.92238 -14.7511 2 52 35
7.47262 -7.14747 -0.901299 70 86 77
-4.43502 -1.78742 -11.7445 0 51 22
-0.148758 19.1263 22.7077 94 83 30
0.882458 10.2627 -18.8396 57 32 0
3.01797 -18.8834 -40.8279 97 103 83
1.92362 16.1866 17.3844 131 92 18
0.928265 8.8638 -12.2994 27 34 15
-9.84978 -2.75236 2.3582 64 41 2
-0.2043 10.0489 -13.2947 55 55 26
3.68835 8.46548 1.32053 5 39 18
-6.22924 2.10429 3.59775 0 49 33
4.48114 -20.0426 -45.2431 94 62 7
-0.667862 15.6993 -6.15186 78 65 26
-1.8147 8.77254 -5.71844 86 61 15
-0.210129 19.7668 -10.7495 4 30 11
-10.0355 -18.357 9.25465 78 92 83
-0.309509 4.41291 -17.0741 6 27 13
1.51288 22.7281 24.1204 105 102 73
-1.98486 7.35903 -7.64739 67 51 11
-3.14748 6.19357 -5.89857 74 99 83
-10.3255 -9.3964 4.69506 108 130 110
2.03439 12.1626 -16.3014 2 15 1
-0.33754 25.5428 -7.44385 22 44 28
-6.45034 -20.4081 12.5948 61 74 63
-12.9002 -20.4125 9.56054 72 87 76
5.5897 4.12582 -2.50028 44 58 41
1.54687 -5.98516 -20.6453 90 46 7
5.45302 -2.64197 -11.7013 6 90 62
1.78659 13.0049 6.69494 65 44 6
1.58846 14.9013 -17.4142 95 71 22
3.17878 19.5122 23.85 64 78 68
10.3922 -22.6587 -2.61383 65 77 66
2.6852 3.6011 -10.5997 4 25 2
-1.31561 -9.74596 -22.3287 94 93 67
0.961922 16.9015 -1.71501 19 22 0
1.55642 11.5029 -11.6561 0 7 1
-6.51311 1.4558 1.56177 17 56 43
-8.77483 -7.79237 8.08024 78 95 83
-2.48877 16.997 26.3431 85 100 80
-1.99556 15.9701 25.6913 79 91 76
-7.92559 0.0934906 -4.18311 13 45 28
-2.60287 8.11232 -4.69177 15 40 30
2.52943 20.0872 22.0841 116 114 86
3.3773 -9.20679 -0.346298 74 90 81
-1.16713 8.82927 22.0544 50 59 49
3.3595 -19.3732 -42.7031 92 89 69
0.163488 24.1935 -3.10369 52 30 21
0.0342484 21.5385 -9.87038 27 15 0
-5.66267 2.23653 -6.43757 45 58 39
-0.0666733 5.34161 -17.3741 0 30 21
-11.5327 -18.0369 8.15641 73 86 75
-3.11978 16.4159 32.1859 57 66 53
-5.33865 5.07778 9.77411 1 22 6
-0.135817 23.0185 2.23745 41 57 59
-5.32655 -1.53675 -10.5392 1 59 35
-5.1013 4.15649 7.85542 29 51 37
1.05687 5.82138 -18.699 0 3 1
4.46942 -16.2679 -32.299 78 39 0
-7.5484 -9.72421 17.9314 147 118 42
-6.26701 -1.45304 5.07735 67 63 42
2.69749 -21.6598 -42.3947 61 76 65
-0.630264 16.1082 21.9918 111 87 35
0.184402 8.59003 -19.5451 5 16 8
-3.23391 -0.8904 15.0013 76 86 76
-5.30807 2.44179 12.171 46 58 42
2.21977 -15.218 -33.033 115 106 85
-9.61722 -7.29904 7.53944 78 90 79
7.4962 -10.2139 -5.18534 154 163 135
-1.40002 10.1169 20.9075 60 64 47
-0.288425 24.2074 -0.400475 92 65 29
-7.47678 -5.8326 7.99926 78 76 59
-6.57565 1.83665 0.639011 34 61 49
-9.11451 -7.26274 7.8968 80 87 75
2.21463 -8.67465 -22.7028 110 59 17
-5.20765 -9.2952 19.0759 119 133 117
0.93924 16.433 -1.91839 53 34 1
-2.24451 16.9998 38.8705 61 75 66
3.60363 20.0556 29.1653 70 82 74
-0.914322 11.4587 -4.00929 38 56 30
-2.28116 17.4955 31.5082 54 68 57
5.13853 5.92355 -0.672523 16 47 26
3.96855 -19.5709 -43.6637 92 60 23
6.52222 -20.2593 -0.221851 59 50 31
3.67841 19.8077 28.9919 69 81 72
2.21393 2.20566 24.13 67 73 59
-2.58294 3.88497 -10.2417 0 30 7
0.376587 23.5509 -3.08763 59 41 14
-7.06968 -9.49227 20.2398 78 94 85
-1.87519 8.65368 11.7044 0 13 0
1.43463 13.6079 4.04905 13 25 8
1.71464 11.9933 11.8571 58 38 9
-0.244446 1.65708 -18.4373 66 56 33
-7.99332 -15.8854 7.01673 62 76 67
-0.582588 -12.1733 -25.39 91 82 46
-1.74361 7.53507 -7.62548 98 55 3
2.38972 11.7882 3.85475 4 23 8
6.3501 -20.019 -0.60643 65 62 40
3.35864 15.2024 21.6793 63 75 65
-6.2179 4.23441 2.55632 0 38 26
-0.492304 17.2546 7.60372 40 32 9
-1.53035 15.9076 24.0213 73 77 57
-3.00749 2.95261 13.6032 65 74 63
2.37463 2.12882 28.9043 67 74 63
3.02544 12.0588 14.3069 87 85 45
-5.20386 5.11874 10.815 0 41 29
-6.95515 -1.05656 -7.45095 3 65 39
-6.61972 -1.31039 -8.05727 16 58 46
-3.68178 0.0536957 14.6178 77 75 50
-4.30846 6.20097 7.45078 10 22 10
-4.39038 -6.41996 -12.135 18 73 54
-1.73719 14.2521 29.7094 52 65 55
-10.3826 -5.24194 5.10821 76 92 80
3.08777 -17.2183 -37.2817 115 87 50
-0.241665 14.2173 6.33601 5 10 0
-3.06759 17.6638 29.6284 65 76 65
6.19273 1.96114 -5.85665 0 16 3
-0.0396156 9.69888 -14.343 10 13 0
0.798553 19.832 -6.66412 68 37 2
2.11223 -2.65667 30.2043 69 86 77
0.211002 -0.162189 16.1777 70 87 76
0.0938034 10.3282 -14.2904 51 51 17
2.63424 16.0233 29.0826 60 74 65
-0.453796 19.8564 23.9784 81 80 59
5.19038 -19.3678 -40.4074 75 39 1
1.60566 8.01729 -9.04683 78 48 1
-3.14413 5.33751 -6.59881 64 61 30
7.20192 -14.5639 -5.32478 66 77 69
-0.280334 16.9227 21.712 101 82 16
7.8969 -12.2394 -3.36292 65 76 71
-2.0822 4.15195 14.5603 63 75 64
-1.53471 10.9701 19.6576 57 59 48
0.621098 -3.39882 -20.6842 133 111 51
0.750946 10.0779 -18.0645 66 52 21
3.70564 -20.8778 -48.5613 116 102 64
-6.3885 0.348862 11.8827 34 43 31
-2.80454 18.8828 29.6105 58 66 53
6.47241 0.85638 -2.64714 0 20 5
-1.65503 21.3569 30.3705 63 76 66
6.08216 5.05576 4.34729 0 26 10
3.74569 8.74845 3.69088 18 54 34
4.87566 5.86313 9.64341 7 54 38
-9.64131 -11.1176 7.67035 84 96 88
-0.671684 14.7869 -7.17174 0 8 0
-8.54263 -0.752441 -1.15672 72 53 7
-0.672546 3.33112 -15.1447 2 27 15
-5.8687 4.8406 4.32899 4 53 44
2.17225 1.82243 24.7328 63 71 56
-0.611671 24.1903 1.73782 43 36 17
-6.45528 -4.22026 19.3574 66 71 54
0.177811 24.1698 -2.27197 15 21 15
-3.08376 -10.9489 -14.271 57 69 60
4.491 -13.6524 -4.82325 67 76 65
2.61659 3.24124 21.8007 69 79 68
-9.10915 -11.3099 3.3235 154 174 152
-1.66867 10.2634 17.7246 67 52 18
5.14767 -20.8415 -45.5264 135 112 32
-1.12344 8.77843 -6.92287 76 43 2
-0.556648 15.4303 5.17467 36 47 30
1.95548 15.063 -10.2987 3 8 1
0.700183 17.0632 5.15443 25 36 23
2.40121 2.76116 24.8146 66 74 57
4.14092 -16.3175 -33.0279 64 29 1
6.51073 4.25209 3.10067 2 32 19
3.58233 -13.381 -19.5226 60 67 60
-1.43875 21.7302 33.1293 64 76 67
-6.73114 1.55982 -5.60728 4 27 2
2.81488 13.2132 22.8074 63 76 66
3.13293 10.0139 0.852776 12 34 21
-5.65258 3.02204 -5.21546 4 48 38
-0.239807 25.3268 -1.47486 37 23 5
5.2273 -12.3256 -8.43868 162 143 75
-2.40363 8.40067 -5.20723 6 20 0
-0.79821 12.2236 -2.01093 80 76 42
1.02153 15.8969 6.7572 0 19 3
-0.172497 14.5513 -11.2449 44 46 14
5.25803 -20.402 -44.7517 89 58 9
-1.1863 20.1379 25.757 95 101 73
-0.365744 26.3088 -2.31037 45 34 7
-1.25677 20.9401 29.2326 58 68 59
-1.05522 17.9089 39.5293 80 94 85
-11.2738 -16.407 7.45903 71 86 76
3.09357 18.9261 26.1591 127 150 137
1.25156 8.1936 -9.72443 30 58 28
-2.40725 2.37266 -11.8343 0 36 7
0.253593 22.7248 -9.21168 71 49 14
4.15413 7.98214 3.11463 16 25 7
-0.9907 15.3576 -5.189 2 41 15
-5.51684 2.90124 9.06847 54 74 60
-3.13145 3.24406 13.4608 64 75 62
-2.32213 17.4898 30.9934 60 72 62
-1.40097 17.825 0.963303 0 11 1
-1.51704 11.116 20.4854 53 57 39
0.386017 -16.7371 -29.1851 74 82 68
1.42607 18.4267 35.1625 65 78 70
4.01156 -4.46406 -12.7016 35 83 63
-1.34302 13.1748 25.4287 56 66 53
3.65982 12.4387 17.7862 9 47 37
-1.37746 10.2648 7.13439 34 18 4
-1.41829 14.1114 24.0542 65 72 56
2.58015 8.30634 -6.52768 82 44 0
1.47157 10.3189 -10.7795 0 2 0
2.00217 6.24481 -10.4621 105 84 27
0.289771 21.2699 -1.02348 16 27 23
-1.30196 10.8765 4.63326 61 26 0
-8.59364 -7.61347 8.09438 80 93 79
-4.17123 -6.49287 -12.562 0 66 42
-3.11514 -7.21212 -15.5858 42 94 73
0.195984 16.3571 36.4772 66 78 71
-1.56062 6.00718 -9.81661 80 47 0
-0.559669 3.25821 -17.6949 5 33 17
-0.553017 8.22104 -14.084 18 51 37
-6.0816 2.49379 -4.53231 1 26 13
-0.740669 11.3569 -5.36323 24 25 5
3.49725 11.4563 19.0502 63 77 66
1.65764 5.2533 21.214 68 78 67
-1.77901 8.30024 16.8553 59 52 28
-5.1524 -0.465183 -10.2105 15 36 13
4.58879 -17.6046 -36.6336 78 34 1
1.41399 -3.07721 -18.0296 122 94 43
-0.411495 24.4918 -5.00265 77 50 16
-3.54397 3.48503 13.0181 67 71 62
-0.00960159 -16.1888 -23.9226 53 64 56
-2.658 19.1917 29.2914 55 59 45
1.37859 -6.21515 -21.2895 121 79 23
-8.94969 -12.5504 7.96276 80 94 84
-7.22924 -2.5482 16.0773 58 60 43
-1.2638 -10.9847 -22.9378 80 88 71
-0.855995 8.60856 -8.66149 69 66 42
2.59211 1.42194 29.6508 69 83 72
0.0787964 14.4912 35.8998 64 77 68
0.277412 24.4489 -4.791 73 41 6
-1.79519 18.864 38.2704 62 73 65
-9.86442 -4.93899 2.35626 74 92 82
-8.81308 -1.007 -0.0654197 65 56 23
7.94663 -3.42541 -7.91557 56 100 86
-1.18803 20.3845 -2.68596 3 11 2
-3.26931 7.68956 9.44879 4 12 2
-6.74004 1.19716 0.657204 64 63 48
-0.602242 0.710263 -15.4502 75 84 62
-9.60433 -6.3971 7.45101 76 81 69
5.54941 -19.9382 -33.596 65 59 37
-1.48629 -1.92119 12.5813 69 83 72
1.28897 14.1586 4.25449 45 66 54
3.1851 19.1578 23.1801 73 86 74
4.85256 6.88279 0.633255 6 15 4
-1.36059 13.0571 21.3913 60 59 41
-8.30254 -10.4984 7.30293 72 87 74
-0.80706 2.97595 -14.0734 73 74 45
-6.40261 2.69877 -1.30182 35 77 70
1.59093 11.3097 -8.00733 0 18 13
-5.31164 -1.74448 -10.6128 0 59 39
6.45317 4.13059 1.66164 23 55 40
6.77501 2.29581 1.93084 64 72 63
-2.29549 16.2631 37.9527 53 63 57
-1.41703 10.5394 20.7769 56 63 48
4.99905 2.97422 15.8051 63 76 65
0.0561748 -10.675 -25.6498 117 95 42
-0.0824661 18.8522 38.7597 73 87 77
1.14547 18.4196 -15.1358 81 65 31
4.31682 9.56583 12.0931 7 41 38
-8.28098 -0.77269 -4.19875 1 52 39
-7.55592 -3.40023 17.0823 51 51 39
-8.95216 -7.9753 8.03978 79 91 82
1.93435 17.717 -11.0418 37 46 43
-0.10239 16.012 -10.4506 54 50 16
-0.324074 3.84758 17.4574 59 70 59
5.31485 6.66071 2.55834 25 48 38
-10.9421 -13.5874 6.14377 67 80 70
0.563663 -8.09713 -23.3004 141 93 18
10.2965 -21.6254 -4.42523 85 98 85
-3.84934 -8.24478 -10.0896 38 70 58
-7.44177 0.629051 -1.48891 59 35 4
1.54298 11.1485 -12.8064 0 18 1
-1.99123 -13.209 -15.8876 58 66 59
5.60723 -10.136 -1.22955 74 90 81
2.54543 0.0723867 14.7821 63 77 66
-0.725525 22.8377 -5.95479 1 5 0
-10.3289 -7.1268 5.44648 81 97 85
-4.8688 1.76056 12.6276 68 70 54
-2.37741 16.7046 33.1512 61 74 63
-7.93222 -3.82702 -6.00076 4 62 42
2.05856 15.9886 17.3796 130 94 24
3.93732 9.34402 13.9756 15 53 41
6.0697 -1.39596 3.04997 61 75 66
1.96233 14.2455 -13.6226 1 28 11
3.80314 9.43586 15.5761 4 46 33
4.48449 -18.7644 -40.4387 90 42 4
-5.48095 4.71354 -2.83352 4 39 16
7.25115 -11.1591 -6.36354 136 118 62
-8.65429 -2.15838 -4.4016 16 80 58
4.32718 -13.334 -4.89922 70 80 70
-6.03683 -2.62452 6.63401 74 73 58
1.66924 -16.1279 -18.6957 73 87 77
4.98479 -17.4746 -31.7675 66 40 0
3.36508 11.2616 7.68639 1 19 9
3.04801 21.0552 24.3126 84 95 84
0.42289 10.227 -16.9137 4 40 19
-1.04615 24.3987 -3.44228 0 16 2
-1.14574 19.489 5.07074 23 29 11
-8.05842 -0.0421143 -3.46479 39 60 35
-1.73735 14.9113 26.1438 61 71 60
1.64007 -10.7987 -26.479 118 54 15
-5.47855 -3.36171 17.773 61 67 55
1.89369 3.67019 -12.946 99 77 27
-5.43234 -1.94246 7.31306 71 77 61
-0.288998 19.4308 6.44997 23 31 16
1.37925 17.128 18.3567 130 88 18
4.50367 -15.2236 -26.4271 76 45 0
-1.02703 17.6696 -5.65854 3 24 4
-1.76388 -12.445 -20.0802 64 74 62
2.22388 21.758 32.8686 68 82 75
2.25862 14.274 24.349 65 75 65
3.92604 5.86607 -4.69849 14 28 1
-0.743721 19.669 -6.76981 3 23 4
-13.5569 -22.0338 12.1336 73 89 85
-3.46857 14.9266 33.7622 66 80 70
-0.330574 17.8933 -8.41461 4 6 2
-0.206734 15.6448 7.71952 59 38 1
0.400803 20.2077 -13.5067 13 17 11
4.11725 2.88683 24.0032 65 68 53
1.6432 11.7527 -8.60874 8 29 7
4.04173 8.93536 14.789 7 42 31
0.789162 17.0554 -15.6075 82 51 12
3.43572 9.39743 1.58704 32 50 39
-6.15145 -2.93947 -9.22713 4 77 53
6.16561 1.43549 -7.25031 32 63 50
-7.57807 -3.92873 17.2654 66 74 61
-3.18025 6.97485 11.578 5 25 3
-9.46907 -3.53998 -1.37315 39 90 85
1.88778 -8.2407 -22.5603 119 61 6
2.61403 -2.32242 -14.7946 21 62 50
-1.11345 21.1408 -1.33655 3 4 0
2.13887 -22.305 -3.13955 56 68 58
-0.263283 19.9269 4.24906 28 45 32
0.457352 18.7293 1.21712 29 29 0
7.11814 -9.17666 -5.37844 131 146 125
3.29915 -17.7183 -38.6263 112 86 44
-8.22956 -7.43945 8.10928 79 92 83
-1.20502 21.841 26.1057 132 129 92
-5.07625 -2.04997 9.4114 77 89 74
1.22271 14.3515 -19.1134 4 2 4
-7.04506 -5.32455 -6.745 0 52 33
0.872448 15.84 -5.49619 67 47 20
-1.84306 17.8667 25.5038 102 98 65
0.912993 8.25324 -20.1841 46 99 57
0.720169 13.4388 -18.7003 4 3 3
-0.340109 25.5271 -4.66683 120 61 7
-5.09035 -0.844749 8.91679 85 91 74
-0.936966 12.2484 -1.32589 12 32 13
-6.45937 -6.80311 7.34612 30 42 36
-2.28627 -8.39364 -18.2276 81 81 59
-1.19975 12.1497 24.7446 55 63 53
1.46578 15.7169 -17.0913 7 28 8
-3.95175 0.367485 -10.6819 40 55 30
0.631974 15.7866 3.19189 47 40 16
-7.17101 1.22259 -3.28842 5 14 1
9.43244 -21.2366 -6.58713 101 109 83
-3.51522 6.86998 -3.32864 0 12 3
-6.6374 -20.376 12.659 60 74 62
1.03894 20.7282 -5.18452 4 11 0
-5.12172 6.15727 5.46948 15 36 25
2.15032 22.0542 -13.912 48 61 57
-4.92298 4.98382 7.195 20 59 40
0.624252 9.34024 -18.823 1 3 0
4.533 -21.1688 -47.5755 105 82 18
-0.125427 15.5626 -10.4984 4 14 2
-5.67917 -0.718624 -9.48655 4 69 53
7.26449 -13.7181 -7.63296 105 82 8
-4.90719 5.8255 8.8259 1 7 2
-0.527229 12.7126 -9.21635 1 12 4
3.91361 -19.5498 -28.3083 63 74 64
3.51162 -14.7638 -30.8638 93 37 6
0.739632 17.4974 2.09164 25 48 43
1.28331 18.8219 35.0995 66 80 71
-2.13292 5.59728 14.2644 58 59 41
-2.05461 -5.04049 6.64146 65 80 72
0.273888 14.3567 -13.5653 41 27 1
0.81488 18.4058 36.4977 68 82 72
3.33495 -21.4149 -49.0837 109 116 103
-1.3621 10.0481 23.1387 56 62 49
0.202316 14.4997 35.5593 64 77 69
-2.47285 -3.00864 -14.4596 37 87 59
-6.04146 -8.91139 20.1619 74 90 81
0.159523 11.5462 9.43589 63 33 1
-1.19651 20.2197 -2.99607 3 29 10
0.934753 15.7017 0.191795 21 30 22
-1.47526 10.9722 2.06366 60 25 0
0.775864 10.2653 -18.0484 67 52 22
-6.75922 -1.77896 15.8754 63 43 9
-0.850739 -1.41999 -16.3944 45 79 63
-2.49003 9.49974 2.44518 2 16 2
3.35854 10.8322 5.93537 1 25 8
-2.19247 10.0073 1.78517 3 17 1
-2.58535 5.16759 -9.02679 21 59 33
-0.116711 12.1435 5.26123 63 54 28
1.94322 11.2396 0.19297 37 25 7
2.51665 -17.5959 -37.1631 75 78 53
-1.60637 19.7384 36.8385 63 75 67
0.967775 2.77166 -19.9245 79 38 3
-0.959724 5.97375 17.785 56 67 56
-0.889795 12.9068 27.3399 50 59 53
-0.149021 1.38706 -20.3076 69 60 26
-6.27857 2.68333 2.91148 0 34 20
5.1883 5.33997 8.88795 27 56 46
1.15045 5.7286 21.4086 66 80 70
5.3213 -19.2137 -3.99477 50 57 45
2.28454 15.4846 17.1528 111 94 36
-2.68193 8.56054 1.37853 0 10 3
0.585953 22.5652 -3.23453 70 39 0
-0.48082 16.5419 6.45435 0 9 0
4.36449 -11.0048 -1.91599 68 82 72
1.37095 11.1344 -12.3 1 30 16
-10.0389 -4.24577 1.92444 73 86 77
-0.637894 17.2477 22.5181 100 82 44
2.03687 16.0963 -14.629 43 70 41
4.05634 4.44407 19.733 73 88 75
3.44096 21.9398 27.6219 108 129 115
-3.03215 5.55668 -6.62595 16 37 21
3.6941 20.9954 29.0639 60 72 64
3.29366 18.529 28.9204 59 71 63
0.390909 8.51955 -19.8884 6 22 17
0.492406 9.43519 -17.0765 79 66 36
-0.787964 23.8789 -6.84433 6 19 11
-7.46133 -6.81137 -3.40578 58 93 79
2.9619 10.6699 2.71166 3 19 7
0.0160599 23.8656 28.4705 64 71 59
-0.807278 22.6424 -6.69018 14 41 13
-5.7485 -8.01874 4.241 26 36 34
3.29629 20.9125 26.2891 92 110 97
1.90521 9.33501 -6.63751 52 30 0
0.201836 11.2824 -16.5032 4 30 16
-0.304146 4.60064 18.0455 55 65 57
-4.0367 7.32426 2.85815 1 8 0
0.48103 22.3655 -4.6293 45 55 43
5.44823 4.76125 7.77305 47 72 59
-5.28791 -21.7611 10.1137 119 143 125
-7.69144 -4.92078 7.47952 79 77 60
-2.28819 -5.6129 5.79474 60 80 73
-0.872269 2.3472 -14.838 2 13 3
-0.559799 22.6124 32.8803 66 81 71
-3.43737 14.503 35.1715 63 75 64
-4.16243 -0.129055 -11.1389 5 51 23
-0.380119 15.6978 7.14713 40 40 20
-5.02004 -0.89119 14.8917 74 55 21
-3.77779 7.57321 3.0111 0 7 0
0.390696 1.40621 17.9398 61 76 66
-0.724115 -3.00277 -16.8521 111 101 59
-7.16098 -21.5598 14.179 51 61 52
-7.16826 -1.80042 4.43064 66 47 4
3.34351 20.7615 26.4867 94 112 99
-1.28559 19.7321 3.9306 4 16 1
3.02627 9.44292 -2.03972 3 7 1
-3.13864 7.20893 -3.85519 16 27 15
-0.581993 25.1366 -0.942101 56 31 19
-2.75744 -6.44978 -16.1336 2 50 29
-2.6456 3.01146 -11.0199 0 46 18
-0.670448 10.9268 -8.60153 3 19 6
1.22364 23.9204 29.2013 52 61 50
-3.36637 0.631544 14.5964 75 71 55
3.64755 -9.10629 -14.4416 52 67 46
0.420727 8.95263 -18.983 0 17 4
-8.95083 -7.61218 8.03314 76 93 81
-1.17551 18.6071 -0.122162 59 35 1
1.53607 23.4261 25.5879 72 77 62
-2.99095 17.5788 29.8506 64 74 63
8.02533 -9.62578 -3.88345 62 71 62
1.02379 22.9516 24.5152 120 114 81
-0.96487 14.7027 37.0842 73 87 78
3.88348 9.18513 15.0291 4 46 35
-4.48304 -3.19873 -11.8128 1 51 36
-2.1278 1.00905 -13.1534 2 37 12
3.70928 -7.89028 -14.4721 4 33 15
3.99261 -19.3342 -7.61875 65 79 66
-1.25062 9.87397 -4.68434 88 38 0
-0.588333 12.2616 -9.57818 1 16 4
-8.4081 -6.89171 8.08403 80 91 81
5.58144 -18.2191 -6.00425 71 80 66
2.56197 11.5765 4.54266 4 13 1
-3.10144 17.0413 28.1524 69 77 62
-1.9509 2.56697 -12.4346 3 30 14
7.24042 -1.48013 -8.66873 14 42 23
-0.272984 -1.71888 -19.2937 60 44 5
-1.8638 10.4521 -0.297971 75 54 12
-5.45495 3.76173 11.4615 17 46 36
-2.5711 14.4415 31.5374 65 83 69
-0.895767 17.5594 -3.57202 61 43 6
-4.61477 5.8722 -3.31755 19 50 31
0.857197 18.5182 -1.87802 21 29 13
-10.3232 -11.3558 7.24574 69 83 73
-9.64121 -5.92844 -0.629726 1 47 34
0.406052 14.4031 8.56992 60 50 20
0.942566 22.5359 -5.30215 13 20 11
-0.830879 -5.89957 -20.0873 84 55 5
1.01026 18.1669 -16.2866 59 32 10
7.69267 -13.3414 -6.73876 130 134 102
-0.577354 8.85047 -11.7839 6 34 19
-1.22776 10.4156 6.91661 51 24 2
-8.3664 -7.95931 18.1899 146 146 111
-3.01414 7.9582 -0.84605 0 13 1
-9.62547 -2.8403 -1.07952 35 80 65
1.87614 22.077 23.2703 134 126 92
-1.90342 9.41163 -4.02357 40 20 0
5.45363 -3.7488 0.520393 56 66 60
-1.23618 22.1534 33.0205 65 79 70
-4.76354 5.87141 8.58199 0 12 4
-8.10901 -14.405 7.20368 69 81 70
0.406708 13.9152 9.70198 64 47 12
-5.68409 2.8456 10.678 5 44 22
-1.07507 10.7606 -1.97127 91 46 1
-7.80229 -1.57991 3.33925 66 40 2
-1.23859 -3.29028 -16.7328 41 64 16
-1.85225 22.1611 32.0436 67 76 65
5.82553 1.83921 -8.21483 10 34 22
4.05191 0.345169 -11.7957 2 30 6
-3.13968 8.02367 0.955196 10 14 0
-9.21764 -4.84096 7.01939 82 79 64
5.13564 -18.7675 -37.3347 74 41 1
-5.75671 4.55051 4.97524 6 45 31
3.20103 17.3969 28.4755 59 71 63
-3.16883 17.095 29.9851 61 71 60
5.70188 -11.1573 -1.78334 73 87 77
-7.68615 -6.71865 8.15895 76 90 78
-0.941132 24.3981 -3.85958 65 77 54
2.31485 15.3529 25.1998 63 75 67
-2.29215 -3.44262 -14.9783 32 55 34
-2.18305 9.56358 6.72125 6 19 17
-8.21655 -13.3169 7.44449 71 82 72
-5.33047 -1.11272 9.44815 95 103 75
-0.822334 2.99462 -15.6993 2 13 3
0.898003 -8.16249 -23.3959 147 91 14
-0.690304 2.91633 -16.7997 2 39 24
-1.04535 10.9165 -3.42414 54 50 32
-0.214958 11.1907 7.12118 61 36 1
3.97915 10.2252 8.51776 5 25 11
-0.884743 -6.14767 -20.3642 73 47 0
1.74647 9.42604 -19.8244 66 60 10
-4.1898 4.33912 12.5362 60 68 54
-7.34587 -8.77557 18.0624 137 130 86
-1.02794 17.5483 3.82186 0 20 8
0.0790863 17.7485 3.00658 36 30 3
0.909203 19.4393 21.0212 106 81 14
-6.96584 1.20029 -0.77638 59 48 17
-1.96136 6.45394 14.2191 8 33 23
-8.32361 -11.3933 7.44135 72 84 73
-9.57154 -4.59821 -0.843667 7 39 27
-4.49745 5.93291 11.6986 18 40 26
-8.29625 -0.349243 -2.74446 49 54 31
0.436165 13.1557 8.70929 65 49 24
-5.49639 0.62964 6.19665 49 67 57
0.655975 16.763 35.4856 61 73 66
4.02847 1.74101 26.7804 64 76 65
0.564186 15.992 -13.7927 71 53 18
2.13758 13.6479 14.5979 127 78 18
-4.6645 -4.60253 -12.3606 23 80 59
-9.10073 -6.91229 7.79653 79 94 83
1.82973 17.8819 19.3291 141 107 49
1.82445 22.5679 23.9374 93 95 69
0.939166 21.1768 34.9408 60 74 65
-0.313072 16.8104 -9.74874 0 34 15
2.7423 21.1791 23.6377 124 134 117
0.470718 12.5511 8.95315 60 47 14
-10.786 -15.0592 7.74555 75 85 75
1.74379 13.3751 -9.92805 7 23 11
-0.64336 19.8884 -7.02504 16 31 0
1.37952 13.1761 -11.6742 55 42 0
-6.45004 2.56205 -0.597855 8 42 32
-0.450024 24.4532 1.33289 20 23 14
5.46953 -21.655 -45.6672 129 129 103
4.73148 2.66906 13.8369 61 73 65
0.895439 17.0522 33.6154 57 69 61
-1.17641 3.35215 15.8841 62 75 63
-0.00387192 13.9771 16.821 36 44 15
-0.681328 18.0306 6.2217 1 12 0
-7.53704 -10.8358 19.666 75 92 82
0.787403 13.4269 15.0396 88 72 37
-3.3443 -8.61621 -14.8626 36 57 46
-3.16211 -10.2913 -12.5114 61 70 61
1.64767 10.6259 22.7076 64 77 66
0.954092 -3.75004 -20.0784 89 56 2
3.03437 -9.31993 -21.4434 31 21 10
-6.78945 -19.3265 9.67583 61 63 47
-10.7528 -21.141 6.51933 154 184 159
-3.73543 -4.55386 -13.9143 1 47 26
2.02746 -14.0255 -31.166 125 84 33
0.281471 14.0657 8.31878 65 60 48
-5.4197 -1.02201 6.74307 68 76 63
0.569756 16.6598 18.7664 86 57 6
2.6802 0.349121 30.1875 72 88 77
3.90418 -12.4467 -23.576 77 45 2
-0.940941 13.2153 -0.688612 3 22 5
4.35037 -18.6177 -40.4451 80 33 5
-3.71614 -8.77328 -10.2183 57 71 64
-3.59875 -3.24223 -13.5193 8 79 51
-4.581 3.67197 12.4696 60 66 55
-2.85679 0.151787 15.0105 74 83 70
-7.625 -3.63362 6.61606 76 48 5
0.202484 14.8285 17.3147 88 55 10
-1.87334 1.8792 -12.9088 2 36 1
-1.88502 20.9713 27.7614 57 68 57
3.80098 1.61625 28.3088 66 78 69
1.88128 10.0865 -19.6495 74 48 8
1.24797 23.3914 25.3571 132 134 115
-0.348106 14.8778 36.3133 68 84 73
-0.134022 7.12498 -15.4724 1 20 7
-0.406761 15.0642 36.4797 67 83 73
1.42289 -5.45013 -20.1079 92 61 13
-1.57039 19.6946 37.2705 59 70 61
-0.703484 5.98582 -12.8138 61 62 47
5.4041 -4.97327 0.169762 66 80 72
-0.919775 16.9725 -4.0864 3 8 1
0.450493 7.74635 -19.6927 15 56 22
-1.77906 19.8498 33.3999 66 78 67
5.3284 6.11743 5.03559 41 49 41
-2.51846 15.3862 36.1325 57 71 62
2.63558 10.9599 2.04572 0 24 6
0.842972 19.3676 35.8818 65 79 71
1.24697 15.0661 -8.40489 46 43 5
-2.3398 2.43402 14.5266 73 73 61
-6.84259 -7.44542 -3.24065 69 114 98
-7.97313 -18.1758 7.0509 81 103 93
-0.828842 13.5275 0.972519 12 26 7
-0.325191 18.5303 -8.77895 0 9 1
-7.63711 -5.36614 -5.60224 10 70 48
-2.13018 18.0087 31.0268 61 74 63
-0.392914 11.6104 -10.9292 72 69 30
1.62482 11.9075 -14.9337 15 23 0
6.03122 1.55219 6.89431 1 39 29
-0.784866 9.81062 24.0731 61 70 59
8.18394 -20.6454 -1.32164 48 44 30
-4.92076 5.57286 -3.00332 30 45 25
-0.827599 12.1641 -4.59677 53 62 37
4.03731 -16.3574 -23.1295 61 62 46
-0.0685425 18.0556 21.9584 89 71 25
-0.779987 22.8918 2.73767 59 39 6
-0.471306 14.8688 36.6524 71 83 75
-0.864597 9.2798 -8.81574 57 65 35
0.23983 6.43762 -19.3273 41 41 25
8.82634 -7.35123 -3.7811 1 58 42
4.00485 -18.8468 -41.5118 113 67 14
0.566757 22.7939 24.584 121 115 79
3.31384 -4.1639 -14.5692 0 27 4
0.165619 24.7184 -8.69501 73 51 11
-5.62074 -1.06155 -9.86377 0 81 66
2.35175 1.43881 23.1768 101 113 98
1.58103 4.33822 -13.328 78 103 83
-0.556957 12.4077 2.51131 61 44 10
-1.01523 11.2212 -3.50457 39 41 24
4.22076 8.65121 5.89957 11 49 24
4.68436 -21.6969 -0.461075 62 67 51
2.92136 -22.0413 -46.5187 58 70 58
3.20858 -20.6924 -46.4817 67 77 64
-8.02912 -11.8315 7.16324 69 80 69
-0.119743 20.2449 -9.32483 7 12 0
-5.62551 4.88515 -1.7934 15 22 7
-8.55137 -12.4293 7.73629 75 85 76
3.54293 14.9913 20.417 124 143 127
-2.10686 3.38132 14.6085 67 75 61
-1.3533 2.17664 15.887 70 75 67
-0.849976 10.337 -5.55641 35 41 19
-5.31419 5.22738 -2.32788 24 55 39
-1.47656 13.9849 26.6571 50 61 53
6.53966 -18.9321 -2.43531 52 47 27
1.12347 12.255 -4.40658 67 55 23
-3.48344 2.3292 -9.86708 5 25 1
1.68291 14.9311 15.8136 146 86 18
-2.25391 18.9749 31.8385 61 68 57
-0.608959 10.8312 14.2249 40 36 8
-2.24233 17.1408 33.7151 121 137 124
7.77556 -7.78464 -1.06255 75 87 75
-1.07714 4.26183 -12.4499 24 38 20
5.15315 6.49998 0.765717 2 26 1
0.244522 19.922 -11.6702 41 52 25
-8.52827 -2.96168 4.95292 65 38 1
-1.29988 23.2593 0.0961752 10 22 6
6.75577 0.653723 -8.36153 10 49 31
0.324368 19.1981 37.8565 68 84 75
-9.2795 -7.09447 7.76344 79 92 77
-12.3533 -20.8606 12.7152 69 78 69
-1.3677 10.592 21.6336 57 59 44
-8.52502 -11.363 7.5615 71 83 72
1.16169 -17.2497 -32.6283 74 82 64
0.469231 17.624 7.00436 0 16 1
2.59592 8.53798 19.9549 68 80 70
4.57629 -17.9506 -37.9802 82 35 1
-6.35709 -7.83898 -3.13461 104 123 113
-9.50749 -6.166 -0.252122 2 36 23
-0.363342 22.6548 25.6145 146 146 113
-0.882347 6.31795 -10.8416 77 52 7
0.225887 15.2675 17.7016 108 67 9
3.89817 -15.0233 -21.6397 68 66 44
0.57634 -16.8618 -21.9709 53 62 54
-3.5141 2.91079 -9.33767 0 40 12
-0.89785 6.54256 -10.6547 67 54 20
-4.49254 2.14623 -8.66626 0 45 16
