ply
format ascii 1.0
comment Created by Open3D
element vertex 1399
property double x
property double y
property double z
property uchar red
property uchar green
property uchar blue
end_header
-0.796837 25.3049 -4.17314 73 49 8
-1.32019 9.84583 15.6622 79 61 11
-1.77721 7.25711 16.3439 59 65 48
8.05628 -2.11922 -3.01139 0 19 11
2.98997 19.0527 31.3759 64 78 68
-1.03467 22.6579 -3.40568 9 30 11
-6.14104 1.42572 10.7807 2 35 18
2.3744 2.77262 25.0755 73 71 61
-0.847107 22.1174 -6.52521 7 34 8
0.453865 2.97651 -20.4059 109 86 33
-1.07238 17.7109 -5.18754 19 28 9
-0.879089 17.6023 5.11017 35 40 11
1.40833 14.616 -19.1999 16 6 1
1.64909 15.4262 32.0191 64 76 66
-8.41573 -6.61627 18.2812 128 97 21
-0.707291 11.7145 -0.451855 55 50 30
-12.3329 -19.6731 9.33089 65 76 67
-7.44094 0.998161 -4.36289 10 27 7
-10.8976 -12.6429 5.65199 79 97 85
-0.788265 13.6602 0.578207 47 47 17
0.614738 9.76146 -20.1686 4 15 13
2.5553 1.04602 29.9231 71 86 77
-2.78393 5.25542 -8.58026 3 22 5
-1.4891 20.6101 30.0516 75 90 75
3.68873 -20.2967 -3.86638 49 51 38
1.13769 17.7103 -16.5079 45 51 54
-2.09579 8.94046 9.90386 0 17 1
-0.478676 0.433365 -16.8655 59 53 27
-0.504242 9.82342 -10.7039 24 29 0
-3.07416 8.60283 2.13533 0 18 6
-7.69914 -4.31316 18.599 55 57 44
6.85215 -20.8477 0.153831 64 62 46
-0.780224 22.0386 -4.43347 86 59 7
-7.6605 -4.89018 17.4598 85 98 78
1.85376 2.86038 20.9164 62 72 63
-0.614807 8.22701 -13.4022 2 13 3
0.417583 20.1804 -12.1216 86 63 26
-1.07841 18.2412 3.27276 0 15 1
2.10744 -19.7047 -38.0306 54 63 51
5.37413 -19.6758 -1.48594 50 51 39
-1.75198 10.156 6.86303 8 7 0
-3.23452 16.2325 32.2098 58 68 54
-4.91139 0.196838 -9.82345 57 87 58
1.9604 22.1351 32.8343 70 84 77
1.18074 -2.326 30.3689 73 89 80
-4.82896 -2.41254 8.82911 60 66 56
-1.02175 10.0803 9.69237 10 8 0
-1.62918 19.7364 36.7604 64 76 68
-0.432709 0.632008 -16.8531 58 58 38
0.197784 8.36861 -18.1701 1 26 8
0.312962 8.27097 -18.7194 21 18 5
0.496666 14.7249 -14.8812 50 52 16
-6.17868 -1.23 -8.93581 11 44 27
-1.20339 4.1242 -12.0918 60 46 11
-8.82122 -4.58525 -3.64585 2 66 50
-0.47728 0.670998 -17.7684 62 50 17
-1.13313 14.3997 21.6085 87 64 28
0.615082 12.1541 -15.6131 71 48 6
-0.623322 5.94038 -15.4808 0 19 8
-9.0511 -1.88746 -2.36371 4 34 26
-5.1124 1.26239 8.68468 83 94 75
4.08037 3.1161 21.2607 69 74 61
-2.23245 19.124 31.2178 64 72 59
-1.76178 3.00965 -12.3787 1 43 13
6.65515 -11.5366 -2.09195 74 89 79
-2.0355 5.52509 14.8227 61 69 45
0.597664 12.323 -15.422 75 61 24
-8.856 -3.08522 -3.83945 1 63 43
-0.939087 23.5702 -3.50855 16 14 1
1.14032 17.5696 35.6873 65 77 70
-10.8122 -11.2688 5.31719 81 97 83
-1.57292 11.1926 19.4334 58 54 34
-0.266285 13.6602 17.016 5 27 11
-3.00941 6.30743 -6.07082 17 58 41
-10.2804 -5.15274 4.76209 84 102 89
-2.54579 1.34228 -12.2396 41 56 35
-1.4622 8.9617 12.0533 2 22 0
2.10293 15.095 -18.9258 68 42 11
0.477402 19.6978 21.8026 109 92 37
-10.0055 -5.67624 3.41673 90 107 90
-1.54865 21.9056 32.7522 68 78 66
-5.13956 3.46433 7.89971 53 70 55
-5.47377 -0.267647 6.1342 62 70 60
-0.982956 -3.17296 -16.8393 84 72 22
-0.16888 12.4084 27.1463 64 78 68
-5.14909 1.88223 12.4272 62 66 50
4.57335 -19.7167 -4.21768 51 56 42
-2.34241 4.3256 -10.3253 4 48 14
0.450106 14.5428 34.8631 60 78 69
-0.549919 1.88137 -16.5479 68 73 56
-2.8177 17.6703 27.1106 106 114 93
-1.05396 2.43968 -13.3226 99 76 41
-8.91394 -2.10101 -3.44805 28 77 63
-0.204361 -1.57516 -20.0329 61 44 7
-5.34951 3.62916 -5.58996 5 55 35
-11.0275 -14.1811 5.94903 79 94 83
-6.43645 2.94868 0.404752 1 47 25
0.171912 19.1174 38.1943 70 85 75
-0.962585 19.3401 -5.64767 21 29 10
5.17833 -21.6139 -0.0821228 56 60 49
-6.79564 0.68998 -6.33203 32 79 56
-5.38859 1.11325 -8.38246 2 45 16
0.8689 23.7548 -11.8505 97 104 85
-1.8312 -13.0695 -18.9112 63 75 66
-7.41402 -4.3344 19.3265 70 72 58
8.05901 -4.59908 -1.06149 2 37 29
-1.28257 13.6059 29.4728 53 63 54
-6.25942 1.10337 3.65511 0 48 34
-0.538666 18.3488 -6.95204 95 67 21
3.86688 2.49687 26.1612 65 73 60
-6.82288 1.68106 -4.35906 1 15 1
-7.32278 0.779549 -1.84883 58 37 4
-0.700291 10.6595 -8.76529 4 26 10
-0.731865 18.2348 5.55343 19 25 8
0.0906601 16.145 19.5372 85 58 5
0.258446 12.501 26.6723 55 73 63
-4.7839 -3.9113 -11.8309 145 153 128
3.79347 -18.939 -41.8193 105 63 10
2.30893 19.7015 31.9215 65 80 69
-0.769699 3.21614 -13.9787 58 61 41
-5.32338 -7.93297 19.8252 63 77 68
1.25022 11.9076 24.5971 64 76 67
-4.55822 6.0931 -2.61798 53 54 51
-9.13626 -1.75846 -1.46235 26 43 30
-4.96252 -0.966965 8.32355 63 68 54
-1.16584 18.4723 -0.574708 45 32 1
-9.53046 -2.17611 -0.188896 61 64 42
0.116768 17.9084 -12.1352 0 10 0
-1.99496 -12.6231 -18.6496 77 91 77
7.86049 -3.49284 -1.19894 14 51 37
-10.337 -4.11536 3.55571 70 73 58
-0.0154495 15.3103 8.23235 62 59 40
-2.78378 8.4799 5.2533 16 23 3
-0.717319 3.24152 -15.8432 0 7 0
-1.33948 21.1396 34.4591 59 72 62
0.525352 9.60654 -17.1641 70 60 31
-2.33353 4.09753 -10.6071 0 28 13
-1.11228 17.0165 2.14165 15 31 11
-1.58208 5.752 -10.184 97 46 0
-2.19756 -5.20858 6.51498 65 78 71
0.240936 17.2546 -13.0201 5 24 0
-7.3997 -18.9089 9.16026 59 59 41
2.43216 22.306 24.6838 82 90 70
1.67468 20.676 33.9289 72 86 78
0.727851 -0.127977 16.1455 72 86 75
-0.132935 7.31347 -14.7133 60 67 46
-0.777359 3.62645 -13.6709 52 69 55
-8.62779 -1.86292 -4.3697 8 53 38
-5.53355 2.35078 -6.4908 53 71 58
-6.79071 -0.592323 13.1995 64 39 2
-1.04574 19.6125 -3.34252 69 59 23
2.2374 -19.2149 -38.6122 77 86 70
-6.96283 0.614548 -6.15299 48 93 76
-0.929749 8.85749 -7.09709 80 52 5
-0.887253 9.37326 12.9041 29 39 19
0.509834 14.1081 -15.2736 5 38 7
-0.799763 3.01738 -13.2889 62 64 45
-2.54097 -7.66061 3.05488 69 84 76
1.61356 16.243 -7.05901 10 24 20
-5.89238 4.57281 4.35349 2 45 35
-0.895157 -6.35617 -20.7085 102 76 17
-13.4416 -22.0189 12.8279 71 84 73
-6.97994 1.30426 -5.40204 15 48 33
4.13518 -20.5926 -47.5586 90 71 23
-1.78999 17.6465 25.307 108 105 72
-8.33953 -0.943207 -4.17964 9 53 38
-8.03886 -1.2201 -5.58445 2 65 55
-0.799866 15.7517 3.97229 14 32 13
-2.1611 8.74405 10.4432 0 17 2
6.52326 -20.6888 0.527344 58 50 34
0.331818 14.166 9.4486 62 33 0
-6.5132 1.87546 -5.60456 1 31 4
-8.95152 -3.96843 -3.12688 18 70 62
-0.815041 18.3202 -4.09119 39 32 0
-2.68886 17.9537 26.9203 99 102 75
-8.89301 -1.45696 -1.8272 32 61 44
-4.32686 0.000854492 -10.5855 7 46 28
-1.72031 9.96199 -2.98776 68 29 1
-6.13057 -8.47324 20.2741 72 85 79
3.68549 -6.77311 0.661499 70 83 75
4.3034 -5.97638 0.659325 67 81 72
-4.41518 -1.56659 -11.5536 22 75 47
-6.46356 -2.16063 -8.793 3 64 47
-0.791183 17.8589 23.7772 83 79 47
-0.784878 12.4624 -2.51933 57 42 9
-2.83618 17.8553 27.2091 82 87 68
-1.16518 18.4571 0.197403 36 33 6
-10.1405 -7.00158 4.73332 87 109 94
-6.23021 -4.82451 19.7002 66 67 57
-5.45227 0.63995 6.40972 61 73 63
0.563801 -6.02055 3.65952 65 82 74
-0.966324 14.8637 1.8752 1 24 11
-8.25797 -1.52813 2.93742 64 41 4
-1.12271 1.61847 -13.9578 62 88 54
-2.28081 -11.5001 -18.1154 77 91 76
-7.26232 -2.27929 15.2927 60 57 36
1.22162 12.0925 24.8054 64 77 67
-0.484856 9.91914 -11.3749 6 28 15
-3.53168 7.1778 7.75129 25 26 7
-0.221123 14.8647 7.58709 62 41 2
-1.73424 21.7631 32.5535 67 79 69
-7.28993 -0.672081 2.57081 66 48 4
-8.8889 -5.30828 7.33782 78 73 48
-5.40481 3.21288 8.79343 64 86 62
-12.4371 -20.8015 12.5326 72 82 71
0.512634 9.40559 -17.2314 58 44 22
-1.77265 23.0678 28.1214 89 101 82
-2.08103 4.94533 -10.3898 5 20 0
-0.282928 15.0876 7.22347 59 50 23
1.52634 18.8947 -7.82861 11 15 3
0.236872 -6.49165 3.31397 61 74 66
-2.90742 8.33516 6.73464 0 6 0
-0.905907 10.6671 -6.55768 29 49 31
-3.21109 3.75169 -8.9847 12 42 23
-6.65802 -2.29719 5.63699 69 53 16
2.65302 -2.07512 30.7259 70 87 77
-0.579727 16.1086 -7.91353 0 2 1
-0.933685 15.6643 -3.5571 20 21 1
-0.671146 -3.69414 8.78017 67 81 71
-0.861664 11.2385 -6.89062 27 41 26
-1.32423 21.0938 0.234163 9 40 29
8.46716 -6.67563 -1.93761 61 79 68
-0.322266 6.37408 -14.4125 2 25 5
-6.9118 1.49516 -4.53746 2 5 0
-0.813049 12.3802 -4.68861 56 69 42
-4.24545 -7.25118 4.19406 16 13 16
-2.3445 7.28922 12.5155 22 19 1
-0.0783157 7.60516 -15.0726 63 64 36
0.326932 -3.67626 8.4107 66 81 72
-7.02138 1.33723 -4.53799 5 13 0
-7.94692 0.109032 -2.92587 39 41 11
2.52865 -21.0755 -41.2842 57 67 57
-8.11347 -10.9404 19.4168 70 88 79
-5.79662 -3.67595 7.35419 64 71 54
-9.06864 -1.52295 -1.28743 68 67 49
-1.63129 9.46149 9.61417 2 5 3
1.8906 15.074 -18.7418 64 33 5
0.928958 17.0507 34.7305 59 72 65
7.64738 -2.87379 -1.04173 2 21 12
-1.93479 9.4327 -3.83561 50 28 1
0.281036 -9.14847 -24.2659 168 133 63
-10.2742 -13.6676 7.86654 77 89 79
-0.1576 -1.50247 29.4297 59 66 49
-0.225113 9.4502 -13.1593 73 62 33
-0.998276 20.1336 -6.44555 24 49 28
-1.35057 22.6951 26.7752 108 117 91
-1.00939 11.1192 -3.32949 46 40 21
0.626123 11.6794 25.2163 60 74 65
-8.55216 -0.648323 -0.760951 61 36 3
-0.933678 -5.30138 -19.049 77 66 26
-1.8502 20.1124 28.0275 61 73 59
-3.16788 16.8778 28.9786 59 66 55
-9.6283 -5.03282 -1.53826 4 79 63
-0.0832024 21.8336 -8.34221 115 77 24
-1.76222 21.946 32.3477 65 79 70
-1.9628 17.676 39.0974 58 69 61
-1.58086 20.988 30.6742 67 81 70
-0.822395 4.76863 -13.9495 0 24 12
2.38232 14.7857 24.4965 63 75 66
1.24426 -16.4019 -32.4688 86 91 69
-0.678607 10.0697 24.3764 63 73 63
-0.746437 9.97076 -8.79778 1 11 0
-3.16168 4.57315 13.2553 67 73 60
-6.72573 1.84161 -3.28987 2 19 5
-6.44849 0.693977 2.52128 51 68 62
6.06918 5.52438 3.60181 23 47 38
-0.161118 -1.49314 29.0381 74 77 54
-1.25971 11.0645 0.0505919 65 26 1
-7.6979 -9.0256 20.112 78 95 84
-0.79808 3.02206 -13.8399 62 60 41
-8.05633 -0.0517426 -3.51081 38 61 37
-10.8427 -11.8739 5.5957 61 75 66
-2.031 22.0221 31.5364 76 93 81
-0.360565 17.3697 -7.45641 69 46 5
-0.97043 20.7114 36.3152 64 78 68
-5.11017 5.08465 -4.01196 1 16 1
-4.6741 6.37059 9.8119 0 6 2
-10.0064 -2.96723 2.02272 72 67 41
-10.5611 -11.369 4.8504 112 137 109
-0.285732 16.5691 7.9599 59 49 16
-9.6099 -15.4808 8.54213 86 100 90
-5.26114 3.40802 7.04679 53 69 55
6.99958 -11.3354 -2.07035 73 88 78
-3.08715 14.9044 32.1902 70 85 73
-0.487343 12.0622 4.39505 58 51 25
-2.67015 8.79122 0.401207 1 11 0
0.890911 16.4462 32.7227 60 72 62
0.354248 17.6416 20.607 86 61 8
-3.28433 7.68184 9.43539 4 13 3
-0.497368 10.7659 8.28056 61 29 0
-3.07748 8.07408 0.800583 1 9 0
-8.84656 -9.56771 18.9158 57 69 56
-10.3339 -7.37874 5.46663 78 93 81
-1.83971 7.0956 14.7908 26 40 17
-5.48035 0.27475 -9.10745 0 41 28
-0.75914 17.2151 -6.32053 61 61 24
-7.9825 -21.2803 14.9851 51 63 52
-7.8872 -0.0302505 0.140075 63 38 0
1.82003 19.3236 -15.4197 118 88 39
-1.24435 4.06166 15.7376 60 72 60
-2.99737 -2.61304 11.9882 71 85 75
-0.449219 4.06709 -16.3698 1 24 8
6.89657 -4.03491 -0.470505 5 51 40
1.01147 -18.0078 -26.3151 60 69 61
-3.27273 16.138 31.5412 59 70 58
-0.917831 7.07944 19.5565 52 63 54
-10.2508 -7.98102 4.98633 87 104 89
-3.03138 5.25982 -7.81896 2 32 16
-9.05639 -2.68423 3.70934 64 38 3
-1.19108 19.1821 -0.762269 32 27 0
-0.0468979 12.2754 6.86632 64 51 25
-8.39845 -0.922546 0.886991 62 45 8
-2.28312 1.4755 15.0454 69 70 56
-0.723969 14.0585 -5.52355 76 67 31
2.05359 2.32929 28.45 66 70 58
-1.32038 19.7541 2.0383 4 19 7
7.55255 -6.87591 -0.928406 70 87 77
6.60018 -21.3582 1.11706 57 58 44
-3.33017 -1.5324 -12.894 81 102 74
-1.29614 6.74878 17.1305 59 67 55
1.51966 4.44421 20.8466 67 77 66
-2.69767 -8.40358 1.89407 69 82 74
-2.65693 2.78806 -11.0853 2 42 17
-0.680534 2.29893 16.708 64 72 62
4.48285 -19.0556 -41.3809 76 38 3
-9.02923 -3.27151 -3.09864 0 39 28
2.29375 1.21121 24.9358 57 64 51
-1.79102 10.5695 2.73719 78 34 1
-9.62546 -6.05306 1.16166 58 68 60
-7.66752 -3.4745 -6.65902 4 52 30
6.24002 -13.4205 -3.40607 76 88 78
-10.4466 -8.55735 5.7312 59 74 62
2.28698 22.0917 32.6395 74 82 67
-0.25711 16.5438 38.5022 64 79 69
1.85473 10.281 -18.314 53 32 2
-1.40666 10.1101 22.2756 59 56 33
-2.79472 6.37179 -7.45459 3 30 11
0.151695 -4.45454 7.11747 64 79 70
-5.35269 3.33252 -6.12313 7 49 27
1.74551 1.37455 26.4388 98 100 75
-0.398441 6.34074 -16.6064 2 28 17
-9.40026 -16.7446 8.8558 79 99 87
2.4861 13.2451 -18.3028 3 6 0
-6.35255 0.430115 11.0783 45 63 51
-3.94327 2.0066 13.1181 67 72 59
-9.59478 -6.07898 0.274194 24 61 48
-5.04668 1.66646 7.94763 59 72 63
-0.5923 -12.2872 -25.456 82 74 43
-4.91561 -0.284378 7.80945 65 74 64
1.93995 21.8748 -14.5136 91 81 41
1.17933 -16.3369 -32.2316 69 67 47
-6.02694 -0.512306 10.3374 83 79 44
4.09741 -17.6419 -37.9474 84 39 0
-2.34272 9.37399 -2.30879 1 6 0
2.73251 -20.0261 -41.7604 55 62 50
-0.0509415 5.07795 -18.5901 0 1 0
4.05239 8.92775 14.7505 8 41 31
-1.02587 16.2471 2.16163 9 31 13
0.408726 23.3106 -1.5411 26 39 29
-4.43039 6.31484 11.4128 0 19 0
6.93592 -19.6993 -1.22597 54 47 28
0.767685 19.212 21.0313 104 79 14
1.33506 7.63231 21.8305 72 82 72
6.14121 -7.99885 -0.535919 76 92 81
-0.817253 11.789 -2.65844 50 37 5
-0.796227 10.8012 -7.23854 72 74 48
-0.574318 13.5637 3.32817 4 13 0
-3.07664 16.3247 28.9106 71 83 69
-5.19528 3.32763 12.0356 53 69 55
8.46448 -7.42324 -2.04651 63 80 69
2.03355 0.942411 29.8584 69 78 68
-0.586159 8.9802 -11.4329 1 28 14
-0.506721 17.9839 -8.72843 0 9 6
3.3657 17.3002 27.4409 64 76 67
-0.225876 25.6546 -7.44391 28 33 20
0.103916 1.21639 17.3872 66 79 71
-0.00419617 7.81702 -17.5209 0 32 21
-1.97711 15.4138 26.5985 56 69 59
-5.53232 -0.685177 5.98586 67 69 59
-2.4842 9.05005 0.584373 2 9 2
-7.08929 1.0643 -0.954678 60 40 3
0.480721 11.6848 -15.6964 29 29 7
-0.753899 10.3893 -9.62412 22 32 14
-3.14023 -4.29621 8.13383 72 88 79
-7.39772 -3.72686 18.5206 63 58 38
0.38009 14.7754 35.1247 66 77 69
0.377304 2.46606 18.4408 57 67 58
1.31081 16.7154 -17.2868 0 25 11
1.0563 7.31738 21.9102 69 79 67
-6.30463 -0.473289 3.93731 51 67 54
2.7383 -0.933111 30.6436 70 85 76
-2.88314 -0.504227 15.1676 75 87 78
4.61702 2.2938 21.481 64 73 60
-0.0638962 3.80051 -19.5125 29 64 38
1.54174 11.7425 23.998 62 74 65
-5.66642 5.06495 -1.31832 32 63 51
-0.28126 12.0616 26.8486 64 77 79
5.86506 -9.67715 -1.11644 76 91 82
-0.776692 -1.92275 12.3429 69 83 73
-2.18857 -4.9283 6.80194 63 77 70
0.655273 9.98736 -17.6462 70 60 22
-1.03349 1.55025 -14.1522 60 68 38
1.25983 1.03377 18.8034 59 72 63
1.76334 2.2909 26.4193 75 78 54
-9.52335 -21.9357 15.3951 72 88 78
1.30117 18.2482 19.5958 134 93 18
-8.88217 -7.95168 19.345 56 61 53
-5.7419 4.88178 4.97011 2 36 24
-9.91242 -2.96626 0.198261 72 74 56
-0.724442 2.9249 -16.6206 0 37 22
-0.392479 4.24939 -16.72 0 25 8
-2.85252 18.8997 29.4046 58 65 51
1.13086 3.46069 20.0457 58 73 64
-5.50745 -0.7239 9.55575 97 103 79
-5.43361 -4.24541 17.863 60 74 62
-0.135529 16.4991 20.4915 101 73 9
-9.04728 -1.89694 -2.18147 1 29 19
-2.03277 14.9361 37.188 63 75 64
-1.53629 2.1618 -13.1646 50 68 31
-0.911728 1.9197 -14.6837 29 34 8
-6.59227 -3.36629 18.7034 69 63 42
-7.94645 -4.68694 -5.77541 5 74 53
3.29132 17.2546 27.9494 61 75 66
-1.13172 18.6368 -2.9646 17 28 1
-1.51916 14.0826 26.4884 51 61 53
-0.651924 13.795 4.47139 26 34 13
-0.43294 0.688957 16.6021 73 87 76
-1.06936 4.2538 -12.632 16 36 20
7.06768 -3.12261 -0.595932 4 36 25
-3.65581 7.77916 2.75909 6 1 0
-10.7456 -12.8345 7.00565 71 84 74
-9.52917 -12.2583 3.52831 139 165 142
1.90996 23.5305 26.6678 69 74 60
-10.196 -7.26431 4.9362 82 101 88
-1.52014 5.95844 -9.99756 87 43 0
1.75846 20.0627 -11.9941 52 55 50
-5.10332 6.16239 3.05242 23 43 31
-3.43201 7.93327 3.88052 3 20 17
-8.11993 -0.337349 0.32548 66 45 6
-0.583057 19.1035 38.9268 73 92 79
-1.82539 -12.2351 -19.6612 70 84 72
-0.549637 13.2627 -9.992 0 12 3
-1.72722 9.85622 7.58649 0 5 0
-1.13154 16.3245 -2.28959 1 32 10
-7.61145 -3.90337 18.366 56 50 33
-5.71004 2.44576 5.17425 3 43 29
0.00352478 18.4405 -10.8269 6 32 7
6.67123 -8.25256 -0.753929 75 89 79
-2.63172 17.3077 30.7155 59 69 59
-9.09113 -3.10621 -2.79447 9 64 46
1.12991 -7.42439 1.59644 65 81 72
-2.99035 -0.629116 -12.5005 100 102 73
-4.8148 0.799706 13.1235 69 64 41
-0.65387 14.7773 -6.32659 63 48 9
-7.50962 -8.25675 20.3265 76 93 83
-0.497444 14.6946 -8.83105 7 34 6
0.42012 13.2517 8.53407 59 47 25
-5.52942 -0.217854 5.59105 15 52 34
7.62644 -22.0271 0.263474 53 58 46
-9.0233 -1.63759 1.25961 64 47 10
1.1944 17.6829 -16.8456 19 35 28
-7.52249 -4.01244 16.7283 76 85 67
4.92274 6.14125 15.3558 22 58 50
-10.1338 -3.34592 2.40533 64 70 59
-7.25095 -8.90663 20.3189 76 93 82
2.49715 12.51 22.7148 64 75 66
0.19228 11.2654 -16.4173 4 29 16
-4.62909 -3.60051 -11.7221 20 74 53
1.7833 -2.32322 30.5551 69 88 79
2.81799 -19.1268 -40.7034 82 90 69
-1.74455 2.09346 -12.9728 5 36 6
2.1747 -17.0276 -35.5667 77 76 55
1.90833 18.7148 33.7734 67 80 71
-2.22333 17.8376 38.5116 56 65 56
2.28749 17.7899 31.2284 54 63 55
-11.452 -19.6132 10.1832 67 83 74
-5.95319 4.18758 3.98047 2 45 36
4.45901 3.17705 19.7375 66 77 67
-7.93396 -18.4582 8.5288 63 67 54
-0.866837 6.09555 -11.7356 39 60 42
-0.0773621 13.2633 7.43994 59 53 29
1.53609 14.9397 31.4079 59 70 72
-0.806831 12.3864 -7.71538 34 52 26
-1.08393 -5.00464 -18.2739 88 59 11
-5.56455 -0.655201 5.62357 50 65 54
-9.189 -1.70341 0.710187 70 58 38
-6.47034 1.97128 1.15743 31 63 54
-1.10455 9.78125 -5.02502 96 55 8
-8.68754 -2.52145 -4.36643 31 99 78
-2.56145 19.3234 29.7207 59 63 49
5.44545 3.51124 8.63297 65 75 65
-4.65288 6.70346 3.72802 8 21 11
-9.19865 -1.66814 -0.561527 68 79 63
2.69374 8.11803 19.8186 68 81 70
2.2496 1.00647 25.348 78 87 72
1.37403 15.2613 -9.20154 46 39 23
-1.71025 14.5919 27.6075 59 72 62
0.59404 12.3696 -17.6383 16 34 26
-0.616264 13.4262 -5.85977 68 64 32
0.168144 12.9966 -13.9752 27 37 8
-2.57157 -4.63673 -15.0135 37 72 48
7.90446 -2.02387 -2.06194 0 24 10
-2.54232 13.6661 37.1262 60 76 65
-9.72932 -2.58469 1.82736 65 50 19
-1.31223 9.11422 20.1745 58 64 50
-1.8695 7.11908 13.9112 2 24 12
-6.3214 0.930874 3.13812 5 39 26
-6.78073 0.341652 -6.69766 2 40 22
-9.08126 -1.90701 2.18338 69 52 19
2.41031 1.13194 23.2765 70 81 69
0.680517 16.1332 33.5687 63 77 68
3.3862 5.64251 20.0159 75 88 76
-3.22721 15.922 33.4643 57 67 57
-8.40767 -1.98775 3.33022 65 45 0
-9.936 -4.99387 2.6729 75 94 83
2.82434 10.3561 20.5299 65 78 67
-0.183904 14.4717 36.3283 69 81 71
-11.776 -20.7554 13.028 66 75 66
-1.01189 23.111 -0.442688 80 53 3
0.134415 21.1426 -11.6477 0 29 10
0.130936 6.00054 -18.8412 8 37 25
-6.0953 4.57619 2.94245 7 34 20
-2.90649 7.63955 -4.17548 2 44 26
-8.08339 -0.253918 -4.37231 14 65 47
-7.68927 0.394676 -4.54124 1 49 30
0.83918 0.0813522 27.6264 110 100 63
-0.809258 12.7201 18.0399 99 77 5
-0.724617 12.4363 -6.52531 4 18 2
-0.35466 11.6745 6.3739 67 50 12
-0.245552 2.1163 -18.0249 81 83 64
-1.77344 19.8015 34.2492 62 74 63
-7.50466 -10.7756 19.7107 75 92 81
0.717323 18.7037 36.4651 66 82 72
-0.402573 16.4881 -7.62436 13 15 1
0.664642 21.0998 22.6158 111 100 49
-3.38646 -0.773258 -12.3006 24 67 34
6.07866 -10.5744 -1.53174 74 90 79
-0.826157 9.76348 -8.79767 5 18 2
-5.85295 2.38887 -5.74257 26 49 26
-7.97919 -1.74532 -5.93607 6 65 51
0.0644444 6.851 21.8746 57 65 54
-5.19464 5.31281 6.52894 8 53 41
-9.16059 -3.24336 4.67236 65 42 0
-0.957123 14.3694 -2.21891 54 56 25
-1.05762 15.1827 -5.0285 0 38 13
6.09728 -16.8831 -6.33489 83 95 85
-0.892677 13.5698 -0.532568 2 18 1
-0.980568 4.73092 -12.9613 7 27 13
-2.13622 22.405 27.8531 81 92 74
-2.87744 -6.12905 5.33222 20 24 27
5.33569 -18.8273 -5.18601 52 58 48
-1.091 16.6537 -0.822579 1 13 0
-0.253052 -9.30766 -23.9086 140 125 81
-1.56136 22.0822 32.5726 65 80 70
2.98226 -15.7399 -34.1595 111 65 10
-0.859184 19.3474 5.4352 59 47 21
-1.20303 19.313 -0.106401 48 38 4
6.31155 3.67034 5.43625 4 42 29
-0.428956 0.997318 16.7211 73 85 75
-6.69916 -0.379051 11.8952 81 63 15
-5.49281 -0.956867 6.37101 69 78 64
-1.58363 9.07715 -5.71308 91 45 4
0.94669 14.5914 10.7184 65 44 4
-0.750008 12.1327 -0.470164 36 41 18
-0.489521 8.07242 -12.8972 9 13 2
1.07717 18.3085 -15.006 86 65 30
-1.80194 3.70864 -11.8021 12 26 5
-5.49633 1.99229 -7.3931 1 39 16
-5.56313 -3.09612 17.7678 60 68 55
-3.43701 2.93642 -9.44821 7 52 27
-0.57404 7.68103 22.0731 52 62 53
3.6766 3.04849 22.613 59 60 43
-6.06707 -1.9574 5.91531 71 67 45
3.89104 -0.242146 29.4615 70 85 76
0.093338 21.9042 -9.89252 37 19 1
-9.14728 -8.06204 7.9552 78 90 80
-9.2401 -20.0042 13.3677 57 72 63
0.215779 7.03543 22.1852 63 76 67
1.50285 23.8538 28.977 49 57 48
-1.02325 15.8565 -5.34925 2 37 10
6.38514 -9.52811 -1.22409 75 90 81
-9.98436 -2.85826 1.2836 66 70 54
-0.388939 11.6982 4.77876 67 61 38
-6.49401 1.83457 -4.71234 8 27 4
-9.27318 -3.90538 -1.90657 1 52 34
-2.77244 8.79957 -0.253763 0 6 0
-1.07616 17.6495 24.2192 88 83 56
-0.750553 -2.42982 11.5745 70 86 76
-9.5109 -4.16782 -0.679632 0 51 37
0.743019 15.5112 -15.4607 64 56 23
1.26555 11.876 12.7824 137 85 41
-1.31173 9.02209 14.6567 19 33 16
-9.00034 -2.23331 -2.80808 18 59 40
-1.76225 10.0041 -2.30944 53 20 0
-3.0801 8.02987 4.93178 34 39 17
2.40345 8.37356 20.3944 68 80 69
-1.43944 23.7737 0.56357 0 9 0
0.0434952 -0.790733 28.6706 100 89 55
0.777224 10.2018 23.7584 66 78 68
0.294929 5.3166 20.5353 51 59 49
0.314301 16.1463 18.4362 87 57 13
4.54873 -21.2032 -0.931538 61 66 50
9.63166 -21.8903 -0.707115 58 70 60
2.32992 19.3972 32.3495 65 76 66
2.02629 15.1683 -18.5761 70 39 7
0.520016 12.4014 9.34799 64 55 32
-1.0937 11.1598 0.0564528 68 28 0
-9.98709 -5.94644 3.43658 87 104 91
-9.59242 -3.11166 -1.24316 42 84 76
0.240578 13.4218 -14.1662 34 37 15
-9.13311 -1.61783 -0.915218 58 64 47
-5.0829 4.75582 -4.53288 10 67 37
-7.51169 -3.66792 16.6572 76 79 58
-0.850716 5.00885 -14.1088 0 23 9
1.01924 13.3467 -16.9026 52 27 0
3.29597 -21.5934 -1.34492 60 63 46
-0.675068 22.9311 -4.7353 67 49 4
-4.66681 5.51505 7.67728 1 13 1
-10.1234 -15.3069 4.33037 138 159 143
3.53237 3.34783 21.7465 67 69 55
2.2584 15.319 -17.9899 91 61 20
-3.87564 6.8946 -1.82458 6 25 13
-1.06868 24.0157 -0.376383 74 45 1
0.338242 0.0738678 28.4701 95 77 38
-1.37601 18.7476 1.46278 20 28 4
-1.05388 10.5125 7.07665 58 26 0
-1.20988 9.43647 14.415 5 14 1
-0.286011 12.0857 -11.122 58 61 25
-0.97525 14.0079 -3.8676 0 17 2
-2.688 5.44322 -8.52006 0 15 1
-1.17641 3.35215 15.8841 62 75 63
-0.499962 11.8035 26.4925 57 69 62
-3.45083 3.16941 -9.26363 32 70 44
-3.1359 -7.86362 -15.6877 0 63 42
-1.62335 8.61176 16.1471 77 60 0
-1.11254 23.0927 -0.177063 62 53 16
-1.81344 -1.26011 14.3699 73 86 79
-10.1022 -3.74927 1.15031 74 91 78
-1.21402 10.8195 5.15676 61 34 1
-2.73514 -5.89394 5.62383 23 33 33
-0.737389 14.6022 3.9016 1 21 7
-1.71033 7.84484 15.2189 65 47 9
-3.78001 7.21574 9.9351 0 4 0
-6.50901 3.05043 0.748024 0 40 23
-1.16853 23.9302 -2.41604 0 7 1
3.48466 10.9816 19.0641 60 76 65
3.69588 -21.867 -0.907829 61 70 49
-0.613898 -1.25799 14.0091 69 85 76
7.04086 -8.63888 -0.935822 76 92 82
-0.698597 23.7362 -6.20481 14 11 0
-1.0387 11.4273 3.73856 63 29 2
-0.321219 -9.01978 0.3498 69 82 71
6.79993 -6.92708 -0.580643 71 83 75
-6.32736 -4.50009 -9.43466 103 120 102
-6.60199 -2.10734 5.44936 69 55 20
-5.64637 5.45558 1.86107 1 34 20
1.02481 18.0248 36.2285 70 83 74
-0.368736 4.46019 -18.3208 2 8 0
-7.92834 0.0466461 -1.29979 59 37 0
-0.60601 24.3957 -7.46249 16 55 40
-2.10916 17.8282 25.898 103 101 67
-2.74329 8.86611 -0.427727 3 11 3
-5.49914 4.0391 6.09597 20 53 41
-5.49101 2.98652 -5.91273 16 78 65
-1.29763 -6.26013 -19.4857 28 69 55
-4.93675 3.66969 -6.47346 0 19 8
5.19174 -20.4274 -1.06246 59 67 55
-4.41707 0.432659 13.8768 71 56 25
-0.415947 6.63881 -16.2149 16 42 38
-1.30103 22.2803 0.159143 2 22 5
-5.75513 5.00971 2.06075 31 66 41
0.605846 16.5698 34.7618 61 75 67
-0.856075 17.54 39.5003 78 92 82
-11.4382 -17.2924 6.88467 72 87 76
-9.61459 -2.39292 6.29425e-05 60 68 52
-0.431125 17.2218 39.2285 75 90 80
1.45324 12.5741 24.8234 65 78 68
-2.92439 17.7538 27.7733 58 63 50
-3.1123 16.8 30.9074 58 66 52
-1.36468 5.19675 -10.9355 112 69 0
-3.43757 7.63412 6.321 36 41 18
-1.25395 17.8147 -1.1936 0 12 3
-10.7705 -12.5196 6.76642 71 84 75
-1.22612 21.3913 2.82755 41 25 1
0.92145 15.2608 33.6585 63 75 64
0.018692 23.8771 28.7694 64 73 61
-0.342117 24.5751 -8.08491 1 23 4
-1.11797 15.5744 -1.2743 1 21 3
-1.49623 20.1027 31.1491 62 75 65
2.14296 2.02241 24.9026 65 71 56
2.37608 13.8024 23.9109 66 78 68
-0.890076 7.05887 19.9195 51 63 53
-1.06464 18.5858 3.08983 7 15 1
-2.92677 15.7549 29.6982 70 83 69
-9.52206 -3.45412 4.70994 62 38 2
-0.635139 21.9803 -6.89284 48 43 12
-0.516701 11.2825 6.25484 63 40 3
-0.085083 9.97897 -14.8623 0 10 2
-3.55018 -6.66238 4.82793 15 17 20
1.78532 2.20184 20.4668 57 66 58
3.44468 1.53671 29.1695 68 84 72
-1.52646 20.0261 26.391 99 107 81
0.115559 14.2156 16.788 28 32 7
-5.62543 -7.91364 4.15987 19 28 27
-7.04354 0.986664 -0.411356 65 49 20
-4.07924 4.30489 -6.99722 1 22 4
-6.50838 2.2428 -2.30155 28 69 60
-3.06695 6.9779 -5.03576 42 80 61
2.2092 -21.9157 -2.95955 57 63 54
0.84314 16.403 -15.6066 29 35 6
-5.66821 -0.2607 -9.29454 28 71 52
-5.476 0.730103 -8.74169 50 115 83
-3.94714 6.71545 7.75001 0 9 0
-9.51359 -5.70058 7.21976 84 93 79
-9.57201 -6.09739 -0.614719 0 44 34
1.42007 20.6182 34.5338 72 86 79
1.82148 14.7099 25.9376 60 73 63
-7.26787 -2.51199 15.8852 63 61 46
-2.10017 19.7206 29.0907 78 87 71
-5.93888 4.40598 -1.0502 7 22 10
-0.714813 8.85091 -10.2227 24 33 15
-0.88372 18.8707 -6.30239 1 29 10
-1.8022 7.06516 15.8486 60 62 40
-1.23054 11.7495 18.1377 95 64 2
4.40472 -19.1336 -6.51671 69 77 61
-1.34735 -0.748783 15.3995 70 86 77
-5.21553 5.78091 -1.07418 9 24 5
-9.4769 -3.80893 5.62631 68 43 3
-5.85648 -8.21825 20.1746 73 88 79
-0.400906 24.2493 -7.94993 0 19 3
-1.30841 11.0863 2.58483 62 32 2
-1.58213 23.2631 30.6012 59 67 62
-9.30462 -2.24564 2.5586 68 45 2
-1.46428 19.7587 26.2335 97 101 75
-2.24137 9.97178 4.62967 3 11 1
-6.45485 1.6909 1.54923 13 55 43
1.41137 17.7731 34.9587 64 77 69
-3.47257 7.20284 10.8414 0 8 4
-1.25173 21.6887 33.6665 64 76 67
-2.87785 6.22905 -7.31722 19 51 34
-0.210129 19.7668 -10.7495 4 30 11
-7.62001 0.218895 0.139728 59 36 1
-2.00231 13.5405 32.5467 64 76 68
-0.309509 4.41291 -17.0741 6 27 13
0.0144539 21.7645 -10.7626 3 17 16
-7.69783 0.558708 -3.83417 9 48 32
-1.25602 13.9624 21.3513 82 68 27
0.217247 11.6099 -14.2548 9 40 22
-0.824978 14.2644 -7.96851 4 27 10
-8.44086 -0.48806 -0.583212 63 37 0
-3.59798 4.25711 -7.53427 37 42 8
-1.01003 13.076 -4.35925 1 37 14
-5.35229 4.77252 10.49 0 31 18
3.38049 15.8666 20.9941 67 76 64
-1.77207 0.298439 15.8025 72 80 69
-4.50933 5.89161 7.29594 6 25 5
1.00738 9.89213 23.2691 67 77 69
-0.189682 19.6955 -9.17919 0 7 0
-2.77142 8.02343 -4.17713 9 46 34
-5.81981 -1.06803 -9.13748 10 81 60
4.96636 7.23694 12.0716 11 63 48
-9.29176 -3.43846 5.08348 67 35 2
-2.56958 -11.319 -17.257 79 94 79
-7.20904 0.935837 -2.02947 54 36 1
-0.260262 12.9343 16.0222 26 31 6
-0.660622 10.3569 -8.94862 4 20 3
-4.08427 -4.5397 -13.389 1 69 45
8.81577 -21.546 -0.400505 50 47 35
2.15285 2.24615 25.0443 69 70 57
0.472549 20.3211 -12.2404 69 48 17
-9.78527 -2.47664 1.08831 63 54 32
-8.34149 -1.41658 -4.89014 11 66 51
-0.0445251 11.079 9.3858 64 49 12
2.33083 1.8713 29.2458 63 73 61
-1.00381 9.10695 22.7577 58 68 59
8.77849 -20.5839 -1.49172 48 44 32
-2.72555 4.16877 -9.78561 43 79 44
-5.56449 3.63155 10.943 6 36 24
-1.28297 7.05616 17.3737 59 68 58
-10.0669 -3.25617 0.803936 70 82 70
-0.190475 17.1595 -10.121 2 31 2
-8.46296 -1.1758 1.80603 61 39 1
-2.39236 16.6856 33.1419 61 74 63
-7.53349 0.866714 -4.19971 28 43 27
-2.957 18.6096 29.139 74 84 67
-0.0788422 5.34929 -17.193 1 32 20
-0.62392 23.5684 30.3455 54 66 58
-0.845009 18.7858 -4.40794 13 8 2
-6.52254 0.649883 2.09224 56 71 60
0.60685 15.6016 -14.9873 13 28 2
1.37479 14.4382 -17.1881 73 57 25
1.17979 23.7362 30.3622 52 60 52
3.69797 3.16756 21.9858 68 69 54
-2.06785 17.9814 38.5761 59 68 58
-0.404888 4.04594 -17.0563 0 6 0
1.73852 22.5575 -10.3702 8 17 9
-0.143253 15.4509 -10.5362 0 9 0
1.64281 14.6899 -19.526 18 19 5
-8.35583 -19.2847 11.1412 52 58 52
3.18726 -20.8182 -47.4099 65 76 66
-5.31977 5.24458 6.24965 13 44 35
-0.854668 15.0711 -5.52021 43 59 30
-0.991333 18.4117 -5.81381 5 13 1
3.09568 2.37992 28.0249 61 71 57
-0.965546 10.8885 -1.96496 88 51 2
-5.42219 5.7484 0.815964 1 13 0
-1.45741 22.2661 26.4668 125 127 95
-5.93723 -9.80205 19.9498 77 93 85
-0.238914 10.5571 9.98848 53 36 0
-3.74007 7.19262 8.58117 9 4 1
-1.23703 -12.6198 -22.9823 87 96 81
1.32043 12.8756 25.2632 65 77 68
-1.27615 19.398 2.40088 28 33 4
-1.33452 10.2549 16.6138 97 66 8
-1.8252 20.6088 27.4242 70 79 64
-5.45675 0.462219 6.25643 60 71 63
-6.21537 2.37006 -4.1776 0 33 10
0.401932 12.0892 -17.3016 24 60 45
-1.39358 11.6517 20.9885 53 59 51
-0.740036 8.87343 -9.52738 77 66 34
-7.74855 -19.7134 12.4213 49 56 45
-3.33138 -3.2253 -13.9188 0 35 9
-0.252098 25.3553 -6.21952 64 25 2
-8.44564 -5.65854 7.59931 79 87 73
-0.0410385 10.3529 -13.8042 69 59 34
-1.609 8.20082 12.935 2 29 19
-0.46212 12.4921 15.915 4 17 8
-11.0227 -17.0262 8.22234 75 85 78
-1.26878 9.07689 -6.22904 103 49 0
2.1728 10.9109 22.1152 67 79 69
-1.62524 10.5446 17.8548 70 47 5
-3.3709 14.9519 35.1154 61 72 63
3.60999 -15.7661 -33.5304 68 34 6
-2.08895 7.21008 -7.65024 22 24 0
-0.684975 3.33938 -14.9622 2 31 20
-1.22535 17.6218 -1.0254 0 9 1
9.39183 -20.7063 -1.76111 55 54 40
-4.92076 5.57286 -3.00332 30 45 25
-12.6719 -20.1464 9.14064 93 113 99
-9.93694 -3.77599 4.69107 66 42 6
-1.01016 8.63972 -7.97071 72 57 17
-5.16687 -0.544262 9.05152 85 87 74
-0.467548 17.6475 7.77888 55 45 13
-1.54875 6.20939 15.9904 58 68 56
-11.4006 -17.5237 6.75518 80 99 86
-0.797096 9.9339 10.6054 2 2 4
-0.965008 23.1807 -3.41487 25 22 0
-3.91169 -5.66338 6.18284 22 24 32
-2.5837 7.80238 -5.38218 0 28 16
0.516127 17.1268 37.4644 64 76 69
-1.41447 4.36869 15.4256 63 73 63
-0.578003 12.7988 2.54034 57 44 11
-5.8687 4.8406 4.32899 4 53 44
-2.63748 18.2785 34.1544 59 70 61
-4.24697 6.86816 -0.742775 0 12 0
-2.11207 9.11336 -4.00591 15 11 0
-2.56427 -11.7959 -14.1455 58 69 60
-0.323727 12.0256 14.869 0 16 12
1.04946 13.7535 26.5803 57 72 61
-0.0500188 12.8798 27.6767 64 77 70
2.88463 12.1273 21.6653 65 77 68
-0.332851 18.8271 7.15176 15 29 11
-0.870789 9.03139 -8.82161 77 71 43
-0.0539322 23.3668 -8.4224 79 52 5
-7.2513 -2.64618 15.1819 73 78 66
-2.16425 -10.5677 -18.9613 72 84 69
-0.79821 12.2236 -2.01093 80 76 42
-0.223244 15.8491 -10.1193 71 54 26
8.60591 -20.4504 -1.6002 47 43 30
-4.80067 5.97436 -2.48163 6 14 4
0.939911 15.9839 -15.9859 33 27 5
-2.19867 -8.58326 -18.8326 79 91 64
-0.675728 3.49356 -16.3685 0 7 0
-5.29444 3.42793 8.59581 64 85 68
-5.38861 5.97377 2.52993 2 12 2
-2.53983 7.24301 -6.58222 15 49 35
0.591984 14.9669 9.6172 66 28 4
0.316349 22.7132 32.6318 68 80 71
0.396042 6.11986 -20.3924 5 8 6
-8.11081 -0.23196 -3.85496 5 43 31
-0.729126 14.4397 -5.68773 85 72 29
3.99814 7.76272 17.4082 64 77 67
-1.51704 11.116 20.4854 53 57 39
0.386017 -16.7371 -29.1851 74 82 68
-10.272 -14.0585 7.9844 78 89 80
-0.247429 -2.7392 -20.4057 111 115 92
-6.95873 1.55634 -3.825 0 17 1
-3.12595 17.125 28.5742 61 68 55
-0.111259 20.7411 -8.81415 60 31 0
-5.33366 1.748 -7.84344 0 74 55
-1.67639 5.86757 -9.82026 71 42 0
-0.630341 8.2515 -13.9227 19 43 28
-1.21535 10.0045 8.98648 5 7 0
-0.75 21.4082 -4.42788 60 42 0
-0.658112 10.5241 -9.98077 53 54 31
1.81753 23.7832 28.6534 49 56 49
1.01341 11.8961 24.9054 65 77 68
1.68872 21.8501 -9.97259 5 8 5
4.12671 9.38586 13.3501 9 46 32
-3.03771 8.0475 -1.25923 1 12 5
1.43626 11.4193 23.8243 60 72 63
-3.88825 6.08679 -4.01203 7 11 1
-11.4015 -19.3905 9.67849 72 82 75
-8.43073 -0.808243 -3.279 2 32 16
-1.24408 8.75942 20.0106 57 65 53
-6.10211 -4.43921 -9.96025 89 107 90
0.28476 23.1017 -1.28453 22 31 17
7.27177 -12.674 -3.03722 74 87 77
-0.895798 8.634 -8.48639 77 77 48
-11.8167 -20.4335 12.3726 66 79 69
-4.33223 7.11623 5.26293 0 15 2
-1.45949 10.4569 19.9495 58 62 52
0.810226 20.1564 -14.7933 11 44 28
-9.86442 -4.93899 2.35626 74 92 82
2.72977 16.1807 28.9468 60 74 65
-7.73335 0.0599823 0.322892 64 38 2
-6.12326 1.07075 10.6425 18 37 28
-0.132191 5.16471 -17.3064 0 29 19
0.0432663 16.9909 -11.3899 2 7 0
-3.39967 -8.79036 -14.4713 67 84 71
-6.6814 -0.736893 11.4085 79 67 26
-0.458351 20.5607 -7.54789 75 66 14
-7.25729 -2.28061 15.6722 62 53 25
-0.784218 3.18247 -13.5188 63 69 49
0.23769 11.1816 11.8956 68 34 4
-0.0581055 14.9606 8.09874 59 57 40
-1.37411 13.7792 28.4492 51 62 54
-7.26191 -3.34924 15.8818 72 83 71
-0.328789 -1.58779 -18.3756 68 68 45
-12.4808 -20.4208 11.3187 70 78 70
-2.07415 21.5568 28.4395 61 73 62
-2.1524 19.6099 30.6685 61 70 59
-4.16812 -1.85181 14.9482 56 67 58
-1.11723 15.1241 -1.42411 1 16 3
-0.143749 14.7499 36.08 66 79 70
-8.03791 -19.0583 10.1199 55 59 47
-3.32405 4.82579 -7.47366 9 47 39
1.654 17.7774 -17.5129 28 71 32
-7.32139 -19.0684 8.23087 85 100 90
-3.02624 3.95356 -9.42937 1 26 12
-3.14168 16.5983 31.4539 59 66 53
1.93435 17.717 -11.0418 37 46 43
-7.04442 -0.869774 13.0303 60 52 22
-10.2451 -3.95397 4.14978 67 58 41
-5.82412 5.02139 3.58161 35 45 25
-1.49759 8.11884 14.8737 51 57 38
-2.19421 6.16161 -8.68936 37 60 44
0.807186 17.2482 -14.3053 61 50 18
1.49885 19.1987 -15.4092 59 48 10
-1.74123 22.2637 26.8272 103 111 87
-7.51229 -2.47173 5.20071 66 48 0
-1.73043 6.89834 -8.50879 69 35 0
-1.46766 19.8286 1.0798 1 8 1
-5.73683 1.99715 10.0804 5 26 15
-8.75468 -3.91266 -3.65244 11 57 41
-2.04156 5.76064 14.6819 58 56 34
-0.995392 11.9012 -3.84615 0 39 16
-0.763786 3.39349 -13.8678 60 70 50
1.50924 15.368 16.2763 146 83 18
3.41056 -1.03615 30.556 74 90 82
-10.1747 -7.802 4.80078 84 103 87
-2.51234 4.03145 -10.2457 5 42 19
-3.46553 7.40988 9.96261 1 13 0
-1.73735 14.9113 26.1438 61 71 60
-6.67569 1.38961 0.660671 58 67 57
-0.659836 18.585 -6.78667 71 61 15
-6.56027 -2.38664 5.83409 70 53 21
-7.3209 -20.8199 13.3734 66 75 69
-5.43881 -3.03286 17.5426 58 67 55
2.32499 14.2414 24.1547 68 79 69
1.37925 17.128 18.3567 130 88 18
0.299614 7.88763 -19.4652 4 33 17
-0.0884628 15.4104 -11.6309 60 69 43
-0.507988 3.88678 -16.1988 0 20 7
1.05073 9.11367 22.7066 66 78 68
-5.66704 1.26235 9.655 72 83 65
-1.48157 8.52082 15.3309 65 43 0
-8.25245 -1.16513 2.26894 65 38 0
-6.53762 -3.97648 19.1823 72 72 54
-7.58238 -5.18022 20.0525 66 68 56
-1.64423 9.65632 17.0405 82 64 22
-6.3257 -3.58582 18.8174 68 71 52
-10.154 -5.8653 4.12771 63 73 63
-2.67374 8.26922 9.46072 7 21 1
-5.54391 -3.71712 -10.6847 54 69 44
-0.978119 17.6849 -5.83237 0 33 6
0.956528 16.3448 -15.9551 68 55 14
-2.12626 10.0961 4.79624 15 11 2
-4.79646 5.4371 7.08066 3 41 26
1.58251 13.185 14.0947 123 82 27
0.664436 -2.17465 11.3949 68 83 73
-5.08138 2.65147 -7.38137 1 26 4
-5.07625 -2.04997 9.4114 77 89 74
-0.214935 4.79252 -18.4858 0 2 0
1.02704 17.2228 -16.2126 32 41 24
0.100925 10.8514 -15.7769 0 7 1
-9.0347 -4.13284 -2.95005 21 66 60
-0.68539 14.0934 -5.84374 74 61 25
-0.24617 10.7425 25.0794 71 85 75
-0.512093 9.83286 -12.08 0 28 11
-0.786308 14.0697 2.11024 4 34 16
-9.95791 -5.22291 3.03789 70 88 77
-3.52878 -7.68109 3.30711 35 50 45
7.71868 -0.481907 -5.26247 1 20 10
-10.7688 -12.4008 5.19797 96 117 102
1.03772 9.70307 23.1168 67 78 69
0.595262 20.3969 36.5267 64 81 70
-9.82092 -2.66076 0.635582 74 71 53
0.0255508 23.4952 -8.57542 105 71 3
-8.33647 -0.620117 -3.0999 0 30 7
3.85314 -7.29342 0.460602 72 88 78
-7.64361 -18.7127 8.37923 66 70 55
-0.614567 13.9385 37.0299 76 90 79
-0.0899048 14.8514 -11.6613 40 38 21
-5.30767 5.84905 0.535843 0 6 0
-0.326366 15.4892 5.51786 3 24 12
-0.473377 23.5007 30.7166 61 71 63
-0.781406 9.43987 -8.12203 13 21 6
-2.55793 -2.91283 -14.3316 56 94 63
-6.93695 -7.70257 20.5119 75 92 82
-0.354065 19.8271 -7.56594 93 66 10
4.13992 -21.0077 -1.45502 57 62 49
-5.85501 2.18264 -6.13546 5 27 8
-4.91632 -1.94624 8.69979 64 77 64
-8.86516 -1.19523 0.284634 66 49 12
-0.991173 16.5904 2.42814 39 44 20
-8.22598 -0.454628 -3.28102 3 40 27
-0.847588 7.77738 -10.6035 43 52 39
-3.14803 6.82484 -4.8645 38 69 51
-0.163467 7.12687 -16.1358 5 13 0
-6.27857 2.68333 2.91148 0 34 20
-1.01785 14.788 -5.02792 0 41 19
-0.904091 20.7406 -4.87995 31 20 0
-2.52465 9.24205 5.36376 3 14 1
-5.57117 -21.4114 13.194 63 69 54
-1.40938 -7.58973 2.74253 71 85 75
-2.21932 4.53842 14.3615 66 74 62
-6.06749 4.71509 2.7429 6 42 24
3.00205 21.7775 31.0713 67 81 72
-10.0389 -4.24577 1.92444 73 86 77
-0.988274 17.3034 4.63967 1 14 3
-6.53777 2.0285 0.804992 23 56 45
-10.2841 -7.17234 5.27663 83 100 87
-10.2628 -6.42702 4.86352 82 100 86
-7.9767 -15.6665 7.1011 63 78 71
-4.24567 1.79534 -9.22195 23 75 57
0.572274 9.35623 23.4111 73 85 75
0.0924454 2.40184 17.9644 61 71 60
4.92888 4.81454 16.9452 66 78 68
1.96384 -17.1181 -35.1054 90 103 82
-1.00834 4.46315 -12.0765 48 37 5
1.28699 18.9706 -15.262 79 61 25
-0.270776 21.5531 34.9723 67 76 73
-5.7486 -3.55034 -10.131 84 103 83
-1.40446 9.34871 -5.36964 86 38 5
-0.332348 4.53476 -16.4593 1 30 17
-7.21252 -22.5565 14.4397 56 70 62
4.45033 -19.596 -43.4891 75 41 3
-1.30169 11.6017 23.8146 58 61 45
1.02379 22.9516 24.5152 120 114 81
-0.414513 15.9082 5.3879 16 38 28
-3.03473 15.8019 34.1277 54 64 53
-3.72931 3.23985 -8.63537 20 49 20
-0.63382 3.52639 -14.9527 3 35 29
-0.107933 12.5121 5.30996 73 66 30
-4.08352 7.02093 9.78394 1 4 1
-0.631531 16.4247 -6.4926 89 69 24
-4.3704 6.12732 -3.49027 2 7 1
-3.6595 3.44679 -8.44994 6 39 9
-0.660896 13.8033 3.70676 10 20 2
-1.03848 16.8046 -0.340024 44 38 7
-4.24791 -0.525196 -11.3324 4 49 26
-8.25463 -17.7265 7.97489 71 84 71
-0.0716019 9.73227 -13.9926 43 44 19
-1.06813 2.93998 -12.79 96 95 63
-7.57406 -9.50525 20.0696 76 92 83
1.3676 12.1972 13.0685 123 93 49
-0.388924 6.61027 -16.5756 8 26 22
6.47354 -7.63423 -0.537552 74 90 79
3.08858 9.12907 19.5017 69 83 73
0.200283 10.4723 -14.7979 4 13 0
-1.0687 13.7449 -1.57835 0 30 11
-7.56824 0.540596 -4.71985 7 50 38
-1.53324 6.97367 -8.6868 80 38 0
-6.86726 -1.01184 3.54162 67 58 30
-0.688709 23.6305 29.7063 61 70 58
-7.18039 -2.04492 14.1482 70 78 63
-0.704842 17.8595 6.73909 0 17 0
-1.75962 7.33716 -7.8025 85 52 3
-3.08934 17.2514 28.3864 66 74 59
-0.656384 15.6792 21.6312 94 72 22
-2.90018 7.36283 -5.03907 19 36 17
-2.21292 5.53354 -9.40685 0 8 3
-1.23859 -3.29028 -16.7328 41 64 16
1.70602 -16.5627 -33.8742 68 64 47
-6.9459 1.54418 -4.35986 2 15 3
-9.43581 -4.48451 -1.1933 11 70 49
-3.93145 4.66079 12.6226 62 70 57
-0.884945 10.8495 -6.719 33 51 32
-0.892969 -6.80141 3.44572 67 80 73
-3.75522 -8.359 2.19184 65 80 71
0.379635 12.0589 9.21414 62 40 4
-7.57427 -22.0692 14.9052 55 67 61
-1.38351 8.66473 14.6379 11 24 7
-0.655083 19.0334 6.1143 2 4 2
8.40803 -1.80625 -4.65234 25 37 27
-0.514252 3.89173 -17.2484 0 8 2
-7.49048 -21.3117 14.3479 51 62 52
-3.22649 -8.15585 -15.4032 6 63 45
-2.42445 9.21301 -2.48754 4 14 3
2.75665 -21.5077 -43.5886 60 75 64
-0.188423 -13.2448 -26.8848 87 91 69
-3.59174 7.07755 11.008 0 11 3
-9.65341 -4.91576 1.06156 55 66 58
-9.263 -17.839 9.14319 77 93 84
-0.180138 16.1918 20.3085 98 69 2
-0.867184 10.0461 -6.21957 61 59 40
-0.851246 10.2812 -5.53389 40 44 21
-0.626831 12.044 3.93665 63 48 10
2.88226 18.6523 31.509 62 75 65
-8.53546 -6.73741 19.8823 67 78 63
3.61403 -19.7846 -44.4566 96 92 67
-8.69542 -10.9859 3.14712 157 192 162
-3.25584 7.75415 -1.88071 10 38 23
-0.089859 15.1194 18.6583 83 54 6
0.884187 1.68844 18.8357 58 70 60
1.2364 11.5513 24.297 63 75 66
3.8907 7.19827 18.4371 67 80 69
-2.48497 17.0028 34.9555 66 81 70
-0.986473 2.20714 -15.2016 1 26 11
6.83235 -13.6699 -3.77293 65 77 66
-8.06668 -18.6559 9.24938 58 58 45
-4.99808 -0.249992 8.4101 77 88 74
-6.26821 4.01358 1.57907 7 38 20
-1.62185 7.99768 14.0009 1 12 0
-0.57637 19.8254 -7.18073 53 50 4
-4.23862 2.21958 -8.91377 7 48 24
-1.99374 -0.0229874 -13.8144 97 134 102
0.034584 11.0295 10.0992 65 43 0
-10.5736 -9.47416 5.79356 72 84 73
-11.6321 -19.0571 8.97944 71 84 74
-6.40287 1.92465 2.25084 5 42 32
1.28382 15.1445 16.1925 127 85 23
-1.81468 -12.9397 -19.3818 66 75 62
-5.52378 2.48679 11.9671 22 44 30
-2.70869 3.2742 -10.7055 2 23 2
3.09727 20.9013 30.185 53 65 57
-0.304344 11.8998 -11.1301 69 64 25
-10.2302 -4.71986 5.84249 67 68 51
0.5961 12.7514 -15.0505 2 40 18
-1.00998 7.35401 19.4796 55 62 51
-0.307606 21.7825 34.428 68 81 71
6.76781 -5.9803 -0.424774 46 75 64
-1.62997 3.785 -11.916 44 42 1
-1.3895 13.3939 25.3574 52 63 54
-9.24351 -1.60058 -0.023303 70 54 25
-1.64193 13.5224 31.3746 59 74 62
-1.24657 10.0706 -4.00252 82 36 0
-6.75587 1.89689 -4.00376 0 18 3
-3.08883 3.76162 13.4102 66 75 65
-1.11637 10.5548 6.21221 70 46 5
-7.65657 0.349022 -4.89969 4 38 23
5.91705 2.78962 7.52235 13 48 37
4.28852 -4.32711 1.63079 60 72 65
-1.0258 16.0831 -4.70865 2 16 6
-8.55743 -2.6423 -4.71422 16 70 51
1.32135 18.9498 34.7985 67 80 72
0.0998306 5.77143 -20.3087 2 3 3
2.70248 -20.9739 -42.9549 55 61 50
-0.850101 12.04 -2.84465 34 31 10
-0.697906 17.5417 -6.47886 78 70 16
2.78294 -20.6582 -43.1092 66 71 59
-7.00874 -3.47441 15.0224 81 97 83
6.38798 2.25902 6.10556 1 53 32
-4.46333 6.66949 9.44585 0 6 0
-4.16484 0.104706 -10.7698 10 31 11
0.39846 18.0731 -13.6272 3 29 11
-5.4469 4.21489 6.25791 16 54 38
-0.790031 8.77402 -9.17818 73 60 31
-0.126175 13.6468 16.2967 1 18 10
-3.59953 3.06182 -9.08569 27 49 19
-9.49947 -6.80928 7.55324 79 91 78
-10.4322 -6.25758 6.07141 65 74 67
-5.50907 3.2405 -5.59259 15 46 41
-4.2709 4.26491 -6.82001 6 38 16
-1.42383 10.8959 23.3992 60 54 36
-0.544029 -4.37091 -19.004 72 71 52
0.926067 18.4488 -14.5046 10 33 3
3.74298 3.04988 23.2963 84 78 66
-1.28843 9.26185 14.6107 13 25 8
-1.53106 3.06132 -12.5708 34 54 21
2.18535 10.6179 21.893 66 78 68
0.0306168 7.2174 -18.4439 15 45 35
7.94407 -20.3177 -1.62795 47 39 19
-2.83328 8.26213 -2.65104 10 24 3
-10.4103 -6.02856 6.23062 66 76 68
-0.464508 14.246 18.9619 87 60 8
-8.65266 -10.8515 18.26 81 90 71
-9.38538 -3.30949 -1.9262 3 59 46
-0.725838 18.5834 5.68206 14 21 5
-1.02787 14.9006 21.9419 83 77 50
-10.0522 -19.5327 10.968 66 75 68
-8.1185 -1.14957 -5.23659 17 84 66
0.00508118 12.6554 15.1252 1 18 24
0.172207 15.5509 18.1086 78 54 12
1.0096 1.7474 19.0158 59 71 60
0.507996 8.99854 -17.9699 1 2 0
7.01868 -8.27761 -0.834885 76 90 80
-8.17032 -0.204247 -3.28444 27 61 44
-0.770775 3.39684 -13.506 59 73 54
-0.685089 14.3319 -5.84181 78 62 25
-0.0675735 16.3211 -11.4186 0 7 1
-1.4752 18.9286 1.13684 1 11 0
1.85999 18.5158 33.9783 68 80 71
-4.34 -6.07182 5.7463 16 18 24
5.63534 5.95691 4.29354 7 40 26
0.0367889 14.8104 -12.0538 2 35 9
0.911702 15.7303 33.1865 67 81 71
-0.727272 10.161 -8.96408 0 13 0
-8.46635 -0.755241 -2.91972 5 29 9
-0.0399628 25.2488 -8.49933 79 85 69
-0.235878 12.2519 -11.286 73 62 33
3.6739 -18.6319 -41.0969 112 84 48
-0.737617 22.0506 33.7148 69 80 71
-1.10323 -14.2756 -22.5114 62 74 62
-0.548073 18.8424 6.79975 5 13 2
-6.09456 4.31324 0.725697 7 59 35
-7.25656 -3.00409 15.999 62 73 63
-4.69358 6.36461 9.3803 0 1 0
6.04764 5.14465 4.29928 0 27 11
-1.68798 19.9693 26.8245 81 91 70
1.21219 -1.20669 30.3383 72 84 74
1.41026 10.1597 22.866 65 77 68
-1.80029 9.21674 -5.02913 73 28 0
-7.3161 -0.463104 -6.62698 1 54 31
-5.6425 3.11259 -4.88477 19 63 49
-2.71126 8.22115 -4.00607 3 26 12
7.25622 -3.31903 -0.620667 6 34 25
-7.93047 -1.36655 2.94695 66 40 2
-6.36697 2.32968 1.83591 0 32 21
8.8363 -6.85163 -2.51991 29 62 51
-10.4968 -19.8 11.3464 60 73 64
-2.67952 -11.1316 -13.1091 54 68 58
0.941339 -0.930592 30.0234 73 87 76
1.11126 23.7946 30.0758 52 60 52
-0.775932 18.6012 39.2853 79 93 83
-0.514977 3.89764 -17.6388 0 20 10
-6.2407 3.87705 2.46503 2 51 38
-0.795647 15.3783 4.65841 11 23 2
-5.41833 -1.39324 15.9647 69 45 4
2.85225 8.08791 19.4999 70 84 73
6.20664 -5.21724 -0.237953 28 65 55
-4.17654 1.69908 -9.40904 49 77 55
-3.71683 4.70848 -6.99134 1 29 9
-8.39454 -0.555229 -1.11914 72 52 1
6.16821 2.92885 6.46529 4 43 37
-6.56543 0.881943 1.77793 46 69 58
-7.768 -10.3501 19.7352 78 95 85
-2.54473 16.1611 34.3725 61 71 61
-2.91258 5.60331 -7.81425 17 54 21
-0.732216 22.153 -4.82553 64 35 1
-0.668976 7.66189 -11.6665 30 38 17
-1.10899 16.6546 2.08979 10 31 19
-0.994936 14.8603 37.1466 72 86 78
8.52867 -8.32314 -2.50968 62 76 65
8.56073 -2.18596 -4.94104 1 61 47
2.17553 1.82882 23.7775 67 78 62
-0.3144 9.30941 -15.0659 13 43 27
4.87878 5.26678 16.8556 41 66 56
-5.12244 -6.91655 5.10525 14 14 19
-3.7618 7.54902 1.31126 1 0 2
0.325493 11.6365 13.6675 78 80 45
-9.26232 -7.72274 3.62242 119 152 133
-1.28581 9.46708 19.9061 64 72 57
2.7192 9.8582 20.3613 69 82 71
0.536575 11.9494 13.7722 80 58 19
-8.73828 -8.81155 19.6898 61 74 63
7.08666 -4.62836 -0.469048 3 56 43
6.71809 -12.3972 -2.80833 77 91 81
0.311321 8.52116 -16.7572 27 37 20
2.0318 1.28163 29.6496 70 79 68
-8.99633 -3.73046 6.01994 71 47 5
5.03584 -0.0248795 9.16976 27 61 52
-3.04144 6.80148 12.2752 3 17 1
-1.39991 13.5928 25.7096 52 62 53
0.493446 -6.85866 2.54935 62 75 64
-1.6154 9.62033 18.5416 54 59 47
3.03339 23.1592 30.4054 53 63 56
-4.99241 -1.07104 -10.7792 2 67 39
-0.374142 16.3079 21.3467 69 54 28
-3.18902 16.1883 32.5107 60 68 55
0.0100569 16.0163 36.1284 58 71 64
-1.01788 9.74218 14.2111 7 8 3
-0.445398 11.0025 25.3714 68 82 73
-6.08296 -5.51215 19.9625 58 69 60
0.305813 17.7774 38.2947 70 82 72
-9.93797 -9.75879 7.3372 73 88 77
-3.78357 6.43329 -3.84221 58 46 19
0.205847 15.9367 34.9716 57 70 62
-7.84239 -0.106277 0.506898 66 45 2
-6.07789 -5.74765 20.037 57 67 57
-6.24947 0.639042 3.51361 8 52 41
-1.80724 3.99707 14.9844 67 77 68
4.05072 21.8778 29.4741 69 81 72
-7.93398 -0.217262 -5.08148 9 48 34
-5.30388 4.29931 11.2448 1 37 21
0.132362 8.19406 -15.8995 52 49 33
-3.16109 16.0578 30.0014 64 74 62
3.46791 -21.2593 -49.0172 154 159 137
-6.13325 4.15185 3.0202 1 35 22
2.96995 11.6651 21.1246 67 81 71
-6.67522 -9.86261 20.0679 77 94 85
-5.70504 5.23798 2.04687 6 37 25
-1.48239 14.7718 24.3192 67 75 62
6.69233 3.15365 4.52957 10 45 33
-3.21771 5.17951 -7.46899 4 23 13
-10.3384 -5.84444 4.98662 86 104 87
8.58862 -20.688 -1.31496 49 40 24
-5.05918 0.0664711 8.64437 85 95 76
-1.50404 -11.6906 -22.0175 70 82 65
-0.833321 15.431 -5.68288 51 59 27
-0.923027 14.9157 -3.218 41 35 3
-8.5169 -9.52049 19.7406 58 73 64
-7.77889 0.204521 -4.72098 3 41 20
0.0610183 20.141 37.3093 68 81 73
-0.215508 23.132 -8.14084 48 41 2
-5.50119 1.35335 9.31957 90 95 76
-8.191 -0.213058 -0.405092 63 37 1
-10.4196 -7.03467 6.14122 61 75 64
-3.52297 7.69443 0.566878 0 2 1
1.10168 21.7131 22.9849 123 103 58
-8.44761 -10.7004 3.068 160 192 167
-6.78314 -6.73653 20.5381 74 89 80
-0.182663 19.75 -9.47987 5 19 2
0.642731 12.336 -16.1124 44 31 1
-5.29771 6.04652 2.04898 0 12 0
-10.0949 -20.6418 13.6632 65 77 69
-0.753288 9.91728 -6.56405 76 74 50
0.969012 21.9675 33.7065 72 82 75
-5.20109 2.75788 -6.95668 5 41 23
-6.03239 -3.35973 7.06298 72 71 56
-10.2854 -6.15044 4.83955 90 107 91
-5.59948 1.65637 5.20658 13 41 32
0.201263 8.37517 -16.2399 54 52 28
-0.480812 14.1199 -9.01578 89 72 32
-0.189766 21.4494 -8.16153 106 76 32
-3.43159 5.8554 12.6192 22 44 30
-2.21645 0.632637 15.4371 72 73 58
-8.86571 -21.6127 15.5532 67 82 73
-1.85657 9.47001 8.36124 0 1 1
6.5998 -6.14514 -0.379311 56 80 69
-0.610577 20.2086 24.5855 86 87 70
-4.29089 6.73389 8.93847 0 0 5
2.5399 2.92434 22.2652 65 73 61
-7.5287 -20.2051 13.0702 59 73 64
0.281593 4.78585 19.9187 52 62 52
0.728416 12.4152 10.2185 84 53 6
-7.13512 -2.51371 -7.71757 5 54 37
0.345596 5.93846 -20.5854 17 10 8
-2.60138 -7.68512 -16.7721 0 70 41
-7.07786 1.05931 -1.8499 55 38 2
-0.513314 16.1401 37.9348 68 80 74
-0.946411 4.63159 -12.3422 33 31 5
-1.95209 21.2514 27.3105 66 77 64
-1.44141 21.8399 2.11913 29 29 10
9.82808 -22.149 -0.826805 64 73 64
1.85036 12.7936 24.4267 65 77 67
0.188492 17.4854 38.6209 68 82 72
-11.3649 -17.2493 6.54783 91 110 97
0.735519 -14.7223 -29.9751 77 81 55
-0.0161009 -5.7331 4.53217 65 78 69
-7.84986 0.306046 -4.00453 0 29 17
6.16639 -12.1111 -2.55444 72 86 77
-6.41761 1.47105 2.22687 8 46 36
-0.586388 12.4539 -9.06605 1 10 0
-4.27064 2.70758 12.8031 63 71 58
2.0427 4.20755 20.9629 69 81 68
-1.30259 15.1311 37.5759 76 89 81
1.32245 14.4629 -16.786 72 59 24
-6.25714 3.81342 2.12967 1 43 29
1.97163 2.65553 26.343 80 78 60
0.117653 11.0733 10.7009 67 47 13
-6.69649 -0.773594 -7.69157 12 61 44
-6.02845 3.86051 3.88572 1 40 29
-4.55632 6.49929 9.97948 1 3 3
-2.97138 15.4539 35.1287 61 73 62
-1.19977 19.3139 -0.568369 50 34 2
1.91245 10.0716 21.9652 67 79 70
-2.22704 1.70847 14.9928 66 70 56
-1.18534 10.8097 5.48144 60 34 0
-8.05921 -19.9315 13.2476 60 74 66
-8.58343 -20.5955 14.7185 51 59 52
-0.633343 12.8215 -5.68757 51 47 22
-1.91536 19.9754 27.5738 80 83 66
-4.71673 -4.54353 8.03462 67 76 67
1.56392 -10.6823 -26.3619 129 53 17
-5.63682 5.23749 3.08655 31 41 21
-9.48004 -6.457 1.37043 55 65 57
-0.319232 7.43757 22.1423 54 65 56
