ply
format ascii 1.0
comment Created by Open3D
element vertex 1397
property double x
property double y
property double z
property uchar red
property uchar green
property uchar blue
end_header
-6.00028 -5.79216 19.9535 58 66 57
4.18316 -15.6038 -23.1947 66 61 39
2.98467 -22.2839 -46.7461 53 66 56
3.00471 -12.4137 -15.7386 63 68 52
1.7665 9.32486 -17.9427 1 0 2
2.65784 14.4395 -19.0431 55 36 4
3.39816 0.440788 -12.1701 7 35 2
-9.51003 -2.39148 -1.00085 51 77 65
4.51003 2.06441 15.2427 59 70 59
1.42578 16.1025 -17.1967 3 29 4
-2.33046 13.6025 33.3294 74 91 82
-0.651009 0.883299 -14.9451 65 75 62
3.64618 -14.3387 -20.1257 67 64 49
-0.335047 2.20893 -17.8026 76 82 63
7.45363 -15.9815 -8.39697 107 103 75
2.59847 -1.58675 -14.4407 17 40 21
1.55325 10.1021 -14.7811 0 27 14
4.64795 -2.34035 5.03402 59 70 63
0.106655 16.1785 19.5154 85 57 5
-1.51519 23.3258 1.03703 15 16 2
-2.15022 22.2376 27.9 83 94 77
5.78072 -11.5848 -7.76661 163 157 102
1.51675 5.42241 -12.2755 66 54 8
-8.27585 -1.71173 -5.2377 7 58 40
2.0717 22.7472 25.0174 92 93 66
1.53269 -11.6382 -27.6674 129 69 14
-7.65603 -4.60637 19.383 61 63 50
2.79424 -13.3425 -29.1622 96 56 15
6.21836 -4.29851 -0.193825 17 67 55
1.33704 18.1374 -4.35001 10 23 9
6.15278 -18.063 -9.51537 184 210 182
-7.37592 -21.668 14.5148 56 67 61
0.407776 17.043 4.33025 15 29 25
-0.550873 -0.689926 -17.8887 87 68 29
6.04299 1.78111 -4.37511 0 12 0
1.202 12.6862 -1.43034 57 46 10
1.63624 12.4579 2.04958 74 47 9
0.509499 18.8755 1.34236 13 19 0
3.59933 -5.86353 -14.7134 32 76 50
1.86104 10.3983 -18.5998 52 31 1
-0.386943 17.4765 39.1486 74 89 79
-0.475296 10.4456 -10.5555 75 60 26
-3.45385 -7.28346 -14.7599 1 63 39
7.49854 -4.34226 -0.682922 4 45 33
5.05351 -9.88103 -7.49216 159 179 147
-10.1876 -12.5698 7.6242 75 87 77
1.86066 -5.2569 -19.1793 99 64 7
0.559036 24.4882 -5.41885 18 29 18
3.93787 -0.726662 10.1509 55 67 59
2.0458 -12.0898 -28.1102 116 53 8
4.05924 -19.3981 -8.28297 91 107 92
2.11683 -12.2519 -13.278 59 69 59
-7.53308 0.895836 -3.94292 13 23 7
-11.8346 -21.5827 14.3711 65 81 69
-8.09934 -16.5544 6.05112 96 114 101
-0.201443 11.5263 -12.0461 11 24 8
-11.3178 -22.1883 7.01791 135 168 146
1.78923 12.7296 5.86617 113 76 34
2.61931 16.5358 30.517 60 71 62
4.4143 1.64487 12.0203 51 68 61
1.054 5.87172 -15.2989 47 35 18
1.57267 20.8427 34.0919 74 89 80
-0.2868 6.49136 -17.1317 10 40 27
-2.15065 21.9877 28.056 84 95 82
1.23942 5.12526 -13.0206 75 71 29
-1.74546 7.887 -7.11454 77 44 1
-10.5014 -20.9995 14.1495 59 72 64
8.15014 -22.0831 0.0297852 51 50 44
-9.16791 -18.8176 9.88444 68 77 70
6.76999 -2.22437 -1.0174 4 35 21
-2.84516 -4.83655 7.21683 57 72 64
4.944 5.53382 15.2381 49 75 63
-9.87482 -13.1045 3.83163 125 149 128
-3.04472 15.4531 31.0278 58 71 60
6.80179 -15.5074 -5.78027 73 84 73
2.83475 -13.8952 -16.679 61 69 60
2.46925 22.8335 31.7735 57 72 71
-1.2271 -14.1983 -20.5665 54 66 58
-8.03886 -1.2201 -5.58445 2 65 55
2.65495 -12.0203 -14.2216 58 67 55
6.28 -0.463149 3.0222 63 76 66
-8.86877 -8.43831 19.3905 53 64 55
-5.63376 -8.71143 20.0572 74 88 80
7.70006 -14.3087 -5.85561 61 72 62
-1.72052 21.5505 31.2092 67 82 71
-5.52705 3.27701 9.50291 2 34 23
0.666292 10.3446 -17.5473 23 42 19
-1.16748 23.4792 29.0518 62 70 57
5.20123 -18.6162 -29.9932 65 59 44
0.0365658 4.65478 19.1387 57 65 56
2.28727 1.81183 29.3021 63 73 60
1.05785 14.0465 -19.2156 1 6 1
6.71219 1.98444 1.27343 71 77 61
-8.19517 -2.51677 4.34499 64 39 0
8.24983 -6.31462 -5.52151 5 72 52
-2.08708 -7.0894 3.57227 64 79 70
-8.35155 -4.50323 -5.12732 3 84 67
0.0988197 15.4396 18.2543 78 52 9
0.270012 13.9709 29.3059 59 71 63
1.59344 11.2529 -4.33273 42 25 4
2.16739 -3.80592 -17.6513 88 117 119
3.90764 -19.847 -44.9915 93 66 29
6.6029 -14.1618 -4.23479 74 81 71
-0.0946274 13.3341 -11.5758 9 32 10
6.96062 -1.28136 -9.1334 15 64 45
3.13374 -1.14913 10.647 59 73 64
2.03922 -11.0133 -26.4819 109 49 15
2.59538 14.0884 -17.8086 0 1 0
-10.9108 -13.1896 6.252 68 82 71
-7.07005 -10.2661 3.25323 141 167 148
0.290501 4.46859 -20.3019 39 88 65
-9.52268 -20.1983 6.2744 160 199 176
1.5662 8.14072 -9.28481 85 55 3
4.20114 -20.8398 -1.62358 57 59 47
3.61713 -16.7222 -22.543 59 65 57
-0.0683403 5.37258 -17.2863 0 31 21
1.83407 14.0071 -10.0232 2 15 3
3.15659 -20.7903 -2.85963 48 50 35
0.545525 2.07536 18.559 59 70 60
-3.56646 7.52083 -0.278367 19 9 0
-0.643005 12.3357 2.00674 58 50 25
3.60822 -15.6977 -33.1108 73 34 0
-1.259 -1.09246 14.5185 69 85 75
2.90174 -18.6551 -40.1908 65 66 50
6.35902 -0.601753 -9.70605 1 61 27
3.22 -4.34187 -15.0828 45 62 54
-5.0721 4.59033 7.40543 15 44 33
4.65136 -16.1245 -29.4782 81 43 0
0.747757 11.9891 11.5778 61 35 1
1.1871 -18.6185 -30.9439 51 66 56
5.9559 -2.33689 -0.293571 13 53 42
-9.8441 -5.12924 2.34171 77 95 85
6.95668 -1.03355 -8.77428 9 63 43
2.95537 -21.5627 -48.2745 61 76 64
0.348988 23.2946 -9.56746 93 69 32
-5.90423 -9.01461 20.1043 79 92 84
-3.74875 -8.7169 -13.5934 4 62 43
2.23191 11.4561 11.4198 69 64 46
2.76839 -16.9359 -21.0554 69 82 72
-3.09425 -10.4497 -12.4567 61 70 61
2.37992 -5.9195 -19.073 29 69 53
-4.4208 3.26907 -7.72962 0 27 1
3.0069 16.6201 28.6085 61 74 66
4.47795 -11.9262 -2.96449 67 78 69
4.28568 1.44494 12.2541 54 70 62
-0.61644 -3.31006 -18.6988 46 52 31
1.36201 15.8445 -3.96096 7 22 6
-2.43918 -6.53991 -16.7647 22 53 44
-1.74371 -9.06932 -20.7444 89 93 69
-4.70924 6.16445 6.89288 7 29 11
1.18812 0.138737 27.313 111 107 71
4.98906 5.98553 14.1552 58 75 66
-9.41206 -7.30708 3.5807 90 117 101
-0.562847 -0.327459 -17.7474 70 65 38
-0.490034 21.746 34.4362 67 81 71
6.11053 2.90346 6.66599 5 44 36
-6.1235 -1.58277 5.45963 71 71 48
8.14901 -3.7373 -1.51257 1 32 15
1.79133 21.929 -14.4266 96 100 74
-1.50533 8.16115 14.7243 25 43 34
-3.21298 8.36942 1.84236 2 2 0
1.70761 10.5744 -8.27569 0 17 1
1.17233 1.21548 27.3547 101 95 57
1.76723 14.7281 -11.5383 8 52 27
-2.27261 3.49519 14.3551 65 74 62
3.40283 -17.347 -22.7863 60 71 61
0.911469 13.2129 14.7098 76 74 33
-0.0313535 3.27619 -19.2987 80 87 63
-2.74872 3.52576 -10.3388 6 29 10
3.29551 2.99853 26.2167 56 64 50
2.16553 18.7169 -15.2158 66 29 1
0.868828 2.85168 -18.148 52 38 5
-1.79969 -2.57398 -15.6793 2 44 19
2.89233 -0.337791 -13.2018 31 83 61
-0.927635 14.3479 -0.564099 3 19 1
-4.87768 5.64616 6.96396 2 45 33
-9.09355 -1.69226 1.15715 61 54 17
-0.0976562 22.3284 -10.9513 6 16 12
5.49393 1.10947 -9.26707 32 56 17
4.3345 -18.5088 -40.2299 84 40 0
1.57321 22.1878 -11.2318 72 57 8
3.7519 -20.5484 -2.63301 52 51 36
1.08224 15.4061 2.08022 34 36 2
7.55392 -17.6665 -8.97598 146 151 127
5.41645 -20.9353 -45.2269 97 80 30
5.09243 7.13941 2.64703 6 28 10
7.15002 0.593864 -4.68938 2 17 6
2.19456 16.0237 -15.2262 31 34 2
0.0322952 10.163 -14.1973 40 42 14
1.62298 15.931 32.1347 63 75 66
-2.37163 -7.37244 -17.3468 0 50 36
1.33794 10.5273 -9.0553 56 76 39
4.44026 -16.2917 -24.4788 68 59 38
6.69399 3.87482 3.35094 0 32 18
0.819817 19.3739 -6.51377 67 38 10
-2.96715 -9.89499 -16.0577 86 100 82
-11.121 -16.976 5.97802 105 128 115
-2.49227 -8.3335 -17.5522 81 97 79
4.97003 -18.5074 -6.46642 69 79 64
3.49438 -10.0467 -19.5784 72 44 4
-8.5623 -10.8312 19.1835 61 70 59
-10.5147 -21.1919 6.49363 158 191 165
-2.35951 1.13592 15.1941 71 71 53
-4.46967 -1.43748 -11.4059 8 70 40
0.272949 23.3519 31.6355 65 77 68
2.85477 9.70879 -2.23777 2 7 0
7.00943 -13.4361 -7.70045 129 89 11
1.16985 14.6299 5.04329 13 36 27
1.27305 24.0416 -11.2571 41 40 23
-10.2829 -4.68463 3.55512 77 88 72
2.78629 -9.15896 -22.185 112 54 5
-1.67828 21.0766 33.1602 66 80 70
-0.456136 20.7708 3.95387 53 41 14
-1.27556 9.4423 10.9994 20 45 33
6.07914 -18.6063 -4.60961 57 59 40
-4.58051 -2.35006 -11.7622 5 83 62
1.73727 -4.13962 6.16779 59 72 64
0.966156 15.5156 33.4773 64 78 67
-7.75805 -14.6744 6.26164 67 81 71
-2.90007 6.24739 -6.44036 3 26 6
1.98711 19.0259 -16.3708 78 43 10
7.98361 -2.3884 -7.39957 2 30 16
-2.06995 10.1801 0.884727 34 22 2
5.33415 1.88739 9.58089 63 78 67
-4.971 0.457815 -9.55909 23 78 59
5.98568 -1.21598 -10.9087 11 77 52
-0.182259 -1.67633 29.166 62 68 50
-2.24646 -1.04608 14.9954 72 89 79
-6.83054 -8.17556 6.52002 56 65 57
-10.6156 -15.8281 4.99109 107 131 114
-3.59228 7.73017 3.78684 15 34 28
-5.49673 -5.47904 -10.8198 84 111 92
-2.87795 -0.906827 15.0235 75 88 79
-1.01448 22.4631 -0.877427 62 30 0
-0.0552673 17.7594 -10.6949 36 41 19
4.44356 -17.6177 -9.13088 95 121 102
-2.8168 13.8425 36.6687 58 73 60
0.821274 -10.2054 -2.17445 67 81 71
-4.28831 -7.36538 4.0178 15 14 15
-1.47087 22.2336 0.746013 1 5 1
-7.66034 -11.814 6.60048 67 76 63
2.26549 22.826 25.3792 95 101 75
-2.41425 -6.96837 -17.2062 39 82 62
1.4559 14.4845 15.3871 141 86 16
0.989433 15.0131 0.626968 56 53 31
3.5079 -16.1774 -34.7945 95 50 0
-0.633263 10.8438 -9.09923 9 30 7
-5.62955 -5.07264 17.7598 66 78 67
5.02332 -17.8939 -6.7297 72 80 68
2.28137 -7.18063 -20.571 29 19 0
-0.721031 13.0785 1.67279 11 33 19
-0.895302 -13.3899 -24.0916 71 84 70
3.51713 3.74348 -8.52345 38 72 53
-11.2326 -15.8963 6.19357 101 122 106
-0.61455 19.8157 24.6101 86 87 63
6.44358 -14.142 -8.52364 178 166 121
-3.89835 7.25639 0.042099 0 0 1
4.8823 -23.1179 -46.1284 70 78 67
-6.45259 -0.534004 -7.99823 7 42 26
1.35545 13.4905 -2.17501 56 48 21
0.122246 20.7166 -0.758881 18 26 22
1.33099 9.55582 -10.6771 7 47 26
6.67505 2.24985 0.991692 76 79 56
7.24217 -1.26183 -8.25302 26 71 53
3.86865 -6.03543 0.948975 66 82 73
6.57533 -19.6363 -1.03723 55 51 30
0.279592 2.68162 18.3619 61 68 58
0.154976 6.06315 -18.9371 10 35 23
-3.51003 2.03973 13.3753 67 75 61
1.2083 17.5684 -4.58027 8 23 6
-0.0900688 20.6305 -9.30649 34 23 2
2.46996 -20.4357 -31.9338 52 63 53
-6.97589 -1.56569 12.2563 77 86 72
4.15323 -14.5325 -27.9109 79 45 5
-3.03175 15.0769 35.778 60 68 58
-5.03192 -20.6192 10.9553 103 121 109
-2.52355 14.284 36.9027 61 73 63
-0.829926 9.77126 -9.03703 20 33 14
4.16864 -15.3243 -23.1318 64 67 49
-0.949604 12.8425 26.9165 50 61 53
4.20377 -16.182 -7.78837 66 76 65
-4.44981 6.96223 5.33873 9 24 12
-2.07689 2.44876 -12.3807 10 38 16
0.736923 16.7909 34.9336 58 71 64
-1.21438 8.48682 18.847 56 66 57
5.39265 -19.0884 -31.5303 67 58 34
0.401062 0.259819 29.1042 63 59 45
-6.54445 -4.95187 19.9609 69 76 61
2.11555 18.5864 20.2865 136 123 81
1.48589 17.7171 34.4255 61 74 66
5.57449 -19.6373 -33.5587 66 55 34
-12.8398 -20.9262 8.96857 109 135 116
2.05512 -7.21951 -21.1752 102 48 3
-2.24047 6.669 -7.94834 1 13 0
0.246801 19.7842 5.27988 9 29 26
0.85487 -4.38578 -21.2446 134 71 8
1.49734 10.9541 -7.73973 22 38 22
-5.02064 5.46077 10.9967 4 35 21
7.94173 -8.61381 -1.37044 64 78 68
2.49151 17.0399 -16.5047 43 31 1
-5.98656 4.64867 3.43354 6 30 15
-1.48166 22.6662 0.923699 0 7 0
0.25174 8.30378 -19.0053 7 13 0
-0.192493 1.98347 -18.622 61 60 35
-2.56633 -0.502956 -13.0698 23 90 75
2.86707 4.04884 -9.78454 11 42 26
4.18617 3.94643 -7.31542 12 51 22
6.49746 -2.21189 -0.937386 4 32 17
1.46882 12.7238 -6.58179 23 34 17
1.87637 15.5856 -11.9685 2 58 30
2.53967 10.3447 21.0433 61 73 63
6.87542 -17.5982 -9.4347 170 188 158
-3.42434 -9.31708 -11.4556 60 73 66
-1.21751 19.0258 -2.18282 5 15 2
2.93184 -7.8889 -19.0379 5 13 12
-10.227 -20.5736 6.38191 165 196 176
3.59 -8.7871 -12.1898 10 47 38
2.02113 2.59815 25.9934 86 92 69
4.22973 -5.86547 -12.2636 23 88 68
-1.26619 1.05965 -14.3082 18 49 24
4.58755 8.98373 8.31282 0 44 27
-2.34693 -4.92118 -15.8108 27 50 27
-0.520057 11.4591 5.92271 62 35 1
-0.357277 18.0169 -9.81989 6 19 5
0.996696 21.4358 -14.5467 60 57 43
-0.354931 -0.284143 -18.882 93 83 52
0.311958 24.5206 -4.5251 79 35 1
-0.29813 20.3377 2.82428 7 29 21
-3.24074 7.51675 -0.715878 42 29 0
2.63788 14.5626 -18.697 43 29 3
-12.7361 -20.1973 9.97315 66 78 69
1.92992 17.5532 -12.3428 5 2 2
-6.36056 -6.8531 -5.2917 1 89 69
1.16867 15.9518 17.0277 116 81 21
5.13982 5.27511 12.2945 13 64 51
2.51069 -12.5904 -14.3692 57 66 56
4.84105 7.22101 3.02928 5 25 2
6.37471 -5.95491 -8.52841 75 106 92
-0.769203 4.74333 17.034 57 68 58
-3.56122 -6.09478 5.59103 20 19 28
5.31502 -20.1349 -42.5662 73 40 14
-1.36839 10.2374 -3.2392 77 36 1
1.06043 2.20192 19.3316 59 69 61
-1.33792 12.6864 19.5225 80 67 27
-1.3458 10.3837 -2.60384 65 30 1
4.91831 2.71373 -8.34912 4 9 2
6.25249 -3.20044 -0.315048 6 46 34
-0.401695 20.6214 24.1657 92 86 57
-5.7803 -2.29067 -9.89497 0 56 37
2.80918 -8.46099 -20.3691 3 14 9
4.59117 -15.1811 -24.7054 64 62 51
4.72135 -16.7387 -32.6608 68 34 0
1.57124 8.29522 -8.92054 68 41 0
4.63901 -6.24349 0.342705 69 80 73
4.36086 -13.5759 -5.0272 71 81 71
2.06611 19.7092 -13.7334 27 16 4
3.11108 -15.8961 -19.8876 64 75 65
3.34074 -1.3858 10.2442 62 76 67
3.37078 19.8597 30.1742 68 81 73
-2.021 -7.28571 -18.7604 25 59 61
-3.89552 3.68617 12.7368 64 71 62
-3.02013 -5.8229 5.76331 22 28 32
-0.642784 12.804 -5.93593 23 28 6
2.76996 16.6284 30.0237 59 70 61
2.06519 -8.21019 0.534607 69 83 73
5.13663 -19.9983 -43.2469 70 42 7
-0.450195 -4.22219 7.61337 67 81 71
-0.129654 17.332 -10.4538 32 43 16
-0.763428 15.9171 3.47278 0 23 0
3.29597 -0.307129 -12.8295 12 59 30
-12.544 -21.2559 8.4964 93 111 97
2.69297 21.475 23.8531 169 178 160
7.32616 -22.4537 -8.35239 179 212 184
2.3849 21.697 32.6482 65 81 73
-0.473259 -2.67567 -19.5768 62 44 8
1.53262 14.0141 -5.69859 6 11 1
3.67062 -3.93433 3.33007 54 68 60
0.625008 -11.7682 -27.4283 152 115 51
2.86252 -17.2948 -21.76 68 80 71
-8.043 -20.482 6.82568 139 174 156
0.514275 16.4295 34.8569 61 74 67
2.34572 14.1927 15.5963 77 84 59
8.42302 -19.378 -3.38702 54 37 6
2.80214 -10.0368 -23.675 88 56 8
-1.0057 16.8591 3.72995 1 25 10
8.79497 -4.85929 -2.51546 65 76 66
2.47208 -1.40309 11.013 61 73 64
6.51213 -16.9073 -6.3109 86 98 85
-8.91605 -17.7695 8.98519 79 92 81
-0.998352 11.4389 16.992 92 55 6
2.57063 5.72936 -9.54129 78 46 5
0.425518 21.3111 23.252 117 102 50
-9.9306 -6.51297 3.83618 84 103 87
-1.10821 0.985451 16.2489 73 81 70
-1.82234 18.2243 38.795 57 65 56
-0.361794 14.2136 18.1875 88 55 6
2.02744 10.731 -2.77071 125 85 45
1.87341 0.809502 26.4195 92 102 81
-2.61686 7.84014 -5.03673 7 35 25
1.94365 9.59406 -18.5231 0 1 0
3.52927 19.0826 29.0211 65 77 69
2.39586 11.1549 1.54153 5 11 4
-0.898125 -8.44836 -22.3161 86 78 28
2.65009 20.8757 31.12 66 80 71
3.5103 19.2483 26.8875 119 141 124
1.03951 15.1336 33.3157 63 74 63
-9.8078 -5.45752 7.02234 81 82 68
1.24947 21.0393 34.5246 69 84 74
-1.40947 21.6469 2.22036 37 34 14
3.44378 0.880451 14.5639 54 64 54
-6.85243 -21.0963 13.4069 65 72 63
0.0871201 13.9085 16.1322 4 24 17
0.470886 0.554741 28.3467 94 75 36
5.5906 -5.68394 0.0165405 70 86 76
-7.89004 -18.4073 7.10668 93 114 102
2.28639 -9.34431 -23.5572 91 40 10
1.95242 21.4647 -13.2524 21 24 11
-7.86564 -11.2869 3.041 167 196 174
-10.9313 -16.3582 8.05175 73 85 75
1.93704 12.4543 4.51092 69 45 4
4.00341 -6.23127 -13.2942 2 46 27
-6.96975 -3.93294 7.07786 80 74 49
0.810081 21.5621 23.0686 131 111 54
-2.58434 -8.22688 -17.2056 83 103 85
1.42352 3.56784 -13.6113 122 93 44
4.41168 2.77536 -8.99673 9 5 4
0.506142 12.4093 -14.9571 22 52 31
1.09837 13.8638 -16.3869 67 58 31
5.62086 -15.9459 -9.72153 255 253 215
2.56139 5.60104 -9.89961 81 59 18
0.847519 -2.42702 -20.159 111 102 63
-1.17573 13.3438 31.7376 62 75 67
3.76682 -1.47357 29.9159 77 92 79
5.07348 -3.19936 -11.9745 3 105 82
-0.834045 2.22832 -14.5758 17 25 6
-6.68053 -2.86792 -8.42744 10 79 56
-2.39311 -2.80828 -14.5242 14 73 47
0.835922 5.83203 -13.3799 77 66 35
-12.1404 -19.9101 10.221 67 79 69
6.72389 1.43082 3.38249 63 75 64
-7.07294 1.27831 -4.54059 5 17 0
-2.24083 -6.1038 -16.9576 0 41 21
-5.6999 1.16363 5.06824 18 56 44
-0.263 9.15659 -13.5148 52 53 25
-3.04443 7.95267 8.25907 1 17 2
1.46476 22.9035 -9.80584 18 26 21
1.82512 12.5989 7.93001 57 36 0
4.02856 -1.67571 -12.7804 0 95 68
-2.56624 17.515 34.3877 71 86 74
-4.22204 -6.07528 -12.6204 1 56 37
-0.720512 -6.25105 -20.9146 105 94 52
-5.51745 5.02496 -1.7558 28 40 25
1.24033 -3.39997 8.39672 64 80 71
5.81914 -12.4768 -8.19585 157 135 80
1.98761 1.29534 -14.5442 143 81 1
2.11367 3.30603 21.0883 70 84 71
-5.16185 -22.2025 13.2246 59 72 61
0.924713 4.76412 -17.3139 0 3 1
8.05814 -4.82759 -7.13989 6 72 47
0.403091 19.4082 1.42889 4 21 3
-4.69338 -6.78242 -10.2924 46 62 55
0.159647 7.35566 -18.861 8 34 20
1.81331 2.54142 27.8416 65 64 48
1.67004 -4.92662 4.51433 63 79 70
1.58595 1.45839 19.5438 55 65 57
-3.55208 7.91594 2.08101 1 4 0
3.23926 -2.57399 7.88156 59 74 65
6.90636 -19.216 -2.12687 50 40 20
-0.942131 11.2281 -3.8966 66 69 47
-9.45504 -7.64635 7.69747 79 87 78
0.812828 25.06 -7.7894 71 32 0
4.47038 0.732849 -10.9302 39 50 27
-4.72929 -21.949 12.2973 70 83 75
-1.92409 9.54615 8.97458 0 3 0
-1.20568 -7.00011 3.35524 66 79 71
4.88332 0.32457 -10.9553 14 51 3
6.29657 0.0909548 0.307648 70 73 66
1.41213 17.2181 -10.2176 34 36 31
2.06662 -1.42208 -15.931 60 44 0
5.55336 -10.4317 -1.35385 74 90 80
6.58316 1.48811 -4.69397 0 0 1
-0.177879 19.9452 -10.0116 50 39 7
0.725435 4.33138 -20.3057 106 116 88
1.16762 2.15416 -15.2147 53 51 38
6.19868 0.422104 -9.18247 20 51 7
4.26513 -17.0713 -8.189 64 74 65
3.92461 21.5182 29.3699 64 78 70
-0.0512238 5.74319 20.3945 49 58 47
1.98279 13.6062 -14.8521 18 38 16
1.16629 16.4602 -6.34936 49 27 7
-2.4463 16.2966 37.355 56 62 55
-8.15511 -2.62111 -5.81868 4 45 20
5.43462 6.48827 1.6208 14 38 24
-6.90159 -3.82116 15.2788 82 104 90
-1.06231 24.2521 -0.342495 76 42 1
-6.76819 0.324699 -6.87873 7 40 25
3.23769 -2.06957 30.5192 69 79 67
2.00643 12.4769 9.47879 57 43 18
3.71581 1.22049 -11.3413 4 34 0
-10.1219 -6.65104 4.48428 95 112 100
0.876808 21.604 -6.10398 11 19 4
2.42298 3.89913 -11.8394 83 65 19
3.69837 8.3235 0.914619 3 22 10
1.19328 6.11377 -12.2545 105 80 12
-0.693214 10.3406 -8.78858 1 18 3
5.05612 -17.6246 -28.8482 67 60 41
1.40095 14.9244 -2.77113 17 29 16
-0.92886 -14.2756 -23.7553 76 84 72
-5.91471 -3.75108 -10.0351 83 89 69
-0.636383 -2.62567 -16.6907 88 95 71
2.72502 -9.36757 -22.503 108 62 7
5.40924 -18.7938 -31.5049 72 54 19
-4.51331 -3.17322 8.88544 57 70 59
3.09605 0.665619 -12.26 37 87 52
-0.453991 -12.6373 -26.0394 89 91 68
-8.75143 -17.208 8.63013 76 88 77
-0.122421 -0.545914 -19.4209 75 78 57
1.14142 6.63049 -18.992 49 39 11
2.90014 7.43592 -6.4504 11 35 9
-0.412875 24.8121 -0.748222 50 37 17
6.5653 0.906235 -8.40427 33 60 33
-8.87787 -2.37956 -3.7396 47 103 92
3.46534 1.15134 -11.481 19 42 2
-6.5518 -3.18226 18.525 72 62 38
0.444826 12.1223 25.9672 62 74 65
-5.89381 -6.22933 18.1493 118 140 124
1.17873 14.5174 2.02396 43 43 17
3.63182 -15.0718 -20.5081 63 69 53
-5.31651 1.51834 12.4582 62 65 48
-0.397732 4.32038 -16.1149 1 33 19
0.84169 7.48129 -12.2113 54 42 3
0.790525 -17.6392 -30.7263 64 73 59
1.73725 7.15738 -9.36967 111 84 40
-9.68393 -5.49354 1.66175 79 98 85
2.22681 -16.2272 -19.2512 68 80 70
-0.411827 16.9171 -9.5943 2 32 17
1.81484 -7.69351 -21.9963 123 57 15
2.71775 10.5604 20.8922 67 81 71
-7.04448 -0.517216 2.64288 67 53 20
-1.2236 17.5771 24.4541 95 81 43
2.92122 -20.8725 -44.1273 75 92 74
-0.717831 -13.2637 -24.9887 73 86 73
0.78714 12.7538 10.3448 69 49 14
5.68913 4.31459 7.49475 16 55 45
3.0639 19.3512 31.0687 64 78 69
-1.28321 3.7706 -12.368 81 64 25
-2.17509 13.8524 37.504 68 78 68
-0.595528 5.91933 -14.9533 2 23 10
-3.46137 -5.78807 -14.6792 3 65 43
-2.52961 17.9038 37.9525 61 72 62
-1.70797 2.62658 15.3463 71 78 68
-1.76443 9.91709 -3.0174 67 29 1
3.48674 -14.2577 -29.7891 82 37 8
4.19871 3.59768 20.1237 70 77 66
-1.90135 13.4944 32.2911 76 88 78
2.8898 -11.1244 -13.6174 64 69 59
-0.823318 6.16438 18.3411 57 67 57
3.16235 2.35388 -10.8164 41 58 40
-0.167236 16.781 20.9319 84 63 13
4.55398 -18.7538 -28.1714 56 64 55
6.50199 -0.400941 -9.30141 17 76 52
4.71747 -14.7743 -5.52798 61 71 61
-8.12001 -20.934 14.7172 53 62 52
0.0730591 11.0031 10.6167 65 45 9
-7.56623 -0.013504 -5.92631 2 54 32
-0.530426 3.94011 -15.4185 1 36 28
-10.9028 -20.7079 13.4649 68 81 72
2.65472 -12.9527 -15.3457 60 67 57
0.783928 15.5101 33.8015 62 76 66
2.42358 -11.3801 -12.9761 56 64 54
0.310181 20.1552 0.980721 49 34 4
4.1418 3.57197 -7.84258 48 63 21
-3.59006 -7.89462 3.04876 48 65 58
-1.375 9.46679 20.6328 71 75 59
1.02299 12.516 -19.0452 1 34 0
-7.70112 -4.10092 18.2226 55 54 35
3.41936 8.32628 18.7434 66 81 70
-0.796506 11.8722 16.3397 14 22 9
0.525082 17.9256 37.5145 68 83 74
2.82285 -1.30222 30.7865 70 82 74
-0.376984 -6.76034 3.24837 67 82 73
-0.0719833 6.43031 -17.8029 3 41 22
6.50279 1.94656 4.9635 23 60 49
4.19695 1.43568 16.0657 65 77 67
3.11481 1.17795 -11.8989 22 35 23
2.62379 -3.1274 7.54684 59 73 64
-1.67639 5.86757 -9.82026 71 42 0
5.56568 -18.3351 -5.86131 69 72 60
-0.565907 23.1611 26.679 107 115 89
-2.48727 15.0863 29.9267 59 72 58
2.49483 21.2353 -14.5042 50 42 29
-6.75432 0.431393 -6.62185 2 45 23
1.87682 6.49154 21.0199 75 87 76
0.301308 16.9736 3.26632 81 56 1
4.44566 -1.26314 -12.4839 2 80 43
-6.74629 -0.823795 11.4919 78 59 18
-7.07521 -2.24326 -7.66196 6 44 30
2.46398 -9.09151 -22.6239 111 70 14
-7.12331 -1.19883 12.7076 75 71 51
1.67904 1.01987 -15.003 112 86 25
-1.87076 -6.26741 -18.2628 54 81 72
-6.65879 -3.78884 19.0639 75 74 54
-1.23297 25.5809 -2.56808 39 23 3
0.0560532 8.76665 -15.5785 85 110 89
-6.40472 -2.47437 17.5219 64 53 29
-0.23864 14.5041 5.7913 0 15 1
0.574173 -2.21557 11.3802 68 83 73
1.57919 17.2717 -8.53355 6 30 6
1.80343 -12.4856 -28.8658 131 71 15
0.81675 -1.82101 12.0544 69 83 73
1.68881 21.9576 -13.078 53 29 5
-1.90647 21.6352 31.7188 88 104 91
-3.89843 -6.48526 -13.7108 0 67 48
-0.728691 12.4389 -6.35831 3 16 0
6.5339 -15.2054 -5.35369 74 85 76
7.09404 -20.6119 -0.611626 64 59 37
-0.672873 24.1793 -7.19213 0 27 8
2.32365 -21.7171 -3.87653 83 94 73
5.16511 4.18731 13.072 60 78 68
5.05486 1.25118 -9.98357 9 43 19
1.18715 11.5596 -18.8801 51 76 37
4.00049 -0.501961 -12.3674 0 50 8
-0.2616 14.1297 17.5636 73 53 5
-3.39945 4.92196 12.9305 67 71 58
-1.04637 21.5753 34.2928 63 76 66
-5.03483 -0.514229 7.51632 71 80 69
2.39362 -3.73059 -16.5272 4 20 2
6.71554 -0.915188 -9.27995 15 58 41
2.00837 23.6724 29.5065 50 58 50
3.64353 1.50744 -11.1669 0 29 8
-10.0141 -3.13437 0.565002 73 82 64
1.95368 2.66709 27.2807 83 80 56
4.96011 8.07179 11.4011 4 48 36
5.60464 2.46807 -6.92516 16 34 11
-12.5534 -22.4274 8.61923 96 118 100
5.28549 2.07044 -8.69682 0 27 1
-8.40636 -10.0961 19.6451 63 80 72
2.0704 11.9871 -17.9889 44 50 18
-2.16717 23.0264 29.6283 51 62 55
-0.599308 11.8225 -9.05837 1 14 3
5.86356 5.00911 5.86794 19 45 33
-1.28755 13.6156 29.0594 47 56 48
1.13189 13.409 14.6485 113 76 13
-3.88568 7.23611 -0.461891 1 3 0
-0.118233 0.369143 16.6451 70 86 77
1.99943 18.9764 -15.0118 72 36 0
-0.549194 17.8275 -8.73183 0 7 4
1.06131 14.8967 4.23709 8 28 15
2.50382 22.4735 25.2409 105 115 94
-7.99985 0.0514712 -2.32178 59 53 21
3.92133 1.87298 -10.4092 5 33 14
2.66161 -0.035553 -13.3546 3 33 18
-0.702415 13.5228 37.1747 72 89 77
6.2874 0.169556 -9.26484 41 82 50
-0.0335789 4.01293 18.2231 58 67 59
-9.89272 -20.1012 12.8733 59 71 63
4.86273 6.3536 15.834 20 57 50
1.6588 1.90286 26.6654 79 75 54
3.66893 0.183556 -12.0522 1 34 2
4.50095 -16.7733 -33.8372 91 46 0
3.95929 -12.5474 -23.3347 70 39 0
2.70596 19.3333 31.7217 63 76 65
3.01395 -0.0610352 -12.9379 3 54 23
2.31704 3.07561 -12.8451 120 91 44
-9.18261 -3.65157 5.63751 68 43 6
-1.01744 15.0818 22.1889 81 77 56
-5.60658 1.51942 -7.6677 3 55 23
4.32441 2.50849 23.1609 77 82 65
4.45878 2.24613 24.1075 65 76 65
-9.61787 -17.9956 5.61145 155 186 165
-3.22243 -6.10516 -15.0837 0 48 23
-5.6908 -1.46835 16.1125 69 40 1
10.5381 -22.7861 -3.22424 61 74 66
-8.68483 -10.1035 18.2186 105 104 79
-0.748108 13.4134 -5.25597 76 67 41
-1.04013 12.1536 18.1443 98 63 11
1.74537 2.30302 26.7853 65 62 41
-2.65678 18.6301 28.1535 83 88 67
1.604 2.81026 20.3953 62 72 64
-1.73381 -5.11392 -17.2493 8 42 19
3.61882 -7.89848 -15.1491 5 43 22
2.31839 -7.10403 1.19853 69 85 75
1.0819 14.5204 -5.4267 66 42 5
-0.273361 18.9249 -9.02723 2 12 1
0.231867 -10.425 -25.6107 125 84 21
2.82016 -17.6427 -22.2105 64 75 66
0.541389 16.8539 -2.79935 90 79 45
4.58717 -10.8997 -8.2411 164 170 133
0.63765 13.1269 -18.5837 0 10 0
3.96573 4.83159 -6.32552 6 18 0
-10.1797 -7.94469 6.96097 71 82 72
-10.1588 -17.9821 5.59496 155 187 165
-0.821815 14.5005 -8.12414 3 24 8
2.30885 12.0453 5.79197 35 30 8
-3.0209 -7.54031 3.26901 59 79 70
5.0283 2.76701 10.3157 64 74 63
0.371223 20.4364 22.3973 126 97 29
-1.94857 -0.868163 15.1917 71 87 78
-0.322144 9.02837 -12.907 52 55 28
1.10199 -14.6738 -30.6143 93 87 65
0.479141 20.3047 -12.3568 70 50 18
5.22518 5.43416 -1.998 8 24 5
1.77888 -9.27439 -24.1931 133 62 10
-8.01879 -18.446 6.8037 95 115 102
3.08266 0.467504 26.7662 67 87 76
-3.44855 14.6333 34.4567 59 73 61
3.30765 -21.792 -6.31122 92 111 93
-1.32462 21.3185 -2.1836 4 19 6
3.87766 3.09167 -8.86355 8 26 2
8.85001 -7.79247 -3.43762 52 86 73
3.6099 7.33411 -3.20049 15 37 22
-2.45634 17.5752 38.4366 59 70 61
-0.307091 11.1119 -11.6807 11 19 2
-0.953629 14.6378 -3.80081 0 23 6
-1.6741 3.54559 -12.1121 29 35 0
2.24277 -12.883 -14.264 60 70 62
4.12556 3.30187 -8.34729 3 25 5
2.84641 -21.3124 -2.48618 58 66 56
0.429855 21.7389 -3.88536 78 53 5
-4.20849 -7.68667 -8.16326 58 75 65
4.88179 2.54614 15.9864 60 71 61
-1.46529 10.9091 2.23313 62 33 1
1.04919 23.9495 28.2619 63 71 58
2.13699 14.8257 -15.6434 39 48 10
1.42675 5.82954 -12.1093 110 79 19
-9.90685 -14.4466 8.2806 82 95 86
-7.84011 -9.10488 3.04006 174 206 183
-2.11971 22.5483 30.284 63 76 66
-1.55543 8.76083 16.0557 86 54 7
-6.03279 4.56795 1.13011 0 35 23
0.978836 1.94736 -16.1481 54 40 0
-0.338928 18.6483 -9.10931 12 20 0
1.70583 22.5223 -10.2701 10 19 11
-2.63841 -2.09432 -13.7984 4 61 36
2.24397 -11.9545 -13.1541 58 69 58
-7.97689 -9.76025 17.868 143 111 34
-2.27858 5.11016 -9.76807 14 32 16
-2.78364 3.10806 -10.7089 9 38 13
2.02614 1.58726 20.6939 53 65 55
4.49426 4.5158 18.2435 67 77 69
-0.840286 13.23 -7.40143 0 12 2
0.0728683 2.57105 -20.0531 69 45 2
10.3906 -21.2817 -3.83398 111 111 81
-8.55158 -1.25712 1.69355 61 39 0
-8.8482 -5.99118 7.68122 78 81 66
-6.46729 2.36401 -1.23711 37 61 49
0.285484 21.6834 -0.943146 8 14 2
-6.47978 -9.61849 4.35635 66 74 62
1.95591 15.5681 31.2686 58 71 61
-8.52141 -14.5223 7.78862 70 80 71
-2.65093 15.7646 35.2768 55 66 56
0.0472298 -6.13638 3.81635 69 82 77
2.76172 22.2308 25.3758 94 104 86
4.61965 2.47809 19.7662 65 76 66
5.37619 -6.91782 -0.00982666 73 87 77
-9.3811 -5.92406 -1.5964 3 68 48
1.17854 5.18164 -13.7044 58 36 3
4.81889 -13.6626 -4.2304 68 78 67
-0.362076 15.2809 -9.41199 30 39 16
5.32373 3.08539 9.26032 66 75 62
-0.311768 11.2646 14.0137 4 17 10
-0.318579 -7.12624 -21.9857 127 113 56
3.28686 -3.53836 5.17155 58 72 62
1.33811 7.98614 -18.0098 36 44 31
6.26241 1.13006 -8.49281 60 78 38
1.55354 12.8079 11.3675 51 54 42
0.400814 -14.7941 -28.9192 87 78 57
-10.2844 -3.90935 3.27249 63 72 62
-0.994371 11.7384 25.264 56 68 57
-1.11915 17.571 -2.62334 6 30 9
-5.96104 3.31425 -3.91294 7 64 44
-5.20037 0.419577 -9.38142 4 60 40
4.20811 -1.90331 -12.6447 5 101 75
3.00003 4.96722 20.7096 74 87 73
-7.85827 -10.7269 2.99703 170 203 178
1.81868 -8.32397 -22.7493 108 51 8
1.7044 12.1576 11.7016 59 42 21
2.52029 -4.57883 -17.4004 47 78 77
0.667397 16.6534 34.1268 74 91 80
1.00929 2.03345 -16.882 56 28 4
2.65748 8.07033 -6.10858 42 28 3
-0.156305 8.6016 -15.0724 1 43 23
0.909447 -8.47011 0.581558 70 84 74
2.23799 12.6662 23.4529 67 78 68
-0.510658 12.4674 -10.514 16 41 26
0.987854 5.02133 -18.0087 0 10 4
-5.45227 0.63995 6.40972 61 73 63
0.822403 3.93811 -18.0297 7 23 14
1.65153 15.0793 15.9591 153 86 12
3.37817 19.3089 30.1171 65 78 70
-0.591743 -0.873154 -17.6537 74 59 26
5.85271 -1.97165 1.77095 64 75 68
-9.88107 -6.04842 7.19719 82 91 77
-2.67021 18.9637 28.6595 81 87 64
-5.77237 -5.53631 17.9472 83 99 85
-4.243 -4.89474 -13.1718 0 50 29
-2.11279 21.6171 28.5774 59 71 60
-0.759283 23.5898 30.0262 59 70 58
2.38306 15.8795 -16.1309 30 25 3
-10.6333 -9.1569 5.34259 63 74 62
1.34914 3.20183 -14.2775 21 27 15
-7.6068 -18.7396 7.88652 72 84 73
-8.97726 -3.19614 4.86708 64 39 1
-5.03165 -7.13573 4.73383 14 14 19
-1.23479 26.0379 -2.95723 29 26 12
-1.86466 -11.6379 -20.0536 73 85 70
-1.08138 14.8476 -4.31158 0 14 2
-3.7317 -0.853691 -11.9576 1 59 29
-2.02538 6.41756 14.0539 3 35 24
2.56764 -19.8102 -40.8161 78 92 79
5.17566 2.30014 -8.59425 0 28 6
3.52729 11.5476 15.3355 22 70 56
-1.16614 9.51714 22.9754 56 62 50
4.8327 6.71692 -0.188126 0 14 2
-10.0376 -3.04996 1.46977 67 73 62
4.99529 -17.9454 -35.33 64 44 8
-0.834892 14.0989 1.60679 1 25 8
-1.4535 23.3688 30.3855 57 63 59
-11.0614 -21.4554 14.4815 69 83 73
3.34532 -6.91703 -16.3724 25 49 25
1.43013 10.9523 -14.245 13 12 1
-0.527321 9.70971 -11.7311 2 18 5
0.130722 19.7263 -0.438164 34 39 22
-11.5121 -17.7256 7.96603 73 87 75
-1.04252 21.4708 -3.53141 25 35 7
-0.292732 14.6004 36.4207 70 84 73
0.702698 20.1677 -4.1068 10 17 12
-0.930454 15.9715 -3.42414 40 33 1
1.63801 9.30758 22.0298 68 80 71
2.95337 -21.8721 -37.3776 55 69 60
5.46198 6.41061 3.80323 7 19 3
-3.82967 -7.3157 -13.8314 62 129 109
0.936073 -5.27895 -21.4666 150 129 79
-1.34296 4.56889 15.5769 64 75 64
5.28533 0.807053 -10.2014 4 42 23
0.890728 15.5442 -2.36742 70 51 26
4.65398 -17.0606 -7.01169 66 78 67
0.360054 16.4927 19.1963 92 58 4
5.46517 -21.9629 -45.7447 129 139 113
-0.37133 1.97947 -17.4739 71 76 58
1.52277 -13.2051 -13.8603 65 78 67
0.840561 0.373597 -18.9683 58 56 43
-2.04131 13.6884 31.9253 57 74 62
7.34082 -15.3176 -8.40383 126 123 91
4.67694 -16.6807 -32.2837 68 37 4
-2.47466 15.6258 28.2437 131 144 133
2.56746 -9.856 -23.8473 97 50 11
2.98369 -7.57306 -18.6588 4 44 27
4.48131 -17.1349 -35.5356 106 48 4
1.08668 14.3831 7.37686 37 48 34
-4.04341 2.96866 12.8876 64 71 55
4.7493 -3.72044 -12.0334 4 105 77
1.54665 11.2747 -5.69002 6 26 6
-0.895668 2.14006 -15.5792 33 55 42
5.88341 -17.2322 -9.67377 179 215 183
2.2328 -15.5218 -18.073 66 78 68
1.81186 10.7567 -4.47197 52 42 10
-10.3819 -13.1654 7.60484 75 86 76
0.152843 14.2188 -12.4344 50 57 27
-0.606659 3.69916 -14.6028 19 52 39
-0.845749 -0.962721 14.7509 68 83 73
1.59102 7.83533 -9.30978 91 69 10
-0.861794 24.4303 -4.01889 48 48 6
2.2724 6.33469 -9.58697 82 48 0
0.704918 17.0431 7.11415 4 24 14
-6.19528 -2.88482 -9.18102 4 74 50
-5.68004 1.70671 9.59548 98 117 102
3.7677 -13.9111 -28.2969 79 32 5
0.648083 19.4288 36.6794 67 81 73
1.90408 17.9724 -11.997 8 32 16
-6.35303 -1.41472 10.8873 92 90 61
-2.33596 9.36755 -2.47883 4 18 7
0.663443 22.8421 -12.1795 19 73 48
3.44061 -12.9703 -18.7286 63 72 62
6.4538 3.54771 5.21208 12 50 38
8.26877 -18.8425 -5.69911 57 39 8
8.13499 -12.0147 -4.61952 67 68 51
0.30835 19.8005 1.85374 26 34 24
-2.0307 19.9686 29.6242 67 74 62
6.27548 -5.15978 -0.2584 27 68 58
8.0076 -11.6131 -4.51437 66 72 59
-9.24442 -9.24638 7.71244 78 94 89
1.73209 12.9658 -15.6721 36 31 5
-0.237778 15.9142 -9.95003 57 45 20
-0.837044 12.8697 27.5235 48 58 51
2.83346 -12.682 -15.538 64 66 53
3.90151 0.475457 29.3132 71 85 75
7.95322 -11.7967 -3.28685 66 75 64
-0.758781 12.2759 -2.42746 59 44 10
-3.36528 -9.87963 -12.5936 56 69 60
-2.26802 4.81058 14.3075 66 70 56
-4.67417 -5.13657 7.26025 65 80 70
1.95124 11.202 -1.46186 78 41 1
3.07281 -12.9716 -27.9616 90 43 8
-11.1486 -16.1179 7.60889 70 85 74
-7.15009 -1.6444 4.20853 66 48 5
-8.56394 -6.48006 18.5588 121 95 34
-0.976807 7.20618 19.3293 54 62 52
7.87231 -9.3601 -1.70598 72 86 76
-1.41079 -13.7785 -19.4332 57 67 58
-5.88614 3.61186 -3.4687 0 20 6
2.95774 10.6347 2.36904 1 16 1
-0.493706 12.8365 27.9345 58 74 62
2.01994 7.37792 -8.60571 115 77 7
4.71217 2.9817 -8.03411 19 56 39
7.38941 -7.5607 -0.851814 74 90 79
-0.719646 5.29038 -14.5478 7 29 15
1.08064 1.00502 -18.0505 68 65 42
-7.54013 -21.1987 14.2648 51 61 51
-9.82898 -11.6543 7.69775 81 96 84
0.177662 21.5318 23.7232 118 102 59
5.72629 -4.26306 -0.00511932 55 73 66
-4.77703 -22.4107 12.0124 86 105 93
1.5675 21.157 33.9937 74 89 80
-0.261496 17.7177 -10.1083 0 33 10
0.971779 2.62474 -16.9037 13 27 0
3.6979 -13.0394 -19.627 63 67 53
-0.747734 25.092 -0.480656 62 33 7
0.502174 16.5755 4.32964 20 37 30
1.79979 9.53234 -5.78526 86 43 0
0.81424 15.5466 5.80422 38 42 24
-4.57894 6.43176 -0.992294 0 1 0
1.51807 12.8848 8.7231 74 49 2
-1.1075 9.86954 15.17 86 60 8
0.819885 3.10795 -18.5815 48 41 4
4.91717 0.813934 -10.6025 20 58 23
1.00097 18.2166 19.8477 110 75 14
4.6347 1.97721 19.51 63 76 66
-0.410736 5.14114 -15.9238 5 53 38
4.16534 -15.2621 -30.0534 71 34 3
-2.43696 9.39035 1.69329 5 21 8
1.96279 -9.28014 -23.9919 120 52 10
-2.4469 2.47859 14.3611 68 74 61
-5.39397 -3.05449 -10.3628 1 89 59
3.64778 -9.02486 -14.6904 39 54 46
3.26976 -11.9814 -16.9778 67 70 60
-1.00319 -11.335 -23.8316 74 75 55
-7.85204 -10.1825 3.00243 178 211 185
-0.636124 -0.12191 -16.5595 64 48 25
-0.925148 11.0009 15.7262 67 43 5
-8.59088 -19.2844 11.3064 55 62 57
5.47908 -20.8616 -44.0439 67 51 11
3.61639 -15.1728 -31.9005 101 45 6
10.1944 -22.552 -1.61898 67 82 70
1.51816 12.3004 -2.90242 0 26 5
1.12532 5.60266 -15.6036 3 19 2
3.53385 -10.2657 -16.3115 66 59 35
-2.60471 0.865677 15.079 69 68 47
0.81601 5.39851 -20.6657 75 73 44
4.24907 -13.8691 -5.45784 73 84 74
4.10374 6.20815 -3.37971 8 16 0
1.85764 -8.526 -22.9629 127 61 14
-4.61949 4.27961 -6.25197 3 24 2
-6.29918 2.48389 -3.46976 3 57 47
-7.54132 -1.50689 -6.72439 8 84 66
1.77077 -10.8113 -26.4017 120 52 18
-2.03814 -3.63526 -15.5096 31 72 53
2.99084 4.75906 -8.40096 3 16 7
5.1797 6.50457 5.64337 1 26 13
-6.47926 1.54616 1.71871 0 46 31
-0.803246 17.4005 23.1413 91 77 39
0.245491 16.0753 -12.6441 68 91 66
-5.62085 -5.73891 -9.96851 63 78 65
4.84893 6.94062 4.49759 31 32 12
3.81706 -20.5169 -47.4624 87 73 36
-0.197655 4.75924 18.7271 54 63 55
2.73134 -15.5005 -33.7046 116 91 24
-2.74936 16.905 27.0537 84 100 82
1.98508 19.2256 -11.9985 28 33 29
-1.67171 16.3234 38.9594 73 86 76
4.00468 -13.5991 -26.6709 73 33 4
2.96912 -16.2144 -20.0429 66 77 67
-6.89239 -7.81809 20.5111 75 91 82
-6.77384 -5.35091 20.262 70 81 66
-5.53689 -21.7872 13.349 64 73 63
-0.669077 14.0497 -6.29518 49 43 17
0.12924 23.2607 -8.7919 95 65 8
2.04917 14.8576 -16.4776 75 63 32
3.21272 17.8688 30.1405 62 75 66
0.940498 19.1523 -5.7914 43 37 18
-8.55924 -18.2648 8.94965 72 83 73
0.10902 18.4641 3.37012 52 52 23
2.38795 4.37862 -11.5557 93 64 2
-8.43057 -13.6292 3.50169 156 183 161
-10.7621 -14.1481 7.40894 74 88 80
1.15678 23.1624 -9.25529 51 28 0
1.2701 10.0663 -6.78116 56 41 9
-7.9686 -7.07388 -2.20798 96 117 102
2.56335 -16.2311 -19.6832 66 78 68
-6.47701 -1.86172 16.5513 63 36 3
3.37423 19.0226 29.9869 62 76 67
5.94949 5.58352 1.60128 15 45 25
1.10818 -14.2666 -30.433 106 99 64
-7.57264 -3.73819 17.1368 57 62 50
-4.13079 -6.78843 -12.5807 3 57 36
1.72134 3.34751 -13.523 118 87 29
-0.267857 23.522 0.968102 44 33 16
0.765106 20.5385 -2.44462 59 43 21
5.24429 4.44557 14.4218 68 78 69
-0.956078 24.2991 -0.823071 64 32 3
-2.50833 16.4153 33.6715 59 71 60
-7.01186 -9.05662 5.50759 64 72 61
-6.55492 2.00408 -1.48231 51 69 57
0.900429 3.1675 -15.3162 5 41 21
-0.697277 12.64 -5.18896 77 68 38
-0.137627 20.5898 -11.187 7 30 9
5.09741 4.17359 11.2873 17 50 40
0.141243 22.8364 -10.6951 23 25 7
3.06717 11.3117 5.95752 0 12 0
-5.0591 -8.04009 3.19559 18 24 22
6.87034 -7.95413 -0.741982 74 87 77
0.0866356 22.4542 33.2057 65 76 67
-10.3804 -13.4622 7.69295 74 86 76
0.442898 -16.9713 -24.6211 55 65 57
-0.658112 10.5241 -9.98077 53 54 31
0.0758934 19.3724 4.87212 12 25 3
1.04698 6.13216 -15.6776 47 44 15
2.90398 -9.11513 -21.5649 44 23 9
-0.272129 -9.69188 -24.3524 109 79 13
3.00312 22.9892 30.6734 60 74 65
8.32333 -21.2292 -0.490944 47 37 11
3.03476 17.6101 26.132 106 127 110
2.29564 1.21475 23.9712 53 61 50
8.01449 -10.0703 -3.44116 87 101 90
0.201027 17.3053 20.6024 92 67 9
1.03428 4.54994 -14.9574 6 46 30
2.93335 2.6543 -10.9722 7 28 18
1.61844 22.985 31.8771 61 75 71
3.27271 -5.67743 1.5084 64 76 67
2.09309 15.6797 -17.197 77 68 44
-1.41821 -0.331147 15.8266 70 85 76
5.20816 -19.1847 -38.8943 75 46 0
-6.42202 -6.88183 7.18729 25 35 28
3.16507 3.18878 23.5746 63 68 55
-8.31841 -13.118 7.57018 73 84 74
2.29571 6.5052 -9.23889 115 64 0
-2.60254 -11.4639 -16.8901 70 87 73
-9.39927 -2.01196 -0.65752 71 73 50
-2.95165 13.9791 33.6997 55 71 61
-6.50405 -0.338333 11.3663 91 85 54
-3.73282 -6.4061 -14.087 3 69 50
-0.703365 18.3296 6.71018 0 15 3
1.08512 11.0419 -6.979 73 56 10
-1.91483 -3.67248 -15.9148 17 84 62
1.69196 20.4671 33.073 72 86 77
-10.5567 -19.5471 10.5886 63 74 68
1.56742 20.8388 -9.04218 8 16 7
0.441853 22.1367 -2.49667 28 38 21
-5.95371 -10.0779 19.8627 77 93 84
-5.3689 2.59611 12.0741 35 51 34
-1.93373 19.1188 36.1429 61 72 63
-0.937431 -3.4964 -17.1276 121 121 71
3.61868 -11.1703 -22.4711 66 37 3
3.78519 -0.681696 29.9096 68 82 73
2.37574 9.82186 -3.69397 57 34 0
-2.93619 8.466 -0.929659 14 43 25
-6.84991 -2.36301 -8.12443 6 95 70
-0.796093 7.32664 -11.3578 42 49 20
-3.34406 4.51346 -7.70807 35 65 39
1.6272 22.5111 -11.275 80 65 18
4.64474 1.70156 -9.96926 3 43 13
-0.913481 23.3718 30.8181 59 72 60
4.11701 -19.6773 -44.0811 84 57 22
-2.32543 18.4996 35.7967 55 65 56
-5.73659 2.91021 5.65111 2 46 31
5.8171 3.96009 -1.87321 29 59 45
2.91617 -19.57 -41.6688 73 82 69
0.833807 17.6252 -15.7074 60 32 2
4.33973 -11.4113 -2.4504 64 77 68
-7.56043 -6.59011 -3.59621 30 77 58
-0.648158 10.6301 8.11113 58 28 0
7.68224 -18.3614 -8.84966 152 163 138
6.16164 -0.425992 3.81716 61 75 66
1.47203 11.3429 23.6291 61 73 64
5.20822 1.42088 9.82914 64 76 66
1.10358 14.9983 -4.4362 40 29 0
-8.40055 -4.11516 6.75429 76 71 42
6.76025 1.27489 2.42884 63 74 66
1.53789 18.7365 -7.78698 10 14 5
5.11084 5.67994 -1.58031 8 31 9
-3.22057 14.4297 33.5848 64 79 67
-5.612 3.68417 -4.7097 2 61 49
-6.67088 -6.53751 -5.39489 1 63 46
6.00492 -0.589622 5.1569 59 76 66
6.54832 -11.767 -7.29162 155 151 101
1.70731 13.3116 -12.3929 3 2 5
-7.10072 0.930771 -0.563596 60 43 8
1.51117 13.7035 -12.2599 21 22 0
5.41915 -19.1823 -3.68714 51 56 49
8.5536 -5.60522 -1.94218 64 75 64
-8.03446 -4.33502 7.01997 77 61 39
2.26271 21.4771 -14.0044 50 50 28
-2.42556 7.72449 -6.08236 1 18 5
7.94976 -12.3235 -5.80862 97 93 64
0.548302 9.32652 -18.0715 19 21 3
1.41264 8.25419 -18.3145 36 45 35
3.36081 9.97363 2.79246 10 41 25
3.91548 9.77646 12.9999 5 47 39
2.49545 9.28237 -4.77101 77 37 0
3.02204 17.3937 30.2157 60 73 63
-7.84027 -2.16253 4.08396 64 39 0
3.70114 18.9325 28.2471 66 78 70
-2.58512 17.7021 34.156 68 82 71
-4.89243 -0.0837784 7.87385 63 72 61
6.85909 -1.38078 -1.43453 0 34 24
1.42445 1.60903 27.0374 96 95 67
-3.09248 7.34351 -3.74329 27 43 30
1.60735 6.89204 -10.0686 119 61 0
-3.19511 -3.4417 -14.1416 4 60 32
1.44623 -10.228 -25.7606 124 58 6
0.520283 -2.66185 10.4136 67 82 72
4.12897 -13.2023 -21.5353 68 51 21
-0.960964 12.9165 -3.69846 0 14 1
1.76242 -3.96905 6.42502 60 73 64
3.73564 -8.70618 -14.2311 2 47 32
7.23307 -20.4143 -8.8468 191 210 178
1.12582 14.3882 9.45061 100 64 11
1.28679 18.7943 20.2539 140 104 11
-9.83206 -6.15462 3.01353 85 104 91
-2.98241 17.5793 28.1796 62 69 55
-0.481638 11.6151 5.45265 55 36 1
-0.135445 -13.3106 -27.0484 89 90 65
2.63708 16.7326 25.7526 67 79 70
-7.20171 -3.29679 15.4916 67 79 67
2.67195 -15.546 -18.7829 66 77 67
-7.55791 -4.90127 7.49671 78 77 62
1.85448 18.6674 -14.2383 74 50 3
8.24407 -20.144 -8.34219 145 161 126
3.97619 4.2803 -7.13122 16 25 0
5.1669 6.40195 -0.050087 15 21 7
3.3531 10.3886 4.5246 0 34 20
8.79236 -6.62791 -4.24982 4 48 30
1.25829 11.5998 -3.77437 70 48 0
1.3862 10.6328 -12.5271 1 18 2
0.879566 10.5185 -18.2856 72 59 25
-4.01712 -5.66947 6.20692 23 24 31
-2.44529 -10.7214 -17.8214 87 96 80
-2.14944 6.03707 -8.87719 8 31 17
-1.27737 19.5667 3.40544 0 6 1
0.491085 23.9559 28.1698 74 82 70
2.61503 -8.69154 -21.9824 103 42 2
1.29818 8.74651 -10.1271 2 51 15
2.05964 11.9128 -18.597 58 46 11
3.9807 1.56144 14.3884 54 65 56
-4.78108 6.62119 0.918945 1 2 4
0.914009 14.9971 -5.36179 83 59 32
7.58169 -1.1922 -2.96715 1 16 6
2.15685 14.3051 -19.9155 139 152 124
0.186012 8.36818 -16.0656 61 55 32
-2.91135 -4.33339 -14.622 28 65 43
-0.838554 8.16784 -10.8722 20 42 29
3.82313 1.34099 14.5474 51 59 50
-1.27488 11.105 2.75866 62 29 0
6.23813 4.59509 0.936638 20 49 27
1.48594 16.4374 -10.0034 47 63 57
1.33166 -13.524 -14.0481 70 82 72
5.18988 -17.6702 -29.8869 68 62 42
5.49833 -3.88935 -11.4494 0 100 72
5.70979 -0.270868 -10.5692 35 86 71
5.55405 -22.0183 -41.662 59 59 48
1.05794 2.18863 -18.321 57 26 6
4.21113 8.98978 6.33854 1 22 7
2.7759 21.8076 31.7039 65 80 71
3.52403 9.80757 18.5454 61 76 66
1.7474 -19.6591 -33.3172 54 64 57
-5.69675 -20.5656 9.71142 148 172 157
5.84045 0.81153 -9.24261 39 63 28
2.55836 0.0409775 -13.5991 0 23 7
-0.00252533 20.7212 36.4965 65 79 70
3.26512 21.8454 26.724 99 115 101
-2.38721 -3.54827 -14.8645 23 43 25
-0.77482 13.9372 -5.27711 72 69 41
-0.419201 16.8514 -7.8923 3 9 0
-0.394169 13.7767 -10.9389 10 20 11
-1.34693 13.3824 21.2145 72 66 37
-2.23215 8.28283 10.8554 40 44 21
-0.780903 21.4213 3.43407 50 53 38
-0.243286 -11.7823 -26.053 95 79 45
2.32972 -12.2835 -13.8059 57 65 56
-0.901161 8.87787 -7.71554 57 37 9
-6.25289 4.20285 2.26387 3 32 18
0.938808 17.2065 -1.74426 17 23 7
-0.630943 7.78722 -12.8012 0 8 3
-7.44022 -12.9662 5.24928 67 77 67
3.06767 9.96959 -0.537186 1 20 5
2.65594 -21.5503 -37.8994 50 58 52
1.83512 9.71732 -5.44458 100 57 0
0.569504 14.3757 33.5418 58 69 63
0.431765 20.0005 22.1216 108 87 25
-1.72609 9.31775 9.84222 0 5 0
-0.567032 11.0017 -10.341 53 57 28
3.38635 -9.84025 -19.9233 81 39 3
-1.29718 13.9002 21.4944 76 63 27
-4.67882 1.79865 12.7428 67 71 56
4.60703 2.44146 13.7548 56 68 60
4.61114 -16.3852 -31.9945 68 35 1
-0.118607 2.50002 -18.7462 70 75 49
2.68967 3.92346 -10.4875 6 27 3
-0.640213 11.0946 -4.85269 63 47 24
4.41641 -15.6845 -29.2562 103 50 3
5.86406 3.59302 7.32566 4 57 42
-8.85546 -6.31053 7.80252 81 77 59
1.53918 -1.72115 -17.1497 104 67 6
1.9896 18.0528 32.522 60 67 56
2.53349 13.0762 23.1471 67 78 69
4.0703 -19.2402 -42.3722 93 57 6
-6.47179 -2.8204 6.31435 73 60 35
-1.16087 13.3329 20.0676 98 64 20
-1.34017 8.25972 -7.46507 89 45 0
-10.5353 -9.36027 4.98609 97 116 100
5.35502 3.42599 -4.61216 28 41 34
-2.71567 13.2453 35.9911 76 86 81
3.99945 -3.07386 -12.6566 13 108 84
-0.130255 8.66187 23.3573 66 78 67
1.20965 3.10497 -14.8757 0 25 5
-1.87981 6.38699 15.0549 58 61 49
2.83881 -13.8812 -30.3709 98 37 11
-1.25294 8.89513 19.8906 61 66 52
-9.20171 -10.4679 7.47834 76 91 82
2.80323 8.49395 -4.99331 9 26 9
1.93288 -15.1851 -17.2229 69 83 72
0.623863 15.2314 8.66151 62 51 29
1.71894 -9.481 -24.5113 134 62 7
-8.134 -11.7635 3.0459 161 199 171
1.63227 19.0783 -15.9076 97 59 6
2.07676 7.58179 -8.28615 119 65 5
-0.827359 20.5058 36.8549 65 78 70
3.58303 -8.83311 -15.5176 62 75 52
6.34049 -18.8075 -3.00652 51 49 35
2.62889 10.5865 -0.0806732 5 8 0
-1.55799 8.73812 -6.2352 100 68 10
-2.15558 -6.03675 5.25106 51 69 61
-0.574135 11.8013 -9.73286 0 23 8
1.52419 -4.59341 5.84256 63 76 66
9.33172 -20.8838 -6.82992 104 109 89
-5.40155 -1.29382 7.01831 71 77 64
-9.15601 -19.8262 6.24806 160 195 174
-0.0671997 -3.26568 -20.479 107 112 82
2.555 -9.61078 -23.4426 90 39 10
0.913536 8.60957 -11.5844 80 72 49
-5.85287 -4.65664 19.0112 60 68 56
-0.972523 3.49322 16.2276 63 76 68
1.50242 0.848892 26.8646 116 113 81
-0.0771866 17.5958 -12.323 3 19 14
-1.60668 10.2918 -1.69548 63 24 0
-9.68271 -4.83066 -0.99549 4 37 25
4.07115 4.0256 19.9508 73 86 73
-0.623711 6.02299 19.1263 53 62 51
3.56882 -10.6854 -17.8017 80 60 29
-6.86565 -20.0836 12.4794 55 55 43
2.12843 15.3906 -16.765 77 71 44
3.80399 9.09329 4.59818 1 35 19
-2.36567 12.9806 36.8731 56 59 42
-4.6262 6.58434 6.55297 9 23 7
1.24715 7.97894 -13.4349 13 24 9
-0.0165215 -3.51846 8.86199 66 80 70
0.183105 10.9781 -16.5061 0 44 30
8.4617 -7.88522 -2.21059 64 77 66
0.341682 13.5969 8.30761 63 59 39
-9.42161 -16.3965 4.78667 153 184 163
8.04102 -10.9043 -3.63031 69 73 58
3.68563 -11.5509 -18.4583 71 53 24
1.75697 -4.86445 -18.9253 87 55 0
7.51222 -6.01082 -0.711128 57 88 77
5.89502 5.09359 4.73362 12 53 37
-0.375748 -7.71193 2.16718 65 79 71
7.77635 -14.3323 -6.11861 63 69 61
2.09093 6.96703 -9.0442 100 60 6
0.941994 2.83023 -17.1404 3 25 3
3.57635 -8.68477 -11.1291 59 72 65
0.344494 13.3889 27.9266 63 76 67
1.16689 16.1048 -3.13049 2 15 7
5.04382 -22.125 -46.7069 67 58 30
-4.99674 5.23933 11.4389 23 48 37
7.74528 -0.310295 -6.28674 2 23 8
0.932419 23.3787 -6.16969 14 24 14
-9.12967 -3.40586 5.27027 68 36 7
5.51812 4.20505 -2.85476 46 56 37
5.35656 2.17707 9.60991 67 77 67
0.109352 -12.399 -27.2224 120 119 85
-6.24279 3.90311 0.710627 1 18 4
2.23317 -14.8277 -16.9178 65 77 67
-0.121628 20.3688 -8.62226 61 33 0
2.43103 -9.93858 -24.2865 98 46 3
4.17164 5.63632 -4.66459 27 42 7
-2.30465 4.32188 -10.3993 2 36 7
6.54631 0.751633 3.83035 61 71 61
1.55075 -17.8648 -34.3965 69 73 57
1.3945 18.2395 -17.1054 31 43 23
-1.72723 20.4652 33.267 64 76 66
2.68848 18.3749 31.5452 60 69 59
0.0813332 14.2697 35.8784 66 79 70
2.52778 12.3399 22.5287 65 76 66
0.719093 21.9153 -7.73901 70 40 2
2.39016 14.3631 -19.788 122 120 92
1.46381 13.6727 -2.50239 26 37 16
-9.74888 -2.68446 -0.0605774 70 80 58
3.9059 9.29137 14.2329 17 51 38
-8.27052 -5.52959 7.60225 84 80 62
-1.78234 20.9975 32.6582 66 79 69
5.15807 4.30789 9.58064 67 74 66
-7.42091 -2.85643 16.6201 63 55 31
1.80089 14.1345 -10.8798 6 35 10
2.56719 11.1972 11.4356 26 26 15
-5.30055 5.84714 -0.310134 2 25 0
1.58701 3.06292 -13.7723 110 137 107
7.55833 -10.9239 -2.05856 71 86 77
-1.23227 11.1446 17.1753 104 68 9
-11.5387 -18.6855 6.97684 121 153 130
-1.20157 -5.41849 5.63192 67 82 73
2.34049 6.6967 -8.90884 110 56 3
-7.77914 0.0411377 -5.31774 18 50 37
-0.0847549 13.32 7.13144 55 47 29
-3.11163 4.54176 13.3296 67 72 59
-6.58394 -6.27323 7.84813 66 77 70
4.65271 7.21239 0.913429 1 5 0
-2.9876 15.4217 30.7392 61 75 63
-11.8376 -18.5047 7.74184 80 96 87
5.59385 -0.25977 7.41743 1 39 28
5.50658 -22.1285 -45.0594 62 67 50
-3.03215 5.55668 -6.62595 16 37 21
7.9191 -10.1941 -4.59321 61 69 55
4.12746 10.0957 9.90419 4 39 27
6.16917 -1.06709 0.814186 76 91 79
5.50665 -19.727 -36.5689 66 43 0
-1.32863 22.9497 31.6769 66 78 70
2.23131 10.679 -1.7466 56 26 2
5.97148 -19.277 -1.82301 56 46 28
-0.76963 10.3138 -6.86466 64 66 42
4.43371 1.68375 16.4657 54 64 56
-9.06459 -7.78085 8.00051 77 92 83
-1.08037 13.9968 -1.42485 0 21 6
3.93827 -14.5667 -29.1272 88 49 11
0.371658 17.9704 0.377594 69 51 18
-2.14882 15.8154 26.5138 63 77 66
5.33544 -17.0024 -6.49327 81 91 79
1.14203 16.7274 32.322 63 75 64
-7.16975 -2.23973 15.9507 61 45 15
2.21062 -4.1736 -17.8608 84 111 101
-5.09998 6.31856 2.5563 3 19 1
-3.56113 6.20554 -4.28142 16 21 1
-1.80234 23.226 30.0897 58 69 60
-0.948669 -14.5268 -21.405 56 66 60
2.15267 -22.1762 -3.65447 85 105 89
1.08561 -12.5648 -12.4465 71 84 75
1.84285 20.5461 -12.3233 32 43 32
1.30806 16.2207 32.1083 67 81 73
-0.817818 15.7588 4.78833 23 32 9
1.23745 22.6764 32.5393 65 80 72
-0.712059 4.70117 -14.6042 3 35 19
-0.712877 17.4212 5.2813 40 46 26
0.923447 21.6832 -8.23589 63 36 11
2.06553 18.1678 -17.4373 116 116 98
5.65809 5.57806 0.218834 9 45 23
-1.08148 2.36161 -13.4027 102 75 37
-10.1264 -19.4783 10.7954 65 75 68
-0.852291 11.317 -6.03572 2 24 6
5.75484 -3.72697 0.0597916 43 63 55
5.37493 5.58521 7.32137 29 56 52
1.61251 12.8726 -10.0504 2 39 13
-4.53968 -0.0505829 -10.2219 35 74 58
6.7608 -15.9844 -6.07648 77 89 76
-0.101871 2.18006 -19.3485 69 57 23
4.72514 -19.6858 -43.5755 65 35 11
1.804 -14.4834 -15.8294 70 83 72
1.34264 21.1418 -11.7121 68 43 5
1.90468 -15.8918 -18.4129 69 83 72
5.75663 -1.07861 4.96339 56 70 63
3.26359 13.8675 19.8527 75 92 79
4.69887 -2.60765 4.13658 55 67 59
-4.32347 -3.98418 8.36942 66 79 69
-3.82354 6.97538 -1.74828 10 34 19
5.20493 4.33317 10.4323 6 59 44
-3.4551 8.00496 3.61295 0 2 3
4.51419 8.75988 7.69939 14 54 33
-0.524628 -15.23 -25.0503 65 76 65
3.68658 1.21494 29.1814 69 83 71
-5.18065 6.15694 5.26625 21 39 24
-5.53465 3.85843 10.1597 2 45 28
-2.73295 -10.2343 -16.9717 88 99 82
-9.82877 -19.7364 11.9206 60 72 64
2.45506 13.0479 -18.3452 12 13 0
-10.8569 -12.4102 5.45281 80 99 87
4.29692 -13.8997 -22.9697 70 57 40
5.2468 4.52097 9.09326 67 76 66
2.89281 15.3768 23.6873 62 76 66
-10.1594 -9.16675 7.0282 67 76 65
2.57376 6.26416 -9.13026 104 65 8
4.52755 -3.44558 2.5069 57 70 63
2.08107 -4.01928 5.96416 59 73 64
-0.754499 -3.00731 10.3328 67 81 70
3.61398 -3.9395 -13.583 43 63 42
-9.93716 -7.0601 7.25186 75 87 75
-0.878693 4.80816 -13.7638 1 34 19
0.928764 4.51468 -18.9679 0 7 3
1.12847 -17.7997 -32.6014 70 77 65
1.57626 7.25934 -9.57595 112 80 49
