ply
format ascii 1.0
comment Created by Open3D
element vertex 1397
property double x
property double y
property double z
property uchar red
property uchar green
property uchar blue
end_header
2.51514 2.90112 24.8804 67 73 59
3.13055 22.0212 31.0471 68 81 72
-0.925163 12.4341 -0.827104 5 29 10
3.75865 10.1048 12.9213 9 37 23
-1.06506 17.8406 3.91084 0 19 1
0.160637 17.7203 38.6834 68 84 73
-0.217079 2.5348 17.5441 60 70 58
-6.76118 1.53124 -1.3655 59 57 37
3.34893 22.1217 27.566 101 118 104
-1.87479 19.3635 34.4759 60 74 62
0.00657654 13.9373 35.4981 58 71 63
-10.7715 -12.2157 5.21384 97 118 103
3.30328 1.63492 29.228 68 82 71
1.67006 17.8049 32.9196 57 66 59
0.700447 6.74948 -20.0122 106 74 13
-1.25703 8.65438 -6.92853 83 44 0
-1.17793 20.1376 5.24406 41 43 3
-7.33253 1.05418 -3.44899 8 9 0
-0.355911 24.6528 0.124069 69 36 2
-2.9675 -8.9325 -16.0647 75 93 78
2.03917 -3.29785 -17.488 99 105 93
1.41111 14.3517 10.7728 66 58 37
4.07388 -7.45271 -12.4286 0 47 38
-0.823967 -14.8692 -23.5011 70 80 69
-6.78073 0.341652 -6.69766 2 40 22
-3.18894 -0.0943985 14.8837 77 85 74
-2.35761 17.2273 34.1028 70 85 73
0.193481 23.2082 -10.8393 25 12 0
-0.886444 20.3271 -4.73226 33 22 2
-7.23089 -2.53652 5.5028 66 44 4
-0.757286 2.69482 -16.2671 28 71 55
1.10289 15.1383 33.1411 59 67 58
1.57192 13.8539 -6.15041 7 26 11
-0.39537 15.3362 7.01729 41 41 20
-7.42367 -19.3034 10.4544 52 52 39
1.41914 17.4604 32.6233 56 68 61
4.14027 6.70179 -2.1622 6 19 3
2.34196 1.11272 21.3541 51 59 51
-6.67751 1.76229 -2.75201 3 22 8
2.07087 23.1326 31.4487 59 72 64
-4.03065 7.51579 5.0316 4 0 0
3.19681 -11.3358 -15.9111 64 74 63
0.233232 6.2081 -19.5462 18 31 20
3.59029 6.64505 -4.34079 2 28 12
-0.136307 11.1401 7.82208 63 31 0
1.08345 1.58612 -16.0469 73 46 5
-1.03315 10.935 -3.32738 52 46 28
3.38608 -9.0336 -17.2107 67 58 34
0.303879 -11.4504 -26.7656 127 106 53
-4.13293 5.41882 -5.04155 0 21 2
3.54203 3.27966 21.9718 67 69 54
2.93288 21.9929 31.5669 69 81 73
-0.959602 16.7928 -4.38928 0 13 4
2.81909 12.2492 21.9467 63 75 66
-9.37372 -19.0141 6.03974 167 203 182
0.206951 17.3858 -12.9775 5 23 0
-5.39285 4.76024 10.3057 1 33 21
0.530555 -0.0483189 -20.5331 174 163 100
-9.39482 -6.31272 7.54346 79 81 68
-3.09476 8.2668 3.99299 31 25 0
1.9622 -9.53466 -24.2906 114 49 8
-6.31725 1.15625 2.94965 0 39 24
-7.55202 0.787134 -3.60846 17 35 14
1.46576 -18.5902 -34.5536 69 72 56
3.79623 -14.5743 -21.1176 65 68 56
0.882629 19.261 -5.5934 46 51 38
1.42443 20.5864 34.5355 72 86 78
-0.829674 25.1105 0.723911 35 33 20
-10.0603 -16.4071 8.61713 79 97 89
-4.45716 4.31821 -6.42358 0 13 0
2.17702 1.77936 21.3805 57 67 57
7.4962 -10.2139 -5.18534 154 163 135
-2.38557 17.9219 32.82 71 84 67
-3.47987 7.64394 6.97984 15 18 0
0.140606 20.5228 36.763 65 77 69
-5.96883 2.64847 -4.88718 14 52 33
2.71791 18.5655 31.7418 61 72 62
-1.73302 9.09004 17.5842 58 57 39
1.69983 17.3522 -7.83125 27 32 22
0.00313187 15.5046 35.3702 65 80 71
-1.00731 24.1585 -1.2545 60 28 0
-4.90014 -0.679623 -10.588 5 38 11
0.239182 16.163 18.9365 78 53 6
-5.65436 3.28841 5.28337 22 51 39
-1.7417 1.63422 -13.1819 21 55 23
1.47478 10.3593 -14.1218 4 2 0
-9.72732 -2.59613 2.37528 63 44 0
-2.76472 6.13217 12.9063 20 45 30
-2.49394 9.20747 1.60373 10 20 4
-7.32731 0.581835 -5.73256 0 37 17
-3.68178 0.0536957 14.6178 77 75 50
-0.0408425 18.5284 7.76044 46 44 20
0.306664 8.50734 -18.5202 18 26 14
-10.791 -11.5736 6.0841 69 82 73
-1.83205 -11.656 -20.1725 72 87 73
-1.01327 24.769 1.19193 53 49 31
-1.1227 18.6165 2.60447 52 44 15
-6.50985 -20.249 12.5082 58 66 53
-7.36659 0.0525894 -6.19403 2 47 29
-8.4336 -6.60191 18.2974 124 94 19
-0.39941 11.3646 -10.9442 75 66 27
0.590172 16.2984 33.7074 62 76 67
-3.03595 -2.19284 -13.4055 17 61 37
8.15769 -3.56501 -7.50925 36 80 66
-1.61088 15.302 37.7813 69 82 74
-0.992661 13.2473 -1.19271 0 19 4
-6.27564 -21.7748 13.6613 65 76 65
3.00517 -7.11977 -17.6687 0 41 21
-5.68889 2.41975 5.29799 0 37 22
-2.7718 8.49203 2.85024 17 22 3
6.5441 -18.2291 -5.70235 65 62 48
0.914024 14.7563 33.2727 62 72 63
-0.846313 5.22475 -14.0941 3 30 15
3.9856 22.1259 28.973 86 106 94
-0.91785 11.6611 17.04 88 51 4
2.42468 19.0644 21.0855 130 129 95
-2.22947 -5.95034 -16.8559 4 48 32
0.277946 13.7415 -14.2048 32 40 14
0.281433 16.3829 35.9328 54 68 61
3.78888 -12.0169 -23.6125 71 36 0
-0.496674 0.210323 -16.3271 62 60 38
-0.77446 14.6123 2.34295 32 39 17
7.82352 -7.21409 -1.18092 71 82 74
6.71637 1.0009 -7.50008 18 22 4
-2.58339 -11.7627 -16.5203 58 74 63
-0.504158 0.21521 -16.1407 67 67 47
7.83954 -18.1035 -7.05668 69 61 35
-0.676987 2.4742 -16.583 55 91 73
1.12721 14.6455 -16.274 6 28 7
1.69144 -19.3903 -35.6887 59 68 57
4.18969 1.71113 25.9851 70 80 70
-0.139339 20.5864 -9.02312 55 30 2
-5.32255 -1.94639 16.5622 63 59 32
-0.629883 11.4058 15.3334 47 25 3
-0.915565 26.2544 -3.77045 28 14 10
4.84962 5.00809 -4.1105 14 42 15
3.38025 17.6182 27.721 63 76 68
-0.414993 13.7028 -9.19865 66 61 21
-0.660622 10.3569 -8.94862 4 20 3
5.27556 -19.0822 -37.6298 70 39 4
1.55711 21.9101 23.0358 148 134 96
0.0013504 -0.555442 29.0355 59 51 30
2.19119 -5.35095 -18.7241 62 77 75
-2.47686 8.59137 9.46738 19 27 12
1.54893 17.4731 32.2745 59 70 64
3.71257 11.5397 16.165 6 54 40
-3.69054 -4.06327 -13.813 4 63 44
-8.66627 -18.8789 10.0706 59 66 57
2.90503 8.7741 -3.85686 5 23 5
-8.93253 -21.9314 15.5561 69 83 74
-3.00423 4.15645 -9.2478 7 46 33
1.85994 19.8041 32.5032 70 84 75
-8.67836 -0.788124 -0.579697 63 40 1
6.80067 -9.88863 -1.44493 73 89 78
-3.19855 -7.84475 2.99776 59 76 65
-2.65691 18.2851 27.4682 72 72 53
-1.10464 10.5815 -3.49418 83 65 24
-0.503716 8.39106 -12.5094 46 50 30
3.09443 7.03966 -5.99694 4 23 8
-2.39501 19.1472 30.7674 65 73 62
-2.40848 9.27772 -1.58725 2 9 3
-1.71442 17.1951 25.0318 106 104 75
-0.251419 23.2882 -8.1102 24 27 0
-2.54282 16.4346 33.4898 57 69 58
6.16532 -1.91888 -11.0159 32 75 50
-9.44246 -18.5035 9.46159 73 94 84
-0.610435 17.4618 5.47789 19 33 18
-1.92558 9.52953 7.86272 4 18 9
-7.63035 -12.8516 3.63404 125 151 133
-2.01432 13.4272 37.6515 72 85 75
-0.991272 -0.824318 -15.6195 32 53 25
-0.402878 15.2039 -9.1483 11 32 11
-2.44492 -1.31403 -13.8634 5 60 43
-0.885445 7.42168 20.7022 53 61 51
0.230278 8.76889 -19.7059 4 18 13
0.96188 17.7757 -16.1731 115 89 68
-4.01293 -5.68298 -13.4975 0 58 35
-1.17834 22.036 2.67857 52 36 0
-4.61681 6.93486 4.22517 6 25 16
-7.7353 -3.08992 5.97423 69 46 1
5.12191 5.69042 11.9768 1 47 33
1.50118 8.50531 21.93 68 81 70
3.26477 10.4477 4.03632 3 25 14
-7.94269 0.0633392 -0.57626 64 38 0
-4.02685 6.41508 -3.42531 0 0 0
-9.73826 -3.42883 4.14386 70 52 16
5.27826 6.32724 5.32994 17 36 21
0.306252 10.8274 24.7652 64 77 69
-1.19438 -0.89999 -15.4205 78 97 58
0.347927 16.5911 3.24288 83 51 4
2.44587 -17.757 -37.3638 80 93 73
-5.60387 0.752083 9.54864 86 91 74
-0.620407 17.4894 -6.60568 91 69 16
-10.1527 -3.55656 3.60846 66 69 47
3.12339 -19.8714 -43.3653 71 79 63
-6.44634 -0.992092 -8.23073 21 77 60
5.86282 -4.94713 -0.0643082 44 70 62
1.83935 12.9203 6.85133 64 44 13
-0.836296 13.7435 -2.55684 57 49 21
-0.301941 23.6905 28.0811 75 83 67
-0.827385 10.0138 -6.39468 68 67 48
-7.39652 -12.8129 4.36271 67 75 65
3.20645 20.5478 25.8471 81 97 86
2.10304 -2.21937 -16.5607 84 88 67
1.80635 20.3644 31.9231 70 85 76
-5.68578 3.28744 11.139 3 32 19
2.46451 -14.7467 -32.3707 119 61 4
2.22053 2.88365 26.4208 71 74 57
1.7009 16.6129 -10.2054 28 32 32
2.04156 -16.2993 -34.4194 107 110 84
7.44826 -1.613 -8.3334 6 47 26
0.598698 16.3401 -15.0315 69 47 13
-9.20355 -6.73306 -0.0342655 13 57 41
0.217537 11.7945 -14.2374 0 35 19
-5.60966 1.98756 5.35077 0 33 19
2.82633 -3.98724 -15.9127 33 74 46
0.116544 16.3098 36.638 63 75 69
-0.406403 25.8723 -4.28039 96 58 15
0.301308 16.9736 3.26632 81 56 1
0.571447 9.97731 -17.3489 55 56 19
1.24094 17.7981 -9.85489 63 40 4
5.93801 1.97599 -4.54723 0 28 9
0.992805 14.944 33.3009 62 71 62
1.80067 -18.4679 -35.757 66 68 47
0.38826 14.3373 34.6579 60 75 67
8.03396 -9.41777 -4.20115 74 83 72
3.93845 -20.5057 -47.5088 95 74 32
-4.04499 7.35767 0.963584 0 1 0
-3.1011 17.2549 28.5698 61 68 55
0.932218 15.8358 5.08317 15 43 30
3.30057 16.1951 21.4398 67 79 67
0.176575 6.87427 22.0295 63 70 61
-11.0324 -15.0461 7.33659 73 85 73
1.54999 23.6342 26.6342 74 80 64
-0.886055 10.3701 -5.89198 25 30 11
6.41759 -11.823 -2.26353 69 84 73
-2.6243 6.80684 12.8015 0 15 5
-0.034584 11.2783 7.65046 62 41 9
0.761326 18.0536 -0.534431 3 14 0
1.48309 -11.8396 -27.9541 125 72 14
3.69827 10.2657 15.1548 8 80 60
-8.25614 -2.60964 4.49976 64 37 1
0.630875 11.843 25.3628 61 74 66
-10.6775 -9.62323 5.43174 71 85 73
-0.400551 -14.5802 -26.0511 75 81 66
-7.82108 -9.92373 3.01492 249 255 255
-1.24883 13.1013 35.4959 74 90 80
10.0511 -20.3791 -2.75244 64 46 17
2.60026 2.81592 23.2173 62 68 56
6.02605 -11.6394 -2.14027 75 89 79
-2.11552 -0.631626 -14.0284 1 29 7
6.69608 -0.627701 -9.1138 59 111 89
3.82482 10.4035 7.73336 0 36 22
-0.249626 20.9799 -11.1592 9 28 16
3.28299 5.97646 -6.66385 7 34 15
2.13343 22.4668 24.3849 74 74 55
-9.83862 -20.1549 13.1002 58 71 63
5.63534 5.95691 4.29354 7 40 26
-1.57933 2.42144 -12.9651 30 55 24
2.97256 -22.2521 -48.5338 57 69 59
0.0182495 17.4085 21.4021 90 69 19
-0.541107 12.5784 3.90583 44 46 32
5.32546 -16.4982 -6.37135 80 93 81
-0.575432 15.9441 21.6958 99 78 32
3.30001 8.6144 -1.72666 1 10 2
-8.38584 -4.26408 -5.06229 11 89 73
2.38503 18.2062 31.808 58 65 54
-2.85075 8.4694 0.0646901 0 12 4
-0.633835 13.3184 -6.34644 5 20 0
3.66031 -21.2417 -49.1234 135 140 112
8.86144 -3.30937 -4.05309 44 64 49
1.76191 2.38053 20.51 57 66 57
-5.26425 3.51249 -5.94413 0 22 5
-6.27237 3.04912 2.36219 0 36 20
-1.14339 18.2536 -2.85896 82 99 74
0.80938 14.9297 33.8236 64 78 69
-5.21033 2.89976 7.78428 63 74 60
2.15799 12.4716 6.70221 61 41 4
-1.01797 7.39049 19.2725 57 65 53
-0.535011 11.3416 6.15986 64 37 0
0.572067 16.4815 33.8949 62 76 67
-2.41898 -12.2156 -15.1785 79 91 81
-5.87723 2.83138 -4.49482 10 47 29
-1.73122 -11.7523 -20.7943 67 80 68
2.64536 11.5949 5.01237 23 31 23
-0.263432 24.6957 -8.22719 11 23 5
2.05348 -15.1288 -32.8046 116 113 87
-0.764774 -11.2182 -24.5394 104 105 72
0.807884 13.2792 -15.9705 46 44 22
4.19628 4.66243 19.3056 67 80 68
-0.958107 15.7214 -4.09582 2 21 5
-2.96048 5.84728 -6.42123 4 36 21
5.76668 4.82244 -0.956383 21 42 30
8.68396 -4.37879 -2.29685 32 61 49
-6.35435 -0.837059 -8.40587 11 77 55
-2.91687 17.0452 30.8672 60 69 57
0.703751 16.4925 33.5504 64 78 69
-0.168007 13.3213 5.57076 33 34 22
-7.16495 -22.9196 14.3666 62 64 56
-2.018 13.7933 37.602 69 80 70
-8.67934 -4.22886 -4.17855 11 82 59
-0.451881 11.6332 -10.6673 27 46 18
3.31932 19.8778 26.594 108 128 114
-1.8695 7.11908 13.9112 2 24 12
1.79071 20.1569 32.1215 71 86 77
1.96659 18.0053 32.4388 60 67 56
4.24678 7.34248 -0.180428 1 14 2
1.19425 1.24952 -16.1399 77 44 20
4.16451 -22.552 -49.6654 151 184 159
-0.561241 0.024437 -16.3361 61 53 31
-2.44661 16.4382 33.8446 59 71 60
-12.769 -20.6372 8.98484 106 130 113
-1.73756 10.1512 -1.28157 52 26 0
3.95498 -4.22026 2.0756 53 67 60
0.233452 13.9936 33.8138 71 84 79
-6.44844 0.0752563 12.4792 66 43 2
1.81786 20.7477 31.9194 64 78 69
-0.812683 12.6354 27.0303 51 62 55
-1.16771 21.5974 33.9778 62 74 65
-7.40881 -9.93813 20.0629 75 92 83
1.96356 11.8618 1.95065 53 33 0
-2.25394 17.7111 31.599 52 64 55
-0.759171 16.0939 4.93016 37 41 19
-0.381882 -4.72229 -20.739 77 63 24
-1.16261 25.9745 -3.47795 28 41 34
-6.76699 -19.3676 9.46632 68 72 57
1.39892 13.5831 0.584763 59 53 25
-5.17296 2.96279 -6.81052 0 40 15
-0.608963 11.6801 -7.9043 72 64 38
-1.70098 -5.88804 5.35753 68 80 73
-2.07695 21.5954 28.8131 57 68 58
-3.54425 -7.59496 -14.5704 0 54 37
-6.26533 3.50657 3.13689 1 52 36
2.15569 -17.2943 -35.89 79 78 56
-0.837761 14.1206 1.55894 1 25 7
0.825474 21.5212 23.0172 122 103 49
2.80932 22.3762 31.95 68 80 70
-3.41374 7.77357 4.22852 29 45 43
-6.32143 -19.8159 11.7488 49 46 31
1.59489 13.1943 -3.03421 2 18 2
-11.8029 -19.437 9.44164 66 78 68
-1.85452 14.5131 37.3881 66 77 66
3.69411 -15.759 -21.641 63 65 57
-4.94364 0.827797 8.41161 70 78 65
-0.0161285 16.271 -11.0502 1 5 2
3.62394 20.6562 28.6192 63 75 66
-0.188797 12.8613 15.5493 7 12 9
0.695244 15.3683 -15.3484 62 51 16
3.85517 -14.49 -29.2998 74 37 4
0.0595016 18.5947 -12.7546 3 17 8
-2.29162 9.54139 1.09297 4 24 9
10.435 -22.463 -2.67438 64 76 65
4.00982 -12.5476 -20.4662 67 51 12
5.46382 -10.3159 -1.27801 74 90 79
-5.86523 4.35393 -0.283125 9 42 23
-7.10266 -1.31276 12.565 84 82 63
-0.380889 6.76175 -13.8572 78 78 58
-5.10085 4.32421 7.78926 22 45 32
-2.03944 19.0553 33.842 59 70 60
-0.282486 13.9466 -11.1926 12 30 19
3.35678 -19.8987 -44.1688 77 80 65
0.245392 6.43479 -19.4432 41 41 24
0.25087 17.5142 20.7685 94 68 11
1.22371 10.6191 -13.6345 35 40 19
5.10137 -18.2565 -35.6951 93 45 0
-1.9723 6.76741 13.9437 11 40 29
-0.147871 20.3489 -9.79482 22 21 3
7.68846 -11.6902 -2.58349 64 77 67
1.45691 5.86593 21.3624 68 82 69
-3.23386 5.27039 -7.31398 7 18 5
-2.54646 7.48827 -6.25035 9 36 16
-5.71195 2.59618 5.44881 2 45 28
-0.733185 12.1373 -4.8556 74 74 46
0.184398 24.8518 -1.71868 27 27 20
3.77695 6.67388 -3.55381 11 37 13
1.77158 17.8211 32.5612 58 67 59
2.16489 -1.33392 -15.6801 29 54 7
-1.09203 22.6663 -3.03866 40 24 3
5.04449 -18.8458 -5.85271 63 69 54
1.2523 -1.403 30.4548 70 80 72
-2.87447 -0.72467 -12.6961 92 109 81
3.54741 -10.4667 -16.8506 77 70 45
-3.89948 -8.20935 -10.6567 1 41 28
-6.93261 0.241936 -6.51814 11 60 38
-8.03732 -20.4667 13.7363 62 76 69
-2.24929 5.03067 14.3276 66 62 45
-1.90403 10.5944 1.91371 56 30 0
-0.318539 14.2202 -10.1121 0 9 1
-0.0778694 25.4454 -6.03787 67 33 4
-5.64924 -1.05394 5.82573 65 73 60
-3.37231 4.62457 -7.55198 8 47 26
-9.77612 -19.3088 10.8292 66 75 66
0.462997 0.520378 17.0369 67 84 75
-3.70086 -0.40811 14.7143 76 85 74
-9.45593 -17.6954 9.12872 79 95 86
-0.915298 -8.96558 -22.7704 105 89 49
-1.16518 19.6683 37.9646 67 84 73
4.81056 7.02908 4.79738 34 26 11
-0.173445 0.880044 -20.1222 83 67 37
4.35514 -21.3222 -0.935963 63 65 51
-4.66141 4.86106 12.1605 25 54 39
7.9038 -17.768 -7.70868 67 64 45
-9.40407 -19.1806 10.9317 61 72 63
2.38479 14.0393 15.435 67 61 26
5.98985 -1.75811 1.27576 65 77 66
-0.0276108 16.1177 -11.9248 16 47 24
0.920849 -16.9009 -31.2273 70 73 55
-1.28467 18.7714 -2.40186 3 16 0
-0.817818 15.7588 4.78833 23 32 9
-0.445259 10.1972 -12.4075 3 31 9
1.42915 13.2055 5.3982 64 51 21
-1.01823 12.753 18.6116 88 60 4
5.81259 3.12977 -3.03757 22 74 51
-2.3416 9.70708 1.58051 0 24 6
-5.6089 -3.76178 18.1022 62 68 57
-2.7676 -2.62517 -13.985 12 54 24
-0.696041 10.1322 -8.44359 1 24 9
-2.29257 7.11555 13.0994 1 15 0
5.80001 2.2544 -7.02339 29 32 6
2.52832 8.32692 20.1581 67 79 68
2.69908 -21.1665 -2.99161 46 50 38
4.01034 -10.0837 -1.00631 66 82 72
2.09501 16.4523 -10.9829 12 20 14
6.54584 -0.293076 -9.1577 19 82 57
-4.95509 2.83841 12.3012 66 73 60
1.62069 13.1842 -2.69044 5 18 3
6.36049 -16.9927 -9.65775 185 205 187
5.21118 -3.21936 1.54684 51 64 58
-3.95028 6.11113 11.9735 21 47 31
-6.39651 1.07191 -6.86724 3 58 39
-1.25043 16.3698 1.44727 1 27 9
-0.841942 -0.704018 -15.8102 27 40 23
4.58334 -14.3607 -24.5082 69 49 23
-1.24675 13.1162 25.9767 55 63 54
-4.72316 6.31295 9.46754 0 2 0
-8.65962 -2.76557 4.353 67 39 4
-3.16872 14.867 35.7859 63 72 63
-4.03406 5.40774 -5.22373 0 20 0
-1.90613 19.2482 34.0847 60 72 61
0.504044 18.1024 37.4686 67 82 73
-0.0251007 5.53436 -18.4335 7 29 15
1.35933 21.8936 -14.379 75 78 45
-0.407942 25.6632 -4.47792 109 56 4
-1.01785 20.6308 -3.51484 60 52 19
-0.539246 8.8268 -12.1345 46 59 34
-1.19395 8.61182 21.4465 44 57 48
-8.3311 -21.39 6.92448 143 171 156
0.303818 14.5101 -13.5644 47 30 0
-9.49873 -5.41094 -1.87676 1 70 58
-2.1531 7.94998 11.8332 8 34 18
-0.401596 1.03775 16.7757 73 85 75
-9.0347 -4.13284 -2.95005 21 66 60
-0.730537 11.5368 -1.97249 80 70 38
-1.22102 17.4442 -1.98199 6 19 0
0.190453 18.9741 -0.0775681 58 44 12
-0.825294 21.3188 -5.05152 32 20 1
-1.02503 13.1512 37.2615 71 83 75
-0.89035 21.5166 25.3313 102 102 71
-12.7596 -21.31 12.9304 67 85 72
-2.30029 19.3638 28.2289 64 69 56
2.50288 -2.67496 -15.6636 8 34 27
-9.23029 -2.38016 3.12175 68 48 13
1.46009 12.6525 24.8662 65 78 68
-9.88292 -2.67164 1.27733 62 59 37
3.35304 -15.8806 -34.1686 97 50 1
-0.99176 11.1115 4.4495 62 28 4
-6.6377 1.65835 0.468128 43 65 51
-6.39848 0.724051 2.86214 18 52 44
-10.415 -5.91864 6.14287 66 75 68
0.559555 -13.1128 -28.6461 92 79 39
0.177811 11.5073 9.99759 60 32 2
-6.57096 2.06053 -0.0602126 43 70 52
2.53268 -0.910945 -14.2635 57 92 70
-0.275597 12.4678 -11.0994 13 35 9
-6.36745 2.5699 -1.78837 0 37 22
-9.22317 -3.88728 6.02779 68 44 5
-0.578901 12.7873 3.24001 27 27 11
-0.573273 11.2647 -8.42487 0 12 0
0.240211 11.1982 11.8644 67 33 3
3.27951 -13.8402 -29.3234 94 51 4
-0.961098 15.1212 -2.56558 65 53 19
0.838809 11.9904 11.6516 60 35 1
2.54058 -3.88442 -16.168 7 40 20
-8.83366 -1.24187 0.520731 66 36 0
-2.83164 -1.23438 -13.0947 3 40 10
-8.82719 -3.83836 6.24411 70 44 4
-5.49929 -20.437 12.0774 60 69 58
0.361958 18.1388 0.786297 67 40 6
-1.73857 10.7304 3.23051 54 23 0
3.35851 21.6293 30.3893 59 71 64
-3.15081 7.80658 8.05284 6 22 9
-0.18557 22.062 24.7698 106 102 65
2.08001 19.7504 32.2082 67 81 71
2.80593 -20.9963 -3.83413 65 69 49
-1.19122 8.1534 18.552 57 68 58
-1.21836 20.9664 -3.15334 6 29 6
0.190918 10.8522 -15.273 3 3 1
-0.375252 15.2527 36.4869 65 80 71
-1.02647 12.9786 36.6901 64 75 66
-1.60109 4.11238 -11.6112 63 44 0
-7.31246 0.193138 0.936333 63 46 4
0.159225 17.654 -12.9507 9 33 12
-0.438725 9.37387 -14.6949 15 33 28
-0.715584 20.6803 -7.06916 1 27 6
-0.853075 25.4189 -1.64139 61 33 6
-0.791164 13.7202 -5.1888 72 68 42
8.38906 -7.88735 -2.04069 65 74 63
3.21078 16.5132 23.2316 64 77 67
2.6025 23.2001 27.808 56 67 55
-1.33678 13.5505 26.3326 54 65 58
-8.75311 -1.38877 1.44042 66 42 7
-10.9041 -13.496 6.49807 67 80 70
2.50027 -21.5933 -2.76934 57 63 52
5.90836 2.26989 -3.81921 2 48 27
-4.95651 5.9487 9.59454 4 22 9
-5.0825 4.45941 -4.88221 0 9 2
-8.24861 -16.8513 5.95593 111 132 118
1.62148 14.8745 -17.5126 87 64 18
-8.75945 -11.8805 7.79449 76 86 78
-0.713469 -12.5585 -25.1991 82 82 53
5.58144 -18.2191 -6.00425 71 80 66
10.4076 -20.6392 -3.12717 60 69 55
5.62035 -20.4433 -37.0339 68 52 19
-10.886 -15.4991 5.33727 100 122 107
-10.3354 -4.1127 3.18703 62 76 66
0.0587044 11.1347 -13.8697 8 38 24
-10.9723 -14.0443 5.77493 82 98 85
2.37664 13.7334 23.849 66 78 68
-6.88528 -3.59736 14.9518 84 100 88
1.17759 13.5143 9.02926 94 67 17
3.97444 5.33481 -5.21538 64 46 5
3.15859 -0.639729 30.4665 70 89 78
-10.1715 -20.7111 6.40694 164 196 176
-9.48847 -9.74518 7.5423 80 95 86
0.531975 20.496 -12.5725 68 45 14
-6.8471 -3.37233 18.6296 66 58 34
2.56502 14.2799 16.1715 22 59 35
1.34681 14.2157 -18.316 36 18 1
2.17195 2.12827 24.4556 63 69 55
4.55298 2.1873 -9.52006 20 55 20
-0.775433 24.3793 -7.06752 16 35 17
-0.233475 -4.43239 -20.9169 105 85 35
0.813019 17.0559 -1.13669 26 28 17
-3.39268 -9.59978 -14.7199 91 104 85
-7.53558 -3.5724 17.9808 54 45 22
1.01918 18.2559 35.9734 69 82 73
0.831215 3.04922 19.4715 56 68 59
-5.70202 2.05833 10.1801 0 23 11
-1.72121 15.4789 37.8757 67 79 71
7.07801 -8.46509 -0.896164 76 92 82
-9.92622 -3.30155 -0.151051 79 97 87
1.1719 18.8386 35.2889 66 80 71
3.56815 -20.0076 -45.1015 72 72 51
-1.42096 8.4093 -6.96201 85 43 1
-0.994991 19.8014 -6.41127 16 41 23
-2.41605 0.490864 15.2747 73 75 62
0.611698 17.8138 37.3305 70 83 75
1.2856 21.3516 -8.64693 14 21 2
-6.48417 2.69707 0.947911 3 37 26
4.57568 -20.5905 -1.61647 54 60 46
0.0680542 12.009 7.41891 64 63 37
-2.40434 9.56736 -0.763985 2 6 1
-8.50752 -1.3224 -4.01934 8 62 45
-2.38268 7.34462 -6.92715 0 16 0
-1.87371 19.2592 36.2467 61 74 64
-0.762224 22.0646 25.7219 104 100 69
-7.90575 -0.179947 -5.24643 8 56 41
-0.675083 8.28019 -11.6501 56 65 34
-6.08918 -5.07705 -9.6348 77 104 87
-1.50795 22.9895 1.31198 1 5 3
2.4422 5.20667 -10.5782 104 67 8
1.15878 19.7678 35.2241 64 78 71
-5.43523 0.163338 6.27796 62 73 64
2.87693 -20.3461 -43.0516 62 69 56
6.62405 -0.970668 -9.53152 3 55 32
5.92795 -17.2577 -6.3941 79 91 79
1.82425 -12.9014 -29.4855 114 61 12
7.04178 0.603546 -7.47677 0 4 0
0.25573 14.1454 34.807 58 73 65
1.50523 14.2674 15.2067 143 88 15
-5.42735 5.70887 4.93714 20 50 35
-9.58692 -5.32233 -1.70538 2 64 52
-0.463593 22.9607 -7.69799 6 32 18
-5.38571 3.92667 11.4517 17 45 31
0.63804 12.4612 -17.7924 13 33 25
-8.12767 -2.46445 4.31186 64 40 0
-6.26031 2.64239 3.98128 8 56 46
1.02549 19.0338 35.369 66 79 71
0.683136 16.6756 33.7369 62 76 67
0.94343 -18.1183 -31.1861 58 70 58
-4.87534 -3.88965 -11.7344 81 88 66
0.41687 9.27043 -20.0234 15 27 25
-2.19454 18.6728 35.1453 59 69 60
-1.609 8.20082 12.935 2 29 19
-9.57406 -2.29543 -0.0698013 58 65 47
-3.23484 7.94478 5.27121 43 48 29
-0.143234 21.4738 -10.9354 0 9 0
2.30393 9.79963 20.9668 64 75 65
7.33023 -10.6746 -5.6083 114 114 85
3.49234 -17.6261 -38.4608 120 81 36
-1.23828 2.76153 15.8678 65 75 64
5.52623 -19.868 -1.20991 61 63 49
-5.30608 3.22398 6.88573 59 69 56
0.974957 5.96088 -18.6071 8 8 0
3.46548 10.3486 5.38837 2 28 13
0.941318 13.4759 10.6638 61 61 46
-5.1773 0.935684 12.7889 63 63 36
2.15307 2.1874 28.7203 65 71 60
2.30628 21.9547 32.7007 67 83 74
-5.22747 -0.316048 14.1127 66 43 4
-5.28414 -4.59029 7.72992 57 70 61
2.93138 11.0848 11.8503 9 24 6
2.50072 -1.39389 -14.7963 7 38 19
1.37756 18.7388 -16.6063 72 47 15
2.65878 14.465 23.803 69 83 73
-1.00826 6.70176 18.0291 60 71 62
-12.119 -20.5254 12.2783 62 76 65
3.45209 -18.9706 -41.8903 96 85 65
-7.88318 -6.01427 18.0486 118 128 102
5.88235 4.24277 -1.12981 22 55 33
-0.0149612 12.9043 -12.4474 59 36 0
-1.19937 19.5235 -0.272268 46 31 0
1.40997 16.0835 32.2328 66 79 72
-2.55985 8.07369 -4.97559 17 40 30
0.34417 8.93491 -16.719 61 54 29
2.94153 11.0826 12.7012 14 26 11
3.60657 21.5928 30.1182 61 73 66
-3.13747 16.2547 32.5185 59 67 54
-9.4665 -2.29175 1.85375 64 52 28
-8.16982 -19.4762 11.8882 50 56 48
-0.473686 15.4279 -8.97357 1 36 10
-0.553864 12.8275 -10.5664 16 39 25
-0.592809 11.4228 4.8812 60 41 9
-0.371445 15.9973 5.45315 10 33 22
-12.3008 -21.4168 7.80739 95 116 103
-6.40862 -20.9072 13.0463 61 67 57
-4.81143 3.77414 -6.60118 0 24 9
-7.8129 -21.3133 14.7742 53 64 54
-0.542053 13.7138 18.0686 106 67 7
2.41577 19.9714 31.4652 64 78 68
-2.72202 14.6132 36.4074 59 69 59
-4.84146 0.202114 -9.84276 37 68 39
-4.19596 -1.50579 -11.7947 16 56 36
-1.58408 8.37278 12.5019 0 20 7
-0.632732 19.4943 -7.04912 51 49 11
4.54016 -19.5926 -4.74644 53 59 48
0.934753 15.7017 0.191795 21 30 22
2.68695 19.9461 31.2165 62 75 65
-4.88803 -2.21212 8.73198 60 68 58
3.70114 18.9325 28.2471 66 78 70
4.37595 -4.23296 -12.1735 0 94 66
-9.71491 -5.5291 -1.15586 8 58 47
0.178734 14.9223 35.3675 70 82 73
-0.541992 18.9279 39.0496 74 91 80
0.0614929 15.67 35.2859 60 74 65
2.96927 -17.9638 -38.7283 110 110 82
-10.7424 -11.903 6.56022 70 84 74
1.32297 -1.67918 30.5596 69 83 73
2.52498 5.23007 -10.4013 106 61 1
-5.39445 4.86662 -2.8836 11 42 17
-0.49984 8.18198 -13.0451 6 12 0
0.222466 18.334 -11.8148 43 37 3
-0.542225 3.90615 -15.4201 1 38 29
-1.14803 14.8605 -4.70055 2 25 6
-2.57154 15.958 35.2441 51 63 53
-1.59429 14.6464 24.9709 64 74 59
-5.2373 -20.624 11.8284 65 74 66
1.25558 10.0573 -9.00195 76 72 44
1.06335 14.262 -5.11284 68 51 30
-1.61115 5.5036 -10.3742 88 50 1
0.728401 9.65229 -18.565 16 14 0
4.74909 2.59801 -8.91759 1 20 6
-10.3996 -7.72361 5.76848 66 79 68
1.43081 13.7176 -11.7797 75 61 8
-0.523666 4.33778 -15.0813 1 47 29
5.3662 -18.457 -31.107 67 49 13
0.000511169 14.3335 17.0683 44 38 4
-5.27769 2.07736 8.74695 80 90 75
-7.79173 0.162376 -0.405257 62 36 0
1.40499 4.42832 20.783 65 75 66
8.03918 -8.65863 -1.62353 66 80 69
-0.703575 9.78861 11.3269 16 25 6
-0.0317497 12.2819 6.93849 63 48 21
6.22144 3.60443 -0.0627441 64 105 87
3.77324 8.7505 17.479 63 76 67
-6.45089 2.32698 1.32842 2 52 36
7.69203 -14.6509 -6.53648 71 73 60
-7.70844 -4.54639 17.5611 80 89 72
-0.54055 3.69291 -17.6554 6 37 24
0.0882875 11.6088 13.9415 61 80 71
-0.817139 10.2029 -4.68111 87 43 1
3.8194 -16.104 -22.313 59 66 51
-0.0668449 22.2362 -10.7272 12 23 19
4.79939 -16.3195 -29.3288 79 42 2
-6.47958 2.39537 -0.631427 20 52 43
-1.51325 22.8509 0.700447 0 5 0
4.49133 3.09847 19.6831 67 79 68
4.02597 5.07708 -5.83197 50 36 9
5.06619 2.74192 -7.94737 0 17 4
-5.97002 4.43308 0.38819 0 47 27
-3.50222 -9.43259 -14.3581 78 93 74
-0.908455 17.2858 -3.7391 53 40 2
-0.222298 15.4256 7.52752 57 42 7
3.69587 -19.978 -5.85727 60 67 54
4.60916 -2.65739 -12.278 0 91 65
5.01978 5.33319 15.7963 35 67 55
0.631993 17.2427 7.90691 6 34 26
-2.10903 10.0916 3.47804 0 15 2
-0.988991 13.0654 27.4089 47 59 50
-2.64709 5.65345 -8.21528 0 12 1
-5.48487 -7.55102 -5.07053 1 72 50
-3.0999 6.79143 -5.03584 24 50 33
1.72711 11.5571 -0.871094 76 36 1
1.93125 23.6849 29.2375 45 53 46
-1.19377 17.9643 -2.63427 1 26 8
-0.214752 6.94215 -14.3807 53 66 47
-0.465521 15.4731 20.5432 96 67 9
-1.81905 7.29364 14.2424 0 24 8
1.29825 17.0994 32.3794 60 72 63
-1.19713 19.3088 -0.259904 55 38 0
-5.31071 -5.42036 -11.2557 97 115 99
1.22237 19.7919 34.8616 62 76 69
-6.77374 -2.61694 17.5306 64 49 24
2.88506 -15.6092 -33.8665 110 79 15
-2.72107 -8.58404 1.6963 71 87 75
0.908174 -0.17247 29.6691 72 84 73
-0.911461 20.0869 -5.08809 0 4 5
2.82366 -21.7956 -43.814 58 74 64
-0.0994091 -11.7336 -26.3425 97 78 39
-8.0343 -8.84323 20.0758 77 92 84
9.8365 -21.3843 -1.30809 72 75 57
-1.06559 23.2931 30.8975 58 74 62
-3.4267 15.4802 33.743 62 71 61
-2.36072 -1.92964 -14.1041 4 75 57
-0.257133 14.5132 6.12116 0 10 0
-0.964493 7.11211 19.187 54 62 53
-3.65143 7.33696 8.91898 0 1 2
2.30019 5.58782 21.0203 78 90 77
-5.51283 -2.63219 10.677 94 104 90
-7.90914 -8.7062 20.1157 78 92 84
2.17839 -6.85882 -20.4615 69 52 33
4.06196 10.1379 7.82203 0 36 15
1.44032 19.112 -11.0959 50 53 48
-10.4335 -14.8851 4.56185 109 134 118
-11.9091 -20.0591 7.39783 109 138 122
-0.0438766 5.54939 20.1721 50 59 49
-1.34663 9.26004 21.1562 54 54 37
2.65761 -19.4151 -40.6271 74 83 66
-0.763435 19.3001 5.61031 42 36 12
2.5696 18.5536 32.0809 60 67 57
-0.876732 19.0577 -5.30395 10 21 2
1.54396 16.3965 -6.9087 14 25 22
-10.154 -9.62835 7.15729 73 82 71
-0.907112 14.9133 -5.3563 21 50 20
-0.768341 9.3763 -9.33179 75 67 46
-4.48765 -0.325294 -10.7722 4 56 34
-10.385 -7.58724 6.37279 67 81 71
-0.495262 -2.158 -18.1367 70 59 32
4.24514 6.00291 18.2894 70 84 74
-5.9948 4.44933 1.73821 39 63 45
-6.53979 -0.0588245 11.8868 72 60 29
3.07546 -19.4429 -42.1626 68 72 52
3.0953 17.199 28.6401 62 74 66
1.11559 18.0656 -6.72339 65 33 2
-6.67374 -19.7159 8.65063 100 122 108
-2.1394 -4.76265 -16.0071 28 66 53
-2.24076 8.84202 9.64579 10 36 24
-0.980001 3.20443 -12.7724 92 96 65
-6.8438 1.7031 -3.64652 4 21 5
1.57918 20.1854 -10.2214 6 17 1
-2.37502 -2.73223 -14.5166 17 73 48
3.13548 2.3925 -10.7771 40 57 39
0.539706 19.167 -0.874168 3 7 0
5.01868 6.51716 8.36241 9 42 32
-0.558044 21.3666 24.7056 106 104 69
-0.7407 18.6695 5.6481 18 24 6
-1.62386 9.79677 7.96014 5 18 11
-0.89283 11.586 -3.00309 45 45 24
-3.07469 18.1646 29.2483 64 74 62
1.96736 11.45 -17.0529 3 16 3
-2.48073 -8.38607 -17.586 83 99 80
0.494156 21.5051 -2.03258 7 13 1
-0.880722 13.3716 -0.524421 5 19 1
1.17819 4.30916 -14.0838 43 55 36
-1.16294 18.9806 4.32087 1 13 1
4.98285 -17.7335 -34.8522 97 50 3
3.54438 10.4382 18.7943 63 76 66
0.756084 21.047 35.4901 63 79 71
0.0671158 15.2479 35.2123 68 82 72
-4.11283 7.0765 -0.291655 0 0 4
-0.353313 -2.36211 11.5617 70 85 75
0.245787 -10.614 -25.8073 112 86 26
2.22483 2.07328 23.5304 64 70 55
7.64881 -15.6029 -7.10552 64 67 51
0.392925 17.1681 8.16399 34 49 39
-9.29227 -2.7713 3.67282 65 39 0
-2.99486 -3.04421 -14.1683 21 48 21
-10.7959 -21.2264 14.3729 65 78 70
-0.73151 8.40146 -9.89689 46 35 5
0.467598 0.682484 28.645 59 50 29
-0.731087 -8.33496 -22.5243 106 85 32
-0.741737 15.3543 -7.93513 1 6 1
4.68833 -16.1563 -26.4799 63 58 37
-3.27022 15.8936 33.3855 58 67 57
1.48433 -7.20088 -21.9182 120 62 9
-7.03974 1.20788 -2.70227 34 30 1
1.17741 22.2558 33.2143 65 80 68
-1.96145 -0.756073 -14.4174 2 34 10
-0.27026 9.9478 -12.7572 1 41 23
3.35839 -20.9166 -2.48557 54 61 47
2.02805 -9.86591 -24.6693 136 64 2
-0.200558 1.99154 -18.4339 65 64 44
-9.94057 -3.85054 0.437878 67 80 71
7.40681 -4.60192 -0.602234 2 50 38
1.02047 -15.3521 -31.0871 80 80 62
-9.25689 -9.97043 3.63289 153 182 158
-6.06888 3.38743 -2.59892 6 34 26
-0.990631 -2.75978 -16.525 87 83 44
4.25259 -19.292 -6.51722 66 75 61
-5.35028 1.0828 -8.55989 4 50 20
-9.68084 -4.58139 6.62081 73 63 41
-5.91632 -5.00733 -10.1558 82 104 90
-4.62416 -4.3028 -12.2288 99 132 112
7.55315 -11.9669 -2.70686 66 79 69
1.73929 11.2319 -14.9446 4 0 3
-3.25789 3.21502 -9.54537 24 80 55
-10.2463 -8.71401 4.6376 115 136 118
-5.37722 0.804722 6.75659 67 78 64
5.17178 4.44299 15.1585 66 79 67
1.32938 23.4533 25.6241 73 77 61
0.0532761 21.444 -0.738564 22 33 26
1.09798 13.9176 15.1753 97 64 17
-8.0824 -0.715523 -5.06279 24 74 58
-13.3269 -21.1494 11.8488 64 77 66
-0.318977 -6.59486 -21.6784 132 122 85
7.21537 -4.88732 -8.78071 99 118 106
4.42002 8.02821 15.1228 9 46 36
-7.67793 0.320503 -0.587516 61 38 2
-5.62573 5.69797 3.74569 12 28 12
-0.00387192 13.9771 16.821 36 44 15
3.17088 7.29407 -5.26584 3 23 5
-9.17427 -3.9989 -2.42837 1 58 34
-0.0709457 5.12853 -18.1109 3 19 8
1.14465 15.3059 -0.241386 24 34 20
4.60446 8.30675 6.63831 11 53 43
1.84786 14.1034 -12.841 5 4 1
-2.8674 6.42344 -6.48273 11 29 13
2.90527 -1.82634 30.7837 69 89 79
-2.98469 16.2505 32.9996 59 65 53
-5.57684 4.23058 -3.65944 26 58 43
0.418396 16.5604 35.9793 59 71 65
0.0346947 23.6856 -8.56755 103 72 0
-9.63993 -4.77803 -0.664697 1 34 23
1.96384 -17.1181 -35.1054 90 103 82
-2.92073 -7.91453 -16.1819 10 76 59
-4.72807 5.674 -3.40702 19 49 30
0.177711 24.0466 -2.93216 35 30 29
-0.655243 -15.1021 -23.9812 56 67 57
7.74381 -10.465 -5.21159 144 153 123
3.48649 -5.07521 1.8231 59 70 61
-1.10381 19.1284 3.04732 17 22 10
0.0785198 13.8919 -12.0689 24 40 11
-5.57291 0.743538 5.85759 7 44 27
-1.53086 8.93115 -6.06415 88 52 2
-7.81509 -1.42108 -6.28397 5 61 40
-1.28277 13.1558 20.4488 67 58 27
-0.241577 -14.0528 -26.7883 84 82 60
-0.733109 11.5394 -2.31172 60 41 5
5.90753 -3.1724 -11.2606 0 92 57
1.42126 21.1016 34.2162 73 89 80
-0.470942 8.70196 -14.576 0 38 20
-10.9969 -16.5375 5.76592 104 128 116
-0.354279 23.5466 27.4808 90 96 76
-2.06293 -12.4662 -13.6595 55 67 59
1.81311 18.4676 34.1478 67 79 70
-2.46502 18.3997 27.0102 74 75 55
10.1826 -21.1322 -4.72116 119 131 111
0.67511 16.4696 0.911098 61 47 16
-0.663559 7.26508 21.1886 48 55 46
-0.671074 8.02095 -13.2419 1 13 4
-4.02029 6.68253 7.41814 7 23 2
-0.631531 16.4247 -6.4926 89 69 24
-5.61643 2.8576 11.6705 23 56 46
-10.0617 -12.2985 4.08105 117 139 120
-2.38472 9.8521 3.93849 0 8 0
-0.418129 11.7222 5.61851 54 35 0
-0.312675 -0.995941 -18.5341 73 80 60
-0.316147 11.8488 6.36241 66 48 8
-3.17688 -10.4698 -15.5278 117 131 113
-3.10604 15.884 30.0256 72 85 71
-2.91195 8.34622 6.97394 0 3 0
3.81324 9.60764 16.4985 63 78 69
-1.23848 9.90252 15.5035 140 118 62
0.0825806 15.6784 35.0994 59 73 64
0.986176 19.5974 21.1019 117 89 19
-0.418034 8.52885 -12.8641 50 56 26
0.846622 18.5111 -1.76503 17 27 15
-0.61644 -3.31006 -18.6988 46 52 31
-1.43816 -14.0701 -18.0578 64 77 68
-2.01886 9.75643 -2.48574 29 15 0
0.533428 20.4462 -4.09579 36 45 38
-9.96458 -3.60526 0.0461287 63 81 70
4.59758 8.65555 12.4666 13 53 40
3.66384 2.31513 27.0385 68 78 66
1.05553 -16.2392 -31.3677 74 79 63
-3.12894 -4.49783 -14.4892 6 59 29
4.5846 -21.635 -47.9332 82 72 45
-3.16902 -9.81628 -15.3367 87 107 87
2.08908 1.6646 20.9396 56 68 58
6.45096 -4.57981 -10.1625 84 124 109
-0.33379 24.827 -0.911903 32 21 8
1.54947 11.9103 12.3112 74 45 8
-2.33805 18.6567 34.2294 55 66 57
-1.21734 16.9286 -1.07492 0 15 0
-0.539482 24.3251 -5.47532 62 28 0
3.42398 -21.7274 -6.58324 93 113 96
1.69187 23.4024 25.7492 68 76 60
4.61755 -19.5885 -42.5662 83 56 9
1.20686 14.0144 -5.31961 56 40 14
-0.149435 17.8 38.9851 69 83 75
-8.53643 -1.04244 0.886791 58 39 4
0.243454 20.4132 -11.6969 17 35 10
-5.55209 2.81314 -5.91365 23 74 61
2.72597 23.4028 29.8272 46 56 48
4.87696 6.81176 14.4154 16 60 49
-2.14082 -0.0311737 -13.6859 18 54 24
-2.67513 8.95044 -0.256932 0 6 0
-0.354942 14.455 18.7795 79 58 6
0.699524 14.9194 34.1758 67 77 68
-5.58289 3.33678 -4.88474 31 78 66
-1.15253 12.2889 25.2124 56 64 55
-9.01131 -1.28534 -0.209421 63 59 41
-0.0788727 13.3173 6.79925 57 55 37
-9.09308 -4.4189 6.80632 80 55 31
-0.803001 11.7671 1.23237 56 43 13
-1.51337 23.5141 1.29618 26 15 2
-0.733856 9.68251 13.0611 1 21 5
-0.834908 13.5356 -0.361491 14 22 3
1.88647 17.5172 18.8706 129 101 37
-2.00729 9.3496 -4.00905 35 19 0
2.40337 2.76052 24.6275 59 65 52
-0.748955 10.5478 14.3852 44 32 0
-2.63069 18.9562 30.259 65 73 62
3.24978 11.1286 8.44234 17 46 38
-2.62509 -4.98714 6.8119 54 68 61
0.0936432 14.8478 17.6374 95 62 9
6.01733 4.2374 6.01982 6 43 31
-0.000846863 10.5363 -15.8586 0 25 14
-2.88386 4.80239 -8.77242 0 15 5
-2.24416 10.08 4.25678 4 9 0
-0.372646 17.5369 39.1305 73 88 78
-0.590515 3.71738 -14.762 5 38 30
5.20153 3.98751 13.6194 76 85 76
-1.79582 6.63831 15.5715 60 67 61
-0.352129 20.8817 36.2717 68 80 72
0.941986 17.2665 36.1563 66 78 70
7.04018 -0.486627 -2.49287 6 30 24
3.12889 20.9943 25.1864 83 96 84
-0.682716 14.602 -5.85228 85 67 26
-0.690918 16.0979 -8.78072 0 25 11
3.04092 8.00987 -4.96367 3 19 2
6.71111 2.03386 1.27188 71 77 60
-1.99448 18.9247 36.5517 59 71 62
-1.38178 10.3058 16.7735 99 68 6
-8.42711 -21.5689 15.6426 51 64 54
-4.10643 -4.3374 -13.3276 0 71 42
-0.0629044 5.34151 -18.0906 5 29 17
-4.62083 6.35497 10.0731 0 16 9
10.452 -21.5477 -2.73143 63 74 61
-4.42834 -4.23016 -12.7909 9 68 53
1.48846 23.2782 25.1171 98 104 82
3.26546 16.0405 20.4814 111 121 100
2.97546 15.9181 19.1195 89 96 78
-0.341537 1.26815 -18.4642 63 49 26
-5.12458 4.15696 11.8118 32 66 48
-10.4615 -14.5642 4.53627 113 138 122
0.126846 15.7341 18.5566 84 59 5
0.717976 20.5249 -2.75464 74 41 0
-0.297623 18.9226 -7.51684 95 65 17
-1.1659 8.08413 20.3415 52 57 44
-10.7641 -13.9206 5.02191 89 109 93
3.44535 20.4391 26.8363 99 118 105
-3.81734 6.81864 11.1734 2 15 1
-0.952499 18.6676 -3.47598 84 61 23
-1.07577 15.6778 -5.02877 2 26 4
-8.08253 -3.05038 -5.89721 0 53 28
0.301392 21.0284 35.8685 69 82 73
-0.388367 0.831585 -16.8403 62 65 47
-9.09015 -16.4405 8.70217 79 92 82
4.58041 -17.0674 -35.3131 89 40 0
-0.682495 10.9317 -7.74925 55 65 30
-0.215584 12.9295 15.8958 17 22 9
2.72694 18.932 31.9396 68 78 68
-2.97746 8.06122 -2.33071 23 61 44
-0.940959 14.1809 37.2776 79 92 82
-6.32526 0.666397 11.3705 6 32 20
1.84734 22.7225 24.2742 87 90 66
-8.20037 -5.28954 7.53368 83 68 42
-1.39637 14.8054 23.6722 65 73 57
0.347084 16.9659 -13.1897 0 27 4
5.23771 -17.97 -32.7321 79 50 0
5.7467 -0.0321436 7.24997 0 39 26
-0.652512 -7.08997 -21.6039 130 124 93
-4.97607 6.31241 0.46032 5 8 0
3.30993 18.0825 28.4687 58 70 62
0.515785 23.5921 -10.1116 61 35 1
-10.3977 -5.10722 5.64932 69 76 66
-0.10133 2.13488 -19.85 60 41 3
-0.239799 14.3159 5.8082 1 18 2
3.99828 -20.3063 -2.97368 46 48 36
5.06705 -17.7001 -33.7032 73 41 1
0.0585365 7.75221 -18.4156 2 24 18
-2.64397 16.7234 37.003 55 65 57
-0.092453 16.1509 -11.4261 0 12 1
-1.30845 10.7837 -1.1274 56 24 2
-8.28133 -17.4385 7.92055 74 82 71
-1.31894 11.6215 21.2713 55 62 52
-1.03825 13.0737 27.1752 49 60 52
-2.21139 1.31007 -12.8055 2 39 12
3.03133 -5.47935 -16.2504 20 47 38
-7.62166 -11.5869 6.32476 66 75 62
-2.3775 -6.47063 -16.925 28 62 43
-1.04051 10.5371 15.5798 79 49 1
0.50312 1.09418 -20.8507 100 106 72
3.4793 -14.5087 -30.4399 91 38 3
-0.94165 15.9701 37.9801 70 82 73
0.888969 5.63032 -13.6221 69 47 11
-1.5191 9.03505 -5.88487 74 39 0
-1.32695 8.7693 14.8801 47 48 25
4.2475 -17.9282 -25.969 58 70 62
5.59543 -19.026 -33.2451 80 54 10
-0.0675964 0.224977 -20.1311 94 101 70
-1.01833 11.9867 -3.68529 1 20 4
0.159157 18.528 -13.0292 13 41 14
-10.2863 -6.93298 6.79932 69 77 76
-1.76287 7.38932 14.5719 19 36 24
4.55859 2.88369 19.4846 68 80 69
0.637146 15.1529 -15.1665 51 52 26
3.76405 7.25158 -1.96916 32 41 12
-1.01328 15.4021 -0.659744 3 14 1
-6.36597 -8.97696 4.5293 60 66 56
6.35574 -2.10659 -0.887161 4 30 15
-5.73646 2.98006 -4.79493 5 52 35
8.16964 -4.51596 -1.26768 16 48 39
6.00237 -1.48296 1.89386 63 73 66
3.54673 -10.9195 -17.4442 71 58 32
-5.3687 4.57558 8.97201 1 25 6
-1.88831 6.7959 -8.50694 55 33 0
2.04978 18.3217 33.2637 68 74 59
1.83112 -4.94573 -18.8736 75 53 0
4.02338 -18.758 -41.3529 110 66 19
-0.461548 16.3163 -7.29604 55 41 3
-0.879166 1.89392 -14.5061 40 36 5
3.8978 -14.7697 -29.7455 83 42 7
-1.20815 3.93803 -12.3635 69 63 34
-2.80707 15.0871 35.9664 60 68 57
-1.79257 20.6823 28.1883 58 69 57
-9.81181 -2.67807 2.19474 62 41 1
-1.1195 18.8329 -3.0214 34 40 8
0.524963 -1.21136 30.0149 74 88 77
6.78206 2.07684 2.23748 71 81 68
-0.56263 7.89682 -13.7839 24 56 38
-0.649887 23.2699 -4.74226 78 53 2
-6.18977 2.33507 -4.70638 1 18 4
0.92205 14.4501 8.39373 66 55 33
1.52637 20.1964 34.1933 65 78 71
-5.44435 2.21231 9.05591 86 93 76
-0.205471 22.7282 25.5232 111 111 80
7.75804 -0.959587 -3.77912 1 8 0
-0.864695 8.24488 -8.68581 73 70 49
5.83899 5.28537 4.77892 16 45 35
-0.406479 1.08387 -18.1061 67 54 28
-7.53097 -5.63994 17.4898 94 121 100
3.87069 3.07678 24.0028 132 140 122
-4.53015 -0.032753 -10.2123 34 74 56
0.0591431 22.282 -10.2652 20 10 0
-0.497932 17.0386 7.31774 16 28 12
1.03288 7.87737 -15.4944 6 23 10
-1.12209 17.5646 0.105737 52 40 8
3.12837 18.6944 24.0611 67 76 66
-7.52501 0.631603 -2.21002 57 34 0
3.98357 9.96455 12.346 5 36 22
-1.99216 19.6463 30.8211 61 71 60
3.24532 6.28523 -6.34148 13 44 23
6.20286 2.8418 -1.64056 44 80 60
-1.29287 7.89285 -7.98937 100 54 3
-10.0342 -13.5093 4.04462 123 148 128
-5.77015 -3.82053 18.4091 61 70 60
-10.1304 -4.13429 5.04952 65 52 27
1.71227 21.3872 33.7079 69 84 75
-1.35484 18.813 0.688757 5 28 6
1.38894 11.3612 -18.9467 115 113 78
0.291283 22.8966 -9.53632 66 31 3
-4.93319 -20.8578 11.3177 69 82 71
-10.8122 -11.2688 5.31719 81 97 83
-7.4048 -8.73964 20.2968 75 94 82
-2.70027 8.62912 8.06534 0 1 0
-0.126511 13.295 6.41965 54 45 19
-3.42275 1.92354 13.4947 67 76 60
-0.207168 20.554 36.8583 66 79 71
4.01766 -19.3418 -42.7916 87 60 13
-5.27639 3.9148 -5.56365 7 69 41
-8.67197 -8.96191 19.7689 63 76 66
-0.330467 12.9951 16.3642 44 38 9
-1.56264 12.8 36.8899 66 75 65
-5.12686 3.40551 8.07297 61 75 59
-8.35824 -0.915756 -3.99926 18 67 52
-9.97125 -17.4209 5.30128 160 192 170
0.857002 21.7937 -6.18916 19 27 18
0.623684 23.2895 25.4842 104 106 80
1.09594 1.62769 28.0974 62 58 39
1.57999 23.3244 31.2414 56 70 60
-11.9636 -19.8629 10.3684 67 75 68
-11.0693 -14.3496 6.00829 81 98 86
1.80176 14.1671 -10.92 5 36 10
-0.450844 0.410164 -16.5003 58 60 36
-9.42226 -8.29021 3.78452 150 191 166
-6.66644 -1.62358 15.6925 62 38 7
-0.835665 11.4765 -0.73954 55 46 21
-1.28534 9.66895 -4.96507 99 48 2
-7.30358 0.732414 -0.590318 63 44 4
-1.844 10.5561 3.92647 52 23 0
-1.43361 -7.95956 -20.9685 92 79 46
0.913491 -5.7738 -21.5169 143 123 55
2.78009 -11.3505 -25.8676 93 49 13
2.19986 -9.48113 -23.8793 110 45 7
6.33293 1.98115 5.98386 3 50 33
-5.2882 1.26231 -8.34603 6 41 15
1.04833 23.7921 -11.8568 97 105 87
-1.9778 13.8255 31.4221 63 80 69
-1.28257 13.6059 29.4728 53 63 54
-0.0144501 11.0752 9.59339 63 46 6
3.84216 -16.4309 -35.177 89 41 0
2.82273 11.6974 9.24607 35 41 25
-6.75682 -2.24181 12.3882 66 80 69
0.244457 15.0619 35.1548 67 80 71
-1.35224 12.7798 21.4266 58 62 47
-0.59317 8.44837 -12.1521 67 65 42
1.41022 15.1754 -16.9516 39 43 4
-1.73551 -8.48198 -20.5341 94 80 44
3.75863 -16.1526 -34.3898 76 35 0
-0.689323 24.0975 -6.13073 45 22 2
-1.37829 -11.2548 -22.5833 82 94 74
0.281036 -9.14847 -24.2659 168 133 63
-0.750092 3.38383 -14.0501 62 69 47
-3.03911 -1.30018 -12.9008 5 42 3
2.04471 4.64618 -11.8022 36 39 16
-0.362574 4.2272 -16.8908 0 20 4
5.74207 -9.99926 -1.20816 74 90 81
-4.96252 -0.966965 8.32355 63 68 54
0.862289 17.4189 -15.0433 61 33 2
0.203289 14.4049 -12.5865 53 58 26
-1.80871 7.49293 15.255 58 38 1
7.66107 -1.24309 -7.0423 24 55 44
3.36326 -21.5311 -49.3173 120 130 114
4.56306 8.30713 6.89171 22 58 48
0.648048 12.3318 -15.7721 57 38 2
-2.04136 -12.5774 -18.4782 69 85 71
-0.720097 8.59445 -10.7577 0 15 4
1.42625 17.6096 -17.4489 23 58 25
1.60154 -0.175903 30.0548 70 80 71
-1.27434 13.2031 22.7852 59 64 51
1.18642 17.8666 -16.6625 36 35 32
-1.18752 17.4158 1.87558 20 28 7
3.15882 8.52924 -3.3153 2 24 11
-2.78757 15.7807 29.0871 67 79 66
1.84758 18.5941 -12.6249 18 27 4
0.525352 9.60654 -17.1641 70 60 31
-0.793648 10.9524 6.21567 64 35 4
-0.230968 26.551 -3.62514 52 52 28
-4.46455 6.70619 9.6774 1 5 1
7.34732 -2.11709 -1.42096 0 23 10
3.65408 12.3539 17.8598 9 51 38
-10.6577 -10.4468 5.13576 111 133 114
6.40757 -19.6009 -1.08199 54 51 29
-0.0464401 21.222 -10.3731 7 15 0
4.55304 1.57453 22.798 62 70 61
1.44392 19.8279 34.1679 65 79 70
-0.145241 14.0104 17.1195 22 27 4
8.37451 -5.53656 -1.62937 46 68 57
-1.39626 10.0492 19.8844 56 64 56
1.59893 20.4938 -9.15043 11 25 9
-0.65181 9.28118 23.6682 61 70 60
-0.612839 17.6764 -6.63929 89 69 16
-0.0898438 19.0977 22.5725 109 88 27
-0.25934 -11.7971 -26.0228 92 76 43
-10.9764 -20.7993 13.5853 71 84 75
-0.27227 0.0466957 -19.3388 85 77 44
1.76581 19.9073 21.0795 157 135 78
-0.09971 19.3924 38.3999 69 83 74
2.29849 11.8902 10.0038 58 45 22
-5.53355 2.35078 -6.4908 53 71 58
-3.14528 16.7801 28.6687 65 74 61
-1.37228 20.1207 2.16734 13 27 12
-0.0270786 -15.4531 -27.3658 75 79 62
2.71545 17.0134 25.6556 61 73 66
4.80321 7.02883 14.6215 25 65 56
1.83217 -2.67661 -17.3153 125 94 25
-1.17351 10.39 -3.49928 84 53 7
3.26512 21.8454 26.724 99 115 101
0.79023 6.23756 -14.5216 58 42 7
0.763367 6.93456 -14.8354 56 48 22
1.31453 14.4436 9.96845 78 63 17
-3.30997 7.56805 -1.94018 6 29 12
4.55611 2.41626 13.1982 52 65 58
1.23695 17.8468 -16.906 16 26 14
0.208389 20.1574 0.0859184 49 28 0
-0.573875 3.70879 -15.666 0 33 17
-7.6142 -3.7051 -6.74566 0 45 25
2.47191 17.474 -16.775 76 55 2
-3.38511 3.71664 13.1071 68 71 64
2.98608 -20.9598 -45.5574 56 62 49
-6.1637 3.79559 0.194942 4 36 8
-2.36304 -6.85883 -17.3027 22 61 39
-8.05064 -10.3688 19.6512 75 93 84
-1.12361 20.9617 35.6227 62 75 65
1.67954 -11.8454 -27.948 129 67 15
-0.631767 -3.05566 -17.5344 7 28 9
-0.825325 19.1778 -4.76167 1 5 0
-7.03727 -1.94899 4.85651 71 50 15
-8.68481 -1.14285 0.703801 63 35 0
-9.25757 -8.77316 3.69328 164 193 169
4.73199 -14.2926 -5.05766 62 72 62
3.17822 -20.806 -47.1721 52 62 51
4.81564 -16.2118 -28.4267 65 37 4
-8.48461 -9.25697 19.8548 67 80 70
5.03528 5.85249 12.5803 3 50 39
-2.49838 17.3118 30.9883 58 69 58
-1.10397 14.2632 -1.56129 0 23 6
-0.979771 20.8212 -5.94124 1 17 4
1.6119 18.8415 34.4504 63 75 67
4.3034 -5.97638 0.659325 67 81 72
0.919923 12.4836 11.2069 65 40 7
-6.13626 -2.53393 6.43417 71 69 48
0.692635 24.429 -9.18139 131 84 18
-0.618744 17.728 -9.23094 25 47 27
-7.02956 1.41138 -4.40149 7 24 5
0.247161 -0.937637 29.7394 68 77 64
-4.85201 6.35808 -0.474442 0 1 0
-1.96684 21.3445 27.1569 71 82 67
-2.91416 7.10588 -5.56014 7 35 27
-8.84243 -1.52975 -2.54902 0 44 32
0.520622 18.0127 -13.8049 0 33 9
-1.81162 7.15664 15.8409 58 58 32
1.85721 10.2063 -19.131 40 23 0
6.17267 -1.17236 2.93607 62 75 66
-5.7813 -1.89083 6.4195 72 67 49
-0.308075 15.4482 36.3146 60 74 65
1.71978 19.0034 -16.7147 75 69 51
-0.284515 15.0791 6.36256 0 11 5
-0.769756 3.28368 -13.6356 55 65 46
-7.59813 -1.88127 -6.75105 8 85 63
-3.53168 7.1778 7.75129 25 26 7
-0.34782 -9.0329 -23.6418 129 99 55
2.04487 -19.7209 -37.6341 75 88 72
3.49158 10.6379 6.53428 10 50 37
0.5672 12.1891 -17.6532 34 60 54
-0.379309 23.0071 32.0507 64 78 69
2.9332 12.1959 14.2317 104 86 43
3.26295 21.8486 30.703 63 76 67
-9.42183 -3.51795 -1.57252 16 60 49
0.59634 17.1841 -13.6424 0 27 4
-12.4371 -20.8015 12.5326 72 82 71
0.73104 1.01111 -20.5277 101 75 18
0.529739 3.21531 19.0255 58 65 54
-2.47214 9.69373 4.26926 0 4 1
-0.0493546 18.9254 -10.7968 1 29 5
1.37599 -10.8906 -26.7237 119 66 6
4.81278 -17.3158 -34.928 70 33 1
-0.295418 6.78277 -14.2086 53 63 44
-0.589439 18.9005 -6.94253 70 62 18
3.78651 -8.69011 -0.193848 75 90 81
-2.90742 8.33516 6.73464 0 6 0
-3.21109 3.75169 -8.9847 12 42 23
-1.7984 8.19373 -6.57816 64 38 1
7.43542 -19.4703 -2.51265 62 51 26
-3.33842 -0.424812 14.9144 72 84 72
1.16201 10.0017 23.1547 67 78 69
-9.22996 -3.70181 -2.26111 5 55 39
5.23026 -19.1676 -30.7324 62 69 56
-0.904823 14.1415 0.93611 1 26 10
-6.80206 -4.49709 19.7487 71 72 54
-1.36549 17.0603 1.1231 6 24 2
-2.18288 15.0464 28.9993 54 64 54
-0.939537 2.59404 -13.316 88 77 49
0.248875 23.3114 -9.18233 92 66 44
0.748898 20.138 -1.66995 12 25 12
1.26922 20.7039 34.8758 70 84 75
-3.43561 7.81978 5.83587 15 19 2
4.61992 6.13579 -1.74236 3 18 4
0.0921555 18.2833 6.17922 49 36 6
-1.18176 4.68773 16.0247 62 76 64
-2.4677 -5.73858 -16.0528 29 75 66
0.00318146 14.5189 36.0222 65 79 69
4.85882 -17.9813 -36.4637 71 34 0
4.13214 6.09237 -4.09014 1 9 0
1.33212 16.0753 -3.34235 20 35 23
-1.05824 18.7581 2.91902 26 24 7
0.409035 14.1679 34.0778 59 68 63
-4.70705 -7.41406 4.05258 14 14 16
-6.13911 -4.20456 -9.88511 94 111 91
-0.0939217 16.9685 -10.5932 73 59 15
-8.70937 -4.79952 -4.15746 5 81 64
2.1234 19.0902 33.0794 66 80 69
5.29746 5.30033 8.19527 25 49 36
1.05443 18.2118 -4.78866 4 11 2
0.601089 16.4536 -13.9267 73 59 30
-5.57973 0.642987 -8.61868 66 121 96
-5.4407 -7.73951 4.14916 14 19 23
3.54681 -11.4976 -23.8565 69 32 0
3.43764 19.0584 29.3673 64 77 69
0.136667 22.0021 -8.84951 88 59 22
-0.254374 -14.4089 -26.7482 70 72 57
0.118037 23.8494 -1.15458 7 10 1
-5.5666 0.508389 5.70235 2 35 22
-8.43101 -1.57145 -4.71664 28 84 71
-0.61673 26.5629 -2.79938 69 45 14
0.317703 21.0802 0.634872 80 50 13
-0.820107 2.98247 -13.1669 77 79 56
-5.50529 5.76831 4.75445 31 56 39
2.77688 -21.4713 -43.7154 67 82 70
-10.7689 -10.3237 5.4784 75 90 78
1.79565 12.689 -13.4309 0 24 8
-9.85971 -12.4477 3.81773 130 153 133
-4.62967 4.44681 -5.93455 3 13 2
1.10889 19.5648 35.1262 63 77 70
-2.25681 17.5113 32.7297 68 83 70
5.19061 5.27202 12.8193 29 63 52
-2.87014 8.59277 4.71908 5 18 3
-10.6668 -18.4724 9.05193 77 93 82
0.432669 23.6662 30.8331 59 69 60
7.66593 -1.45561 -2.97578 0 19 13
-11.5484 -20.2271 12.1608 60 71 63
-1.29585 13.3454 23.4021 63 70 56
-7.4618 -7.16508 -2.81361 84 99 90
-0.543159 18.8837 23.8193 81 80 54
2.10252 3.03955 -13.1834 112 83 19
-5.63197 -4.22314 7.55953 65 70 60
2.552 -8.13527 -21.1896 52 57 36
-2.24919 14.0661 31.6221 61 74 64
7.36968 -5.49578 -0.568741 5 65 51
2.80141 -13.0095 -28.6619 105 47 8
2.95221 11.1327 12.2462 10 27 11
-0.758141 13.1632 36.5899 66 76 68
-9.51349 -10.4049 7.4639 77 94 84
-0.519424 25.0797 -0.757347 52 44 27
-0.379128 16.2988 38.1643 69 81 74
-0.333389 18.0759 -9.69798 13 20 3
-1.23859 -3.29028 -16.7328 41 64 16
-6.51311 1.4558 1.56177 17 56 43
-0.977524 15.0975 -3.89425 1 21 6
0.492203 16.251 34.6569 64 78 69
0.247688 24.1335 -1.28977 18 18 6
2.2592 -7.02498 -20.438 36 25 12
-3.09885 8.02016 7.85686 4 16 7
-2.62219 17.2676 30.8396 58 68 58
-0.579121 9.49931 -11.0541 3 29 12
-2.46284 1.50583 -12.2361 14 56 42
2.95963 13.4937 22.4493 62 75 65
-0.38604 6.94466 21.2143 47 55 46
-0.433155 12.6234 16.1909 8 25 2
-0.681221 22.6526 -4.72278 67 47 10
7.66887 -17.1316 -7.0925 68 72 58
-5.20222 -8.54663 19.5753 57 68 61
-5.65159 1.41235 5.22751 19 55 43
-10.2017 -4.38721 5.43901 72 65 44
-0.521584 12.1022 4.21993 61 52 22
2.71364 16.9145 30.5507 56 67 59
1.39819 -1.12005 -16.8868 115 96 53
-0.147331 15.2733 35.7993 61 73 65
5.99987 2.36802 -2.88121 27 50 35
1.26697 16.9338 31.9657 60 74 64
-0.75914 17.2151 -6.32053 61 61 24
1.33048 14.2728 -19.4355 8 2 11
0.540066 23.13 -12.0196 18 58 10
-0.585686 24.0821 -5.47253 64 28 1
7.176 -19.0068 -9.12716 170 189 164
1.09814 -18.1627 -26.2713 57 63 58
1.22106 20.5728 35.0972 67 83 74
5.97641 1.3473 7.41872 0 49 36
-9.50683 -6.42444 0.651601 41 62 53
5.38234 5.35109 7.45541 21 48 44
-2.42233 9.00207 8.31178 1 7 2
1.58153 14.8882 -9.37662 15 23 13
5.03321 7.43738 11.3696 2 44 34
3.30631 -14.776 -31.514 83 38 5
2.42708 10.6827 -0.245594 3 11 0
1.60112 11.1549 -4.18581 59 33 3
1.95453 20.9827 33.367 69 83 73
-0.370034 22.5752 33.0136 67 80 71
0.480145 17.422 37.7896 68 81 71
-8.6795 -1.43893 -3.27279 4 52 32
6.02299 4.78165 -0.407532 13 29 12
-0.748184 18.1418 39.3956 78 94 83
-6.83483 -1.21592 11.5279 87 68 40
1.26301 7.71874 -17.7082 40 44 35
0.809397 -7.03983 -22.3303 153 104 20
