ply
format ascii 1.0
comment Created by Open3D
element vertex 1408
property double x
property double y
property double z
property uchar red
property uchar green
property uchar blue
end_header
-1.07045 22.3307 -3.33978 8 20 6
-6.03092 -21.7974 13.5887 64 74 62
-0.65377 13.6077 3.98519 10 28 11
-1.37587 12.6338 20.3665 66 67 45
-7.84136 -0.0271301 -5.08077 6 42 25
0.449524 13.9921 -14.9358 24 37 25
-2.10507 -4.35474 7.91071 68 84 75
-5.94629 1.45655 10.4234 7 46 25
0.975048 22.2957 -5.25407 6 18 11
-0.656219 24.2529 -5.99104 53 26 3
-4.88179 0.591457 13.2296 67 56 36
0.792389 21.6281 -7.3362 83 43 1
-6.33473 0.731972 11.0316 14 40 28
1.30852 0.522449 27.0703 116 111 74
-0.497986 16.8146 22.0111 112 90 34
-0.950203 17.1273 -3.41531 69 47 5
0.196518 25.8026 -8.0555 59 64 47
6.83888 -16.7566 -6.34309 85 95 83
-0.342861 21.1938 24.3115 103 100 59
-0.740128 23.0055 -5.49267 54 31 1
-12.9086 -21.3065 12.8163 64 79 70
0.709145 24.5138 -6.59684 12 18 8
-2.07598 -8.69792 -19.2481 81 94 76
1.4331 18.8155 -16.2736 61 33 4
3.35067 9.15388 -0.210762 20 43 31
0.790558 10.0584 -19.6373 6 2 0
-3.83618 -5.52002 -13.8422 4 59 40
-2.5114 16.6688 37.8393 50 65 58
-2.72141 -2.77334 -14.123 57 86 55
3.2769 -3.46593 -13.9122 37 66 51
-2.33929 9.36012 -2.48784 5 20 8
-0.166252 13.7023 6.04058 10 20 2
-0.939667 18.8984 -6.14277 0 26 12
1.91379 18.4846 33.796 67 79 70
0.394108 20.4239 -13.7926 13 16 11
-8.46539 -0.843128 -3.16394 1 30 12
0.808838 18.3889 20.3803 110 77 10
8.17826 -1.59353 -6.33481 100 142 132
0.15049 21.9661 -8.9404 76 50 17
-1.57929 22.1099 32.5202 64 80 71
-2.6675 8.65118 1.4728 1 15 3
-1.12585 12.0783 25.1051 59 68 57
2.48443 -13.6451 -30.3043 96 41 5
3.68446 -14.974 -20.7585 63 68 50
-0.956917 12.9416 27.1264 50 59 57
-1.07043 16.6556 -5.19138 7 18 3
9.20706 -19.5967 -4.27106 72 46 0
-2.55642 18.1531 33.3112 78 90 75
1.75201 18.4602 34.3188 65 78 69
-0.00959015 21.8755 -10.814 3 17 15
-5.40341 2.78719 -6.3068 16 73 60
-0.844421 15.5912 4.30766 2 17 4
0.304001 12.0613 8.6419 71 46 5
-3.42016 6.74193 11.7683 1 14 0
-5.12265 4.60472 8.32013 3 34 25
-1.26571 11.9725 23.7377 59 58 39
4.55062 7.2942 15.9384 17 54 46
-4.88511 6.07892 9.48464 0 6 0
-0.040184 16.3059 -11.2571 0 4 1
-1.26512 19.1237 3.67612 1 13 1
-0.330208 18.0737 -9.53713 28 30 4
-1.44937 1.17849 -13.7786 2 18 3
-8.77173 -2.93615 4.54403 69 41 5
-0.901726 23.8754 -3.96855 40 43 17
-7.23521 0.65876 -0.206299 65 42 0
-1.4625 20.8085 34.7912 62 73 63
-1.36614 13.2018 21.4152 59 59 38
-1.10944 15.7469 1.00376 1 27 6
-1.00988 22.9554 -3.34811 30 29 5
-1.24977 19.8933 4.23622 26 27 2
-1.1796 24.621 -2.77648 0 9 2
-4.3936 -7.3232 -11.2705 0 42 29
5.51934 -13.7153 -3.72888 73 87 76
5.62103 3.87489 -3.25954 14 30 15
-5.4884 3.7955 9.73086 0 40 25
1.14178 12.0871 11.6675 59 37 7
-1.82841 -13.0792 -17.7046 53 64 55
-3.89745 7.07439 8.76194 1 0 6
9.93124 -22.4749 -0.909424 62 73 65
1.88008 18.054 33.2747 62 71 61
1.95982 18.1169 -11.21 20 33 32
2.72841 -13.6607 -30.0155 91 63 19
-9.94263 -13.1831 3.92609 123 147 127
-1.48325 9.56638 9.85126 0 7 0
-6.42879 1.22034 2.15012 15 53 40
1.88713 -11.9259 -27.9709 126 58 8
-0.929733 14.805 -3.23946 37 32 5
-0.239571 19.432 -9.64878 34 33 8
-2.6334 2.32016 -11.4657 40 119 99
1.10962 0.426254 29.4858 71 84 73
3.53004 -11.1241 -17.5499 69 59 35
-0.923576 11.2544 -0.44621 58 35 4
3.73267 19.5273 28.0591 78 93 82
2.67922 18.0759 31.1546 57 68 59
1.42564 18.2874 -17.1416 33 45 25
-0.966026 11.6157 17.1372 102 60 6
0.859711 15.236 -5.06082 62 43 0
-2.11246 -10.0629 -19.4172 83 84 64
-2.51201 16.5915 35.3721 67 85 73
-1.74355 8.40388 17.1561 60 63 48
-0.947704 25.0302 0.290244 25 24 9
-5.85695 -1.71983 -9.70258 2 47 30
-0.461998 15.5585 6.82088 5 18 7
5.61723 -19.6567 -35.7971 71 44 2
10.03 -21.4265 -1.76439 67 70 53
3.37162 19.6635 30.1752 68 81 72
-3.09302 6.29088 12.6568 2 32 16
-0.770096 20.3053 25.023 101 105 78
7.09081 -3.68253 -0.563972 1 50 35
-1.06308 22.0707 -1.00756 60 31 0
0.744324 18.4989 20.6261 102 74 6
2.85663 18.0152 25.4908 75 91 80
-5.86794 -0.0340805 -8.53191 15 89 66
-1.31499 16.2487 23.53 106 99 67
0.385529 23.6702 -9.35549 103 80 46
-8.03563 -21.874 15.4192 50 58 50
-0.996078 18.0741 -5.18661 14 27 6
-1.27104 13.8032 37.6114 73 86 75
-5.38365 -0.121661 13.631 69 43 3
-0.0701218 -4.34027 7.31081 65 80 70
5.95458 3.70979 -0.909859 1 47 35
-1.10479 18.6023 4.51773 0 9 0
-3.91477 7.09464 8.92974 2 0 10
-0.190208 21.282 -8.16602 106 76 25
-0.0569 18.2633 2.62754 43 36 11
6.53223 -18.3922 -5.29531 65 60 40
-0.838898 21.0431 5.18085 47 38 2
-4.31037 6.38979 -2.65986 3 0 0
-0.285194 0.995327 -19.2368 74 71 43
0.413055 15.1403 -14.0077 51 29 0
-12.4253 -21.4037 13.5465 66 79 69
1.0797 5.38036 -13.0784 92 78 17
0.590157 13.4246 27.3096 59 69 64
-0.977177 15.5664 -4.22264 4 21 1
1.23232 16.0945 17.1995 135 95 33
-5.0236 1.49611 -8.55834 3 42 17
-10.3658 -11.6146 7.23701 73 84 74
-8.0343 -8.84323 20.0758 77 92 84
-1.46562 20.6061 1.01432 0 7 2
-3.44855 7.77277 5.91994 15 22 5
3.04467 21.0867 24.4296 73 84 74
-8.74183 -9.864 19.3273 61 70 60
0.625008 -11.7682 -27.4283 152 115 51
6.56927 1.38641 -6.09872 6 15 7
-0.494019 18.0483 -9.26685 47 58 33
1.18745 17.4936 35.2844 62 75 68
-11.2455 -21.2075 6.67447 142 175 152
-0.626842 10.3879 9.17547 54 30 1
-1.25243 18.1689 -2.00279 17 23 7
6.68065 1.27353 -5.40703 0 2 0
-5.65625 -20.0423 11.3289 63 59 40
-4.64762 6.81864 4.0868 14 33 21
1.68029 1.41107 29.237 65 68 55
-1.30238 11.0318 17.1628 101 68 5
-1.17477 7.05017 17.5674 57 69 61
1.13934 14.9793 6.95316 14 38 23
0.355255 7.26586 22.3013 70 81 68
-0.835014 6.67242 -11.5502 0 13 3
1.50565 11.6421 -12.6351 2 30 20
-0.442162 14.2921 -10.5065 2 20 7
-5.70504 5.23798 2.04687 6 37 25
-0.650581 16.8035 -8.43563 0 1 0
-10.3009 -7.67049 5.31512 92 110 95
-1.24622 12.3496 23.9902 55 59 43
0.760155 6.67696 -14.105 66 64 40
-0.360565 17.3697 -7.45641 69 46 5
-0.204758 14.4468 17.9726 85 54 8
4.20459 -19.6912 -44.1193 85 55 21
0.543396 -0.851148 14.47 70 84 73
-2.09304 -7.10181 -18.3158 49 87 75
-2.60222 18.9469 28.4823 77 82 61
-1.48242 18.8026 0.976497 2 17 5
-0.380753 22.0581 -7.86837 45 40 2
-0.963528 21.1218 4.93805 30 30 5
-0.998352 11.4389 16.992 92 55 6
-1.35814 13.3884 21.3763 64 62 37
0.491131 20.2797 -3.69658 70 63 41
-0.31881 16.4032 5.93686 2 20 2
-8.68594 -6.79819 7.95443 78 91 82
5.14852 5.41871 -2.23898 11 18 1
-0.782486 14.1553 19.8238 92 65 8
-0.432518 16.125 21.3644 69 52 25
-1.47333 21.6353 0.788706 0 7 0
-5.95592 -1.84264 16.7416 73 50 19
-2.40951 17.0074 26.1692 92 104 84
3.48854 10.647 19.0015 61 76 65
-5.05763 6.42975 1.50159 1 13 0
-0.392738 23.0115 26.1927 110 114 88
-0.0711136 16.1386 -11.0997 0 4 1
4.08487 -18.3172 -39.7929 88 45 1
2.12231 16.7264 -17.4996 118 132 88
-0.845291 19.114 -5.03595 0 16 6
-1.87126 -12.7447 -19.0765 70 84 73
-7.82935 0.193855 -0.747693 62 38 2
-0.142651 13.147 6.31429 58 49 19
-0.77578 13.8809 -0.0392313 50 41 13
-0.795776 20.5409 -4.24583 71 45 3
-0.50489 -2.90511 -19.4307 69 51 18
-7.40154 -3.47878 -7.19658 0 78 54
1.11378 23.9291 29.2957 52 61 50
-1.65216 20.2272 32.6688 69 80 67
-0.483246 17.0178 6.15878 0 15 3
-0.913307 16.7487 -3.89487 13 17 0
-1.26214 10.4683 -2.81746 58 31 0
-1.33107 19.5892 1.73292 14 17 2
-1.99746 -2.15383 12.5444 73 88 77
-0.214619 16.4385 -10.1531 46 48 16
3.41331 -9.71794 -18.7247 63 47 7
-4.59782 4.04565 -6.60008 10 43 15
3.67103 9.17578 17.6591 63 75 65
1.63106 15.5496 -6.94421 3 20 8
-0.906395 -13.4028 -23.9302 68 78 65
-1.09639 5.17311 -11.2369 180 166 108
1.34792 8.69561 -9.45599 23 18 0
-6.89338 -0.466026 12.6477 59 42 8
3.76617 21.3313 29.5061 61 73 66
-8.82749 -7.23154 19.4059 52 60 43
-2.32095 17.7428 32.8312 71 85 71
1.03033 18.122 -16.1292 57 29 3
-1.83009 19.9313 28.5583 68 77 64
-4.44159 6.02152 7.58239 4 18 0
3.1912 10.3043 3.35896 13 39 28
-2.07895 1.29525 15.3935 69 73 58
-1.14584 18.7978 4.33787 0 12 1
1.0245 17.5586 -6.46886 61 37 0
1.08125 9.79397 23.1161 67 77 69
5.75577 1.82754 -8.39144 5 28 10
1.34827 17.6072 -17.3655 47 62 46
-0.568977 15.1649 -7.13256 5 11 0
-4.0797 -7.74496 -8.73236 58 76 68
-4.03708 0.647173 13.9331 72 57 34
2.89082 -5.0088 -16.5434 50 46 9
-1.20657 10.209 15.6235 71 47 4
1.07203 12.7974 -4.26791 64 45 10
-4.71331 6.65955 3.58405 9 23 16
0.483971 17.6185 2.29801 17 30 27
0.795685 8.28638 22.4415 64 76 66
-0.885445 12.041 -7.04713 2 23 6
-5.90952 4.4634 0.196278 3 42 27
1.68668 -4.58767 -18.8524 131 100 51
-2.60712 6.72979 -6.78361 3 19 12
-1.78451 9.37325 9.53165 2 6 4
-5.56254 3.16927 11.5766 26 57 47
3.18742 4.13502 20.8268 75 85 72
-5.63018 -2.70586 7.15251 67 79 65
-1.18927 19.1854 -2.18586 5 15 7
-0.752014 13.1 0.664711 47 52 27
-0.399792 10.5989 -11.1627 35 32 1
-0.687836 0.0975494 -15.2326 99 106 74
5.19353 -19.6733 -31.3443 60 69 62
0.967606 13.3216 -17.4186 31 26 3
-1.03421 20.0477 -6.25458 3 17 7
0.300018 18.6506 -12.286 0 7 5
-2.96096 17.3236 30.1124 59 68 57
0.930505 12.2264 25.3254 63 75 67
-2.15281 23.0117 29.7861 52 63 53
-1.12604 23.326 -2.2893 1 9 1
-1.06417 18.0576 3.28743 0 15 0
-0.86808 9.43803 -8.46553 16 22 0
-5.74891 -6.29286 19.7581 58 70 60
-1.34886 9.44101 20.361 60 64 47
0.247589 18.5836 21.5051 112 87 26
-1.00922 16.2432 0.172295 59 50 14
-0.099617 10.5011 12.2025 34 18 2
0.89875 16.6436 18.1617 139 82 13
-1.56818 8.16827 14.3317 0 22 10
5.45272 6.44358 2.34104 9 32 19
-0.968018 16.595 -3.24587 66 49 11
-3.1612 15.4309 34.8094 58 69 58
1.50475 15.1654 32.1008 59 72 63
-0.774353 15.4989 4.82668 28 35 10
-1.28144 19.3678 2.3479 20 29 5
-0.499973 12.4563 16.0889 2 19 6
-1.04593 16.2574 2.11957 6 29 13
3.76962 -16.5843 -22.7267 63 67 56
-10.5314 -12.4454 4.77282 105 128 112
-8.51025 -18.5741 9.24896 58 62 53
-2.48051 2.42841 -11.648 8 55 27
-1.05438 16.5299 -0.57163 17 22 2
-1.3418 18.2118 1.54617 20 28 3
-2.76072 8.82534 -1.81169 11 24 16
-1.86002 19.9837 27.3812 78 85 65
-1.26328 21.1581 34.6714 60 72 62
3.2445 -10.7927 -15.2636 60 71 61
1.31151 11.8571 -9.98418 21 52 22
1.59881 20.1715 -9.17181 12 25 16
-5.17015 3.81647 7.67247 43 64 55
0.83094 22.0326 33.6825 72 80 75
3.39947 13.523 21.063 64 75 66
-0.841415 18.5679 -4.56183 2 5 2
8.428 -8.19691 -2.22368 63 75 64
-5.05105 5.10753 11.3618 25 53 42
0.510254 17.1654 -2.97464 69 70 47
-1.09278 23.7919 -1.99605 5 4 0
-0.685081 17.3628 -8.74158 5 12 4
-1.09812 11.4989 17.2961 99 65 12
2.54527 16.0463 29.6827 59 71 63
-1.25563 19.2056 2.39464 27 33 7
2.49311 12.0957 7.32272 49 30 2
-0.31179 15.7959 20.3791 100 74 4
5.1079 5.69498 12.2315 0 42 31
-0.861511 13.7494 -2.86535 47 43 12
-0.276443 17.9837 -8.27058 15 11 0
0.366135 23.5385 -1.60663 16 28 17
1.62287 19.917 -9.13963 10 20 13
-1.33292 -12.6991 -22.563 80 89 74
7.36693 -19.2091 -2.98704 60 46 18
-7.57213 -1.37811 3.2389 66 43 1
2.73108 11.8001 7.05556 17 21 4
5.99021 2.11134 -4.97177 0 26 7
-1.07498 5.0477 16.5236 56 68 58
-1.22162 12.0995 22.6336 57 64 50
-9.90072 -3.05952 -0.0449009 78 90 73
-1.1661 20.5352 -0.0246105 66 57 19
-0.757431 17.0411 -8.74912 2 8 2
4.1825 4.95976 18.9943 67 79 68
3.27922 16.4158 21.1915 73 85 73
-8.62185 -0.71413 -0.583603 65 40 0
-1.6923 14.697 26.5656 59 71 60
-0.864281 16.1526 4.2609 2 17 2
-0.520744 -8.52652 -22.9742 115 88 28
-1.05075 16.2648 0.493649 19 29 6
-8.01207 -17.1068 6.98004 69 85 75
-1.58843 14.2826 25.4254 58 67 56
-0.867062 11.6105 16.3862 25 26 2
-6.31181 -4.02516 19.1427 71 74 60
3.38138 12.7792 16.3185 17 76 52
-7.25338 -0.0956459 1.72872 65 47 2
1.21846 15.5794 -8.94086 60 46 15
1.2405 17.9201 19.3182 134 92 25
0.914215 15.6864 -0.744331 37 55 42
-7.94363 -20.4351 13.6079 61 76 70
-2.41585 9.79122 3.92282 0 4 1
1.84857 18.5157 19.9676 156 133 63
-1.01858 23.5359 29.9337 59 70 57
5.77827 3.03256 -3.23282 14 52 36
3.03017 10.9514 12.9302 6 30 14
-1.06274 11.6742 17.4415 91 64 11
1.20117 23.431 25.5099 78 80 62
-2.44018 8.41298 -4.34962 0 5 0
-2.28848 19.2883 27.8615 85 93 72
-1.14065 16.3196 -1.62401 2 20 6
4.76746 2.12012 -9.33408 0 28 3
8.61244 -19.0557 -6.44907 72 64 41
-0.516693 23.6709 29.7453 60 68 58
-1.26991 18.5278 -0.995789 6 7 0
1.40067 18.8301 -15.9425 85 50 15
-1.05992 -1.41614 -16.0116 57 81 68
1.73119 23.2109 31.414 58 71 62
7.40809 -22.5266 0.61927 59 63 52
-2.77487 15.8358 34.7135 58 69 58
-0.974014 -14.7546 -19.5922 65 77 69
-0.71719 14.2719 3.82127 2 23 7
9.11859 -20.1935 -5.87658 73 62 22
2.93184 -21.4716 -47.0117 50 63 54
-3.09743 17.9192 29.3602 66 76 62
0.0513916 18.1938 -12.4238 3 13 5
-1.28331 12.9647 20.3222 64 58 36
-1.28708 18.5382 -2.17304 6 14 1
0.365173 14.1573 8.41753 64 54 37
0.96611 17.1552 18.7402 115 76 15
-0.118225 11.9883 -12.1554 26 17 0
1.20387 14.1927 3.6098 55 39 1
4.96263 -17.3006 -32.2252 65 35 3
8.06026 -1.469 -3.65002 3 24 13
-1.02454 16.7292 23.1443 102 93 58
-0.417625 -0.0787964 -18.5897 68 56 29
-1.42622 21.0982 1.99152 2 21 4
-9.57732 -6.68234 7.49359 79 90 77
-1.35924 16.7909 1.25398 9 31 6
-1.76217 -2.17864 12.4241 73 87 76
0.650398 17.2903 7.24245 3 30 16
-1.99957 19.841 27.6808 74 73 57
-0.559776 17.7434 22.7488 93 87 53
0.0557365 8.02033 -17.6757 0 26 19
-6.37843 -20.7636 12.8867 64 74 64
4.43123 8.42405 14.2059 12 54 42
-10.4016 -8.34152 5.35832 71 84 72
-0.303417 6.22885 -16.9839 1 38 22
0.609833 15.3097 17.1097 77 54 12
-5.91498 1.69173 10.4368 4 46 27
-1.78152 -13.6271 -15.8096 59 69 62
-4.71251 5.56798 11.6941 14 48 37
-0.861893 19.6591 -4.87653 1 5 0
0.614372 14.3812 33.3589 56 69 62
-3.03555 3.82232 -9.5237 2 27 8
3.67875 -1.05924 30.2848 71 85 77
-1.25043 16.3698 1.44727 1 27 9
-1.29188 -10.2362 -22.6714 87 89 61
0.936333 12.9522 -17.622 2 3 3
1.3034 17.6837 35.132 63 76 69
8.20376 -22.2109 0.0624619 50 51 44
8.04654 -3.05372 -7.44112 6 49 35
-0.716011 17.2002 -8.90718 18 37 25
2.37435 15.8379 25.502 59 71 62
-0.0588226 5.62658 20.2387 49 58 48
3.65489 18.9204 28.4541 67 79 71
-0.25914 24.572 -8.22761 11 25 5
-0.125336 1.87745 17.4524 62 73 62
-0.877522 17.508 -4.55563 3 12 1
0.140511 15.2308 17.8759 100 67 10
0.595917 12.2752 10.8863 64 29 0
-1.21349 19.871 2.82648 40 29 2
-1.49124 14.3251 24.4858 77 86 69
-0.20012 19.3792 38.491 70 84 74
3.58398 11.1987 15.1944 10 64 48
2.89161 22.5421 31.6643 63 73 66
0.559025 16.0515 33.7697 61 74 65
3.73847 19.6701 28.691 71 83 74
2.67047 -9.04961 -22.2698 115 57 2
-10.3762 -20.2949 12.8089 59 70 62
-1.30962 13.3392 20.9623 77 71 39
-1.18721 8.25386 20.491 52 56 42
1.27195 3.50162 -14.7329 1 32 17
-0.503983 -2.41822 -18.6244 69 60 36
-5.09923 1.0224 8.71274 97 104 85
6.73008 2.72812 3.69471 69 80 67
-0.074173 19.612 22.7746 92 80 36
1.53602 11.1299 -5.50791 11 26 16
-5.68073 3.33586 5.90992 11 38 15
-0.20269 -4.65237 -21.1919 98 77 27
2.19688 16.91 -15.5677 7 21 2
2.37435 -2.33922 -15.9152 11 38 26
-0.942184 11.7976 17.279 92 58 6
0.546204 20.4461 -12.8309 66 35 4
0.226784 17.7053 21.0459 91 68 13
-13.4139 -21.5037 11.1826 80 97 87
-1.5238 20.4042 30.5148 63 74 63
-0.260201 14.7115 6.27183 1 12 1
-0.997093 15.9866 22.5411 91 74 28
-1.00388 13.7054 -4.69763 3 47 25
-1.86686 18.0107 25.644 99 97 63
0.517784 12.5223 9.30499 60 52 27
-0.104603 16.5575 -10.6307 75 58 11
0.735558 21.5258 -12.332 30 50 22
-0.265549 18.214 -8.08552 53 35 1
0.958359 13.0441 10.6784 68 52 23
-8.10235 -0.730362 1.52543 70 44 12
1.10477 17.3657 -16.5371 2 22 11
-1.20037 16.8937 -1.32107 4 24 3
-9.72746 -5.576 0.024128 14 48 37
3.0202 6.39719 -6.93121 3 32 9
4.02847 8.75239 15.3803 3 40 30
-12.3586 -21.265 13.2116 75 88 81
3.12546 9.11711 -2.10029 0 14 3
-0.373238 20.0656 23.793 93 90 55
-1.93081 19.9856 27.9677 60 71 56
-1.74629 5.41776 -10.3087 98 72 24
-9.87243 -5.80964 2.90592 81 100 87
1.04693 15.0829 16.4848 111 74 15
6.56785 4.27436 4.16573 29 51 44
-3.01804 18.0546 29.639 65 77 64
1.96938 -2.08364 29.0895 118 138 122
-0.850609 20.5733 -6.5985 16 32 20
0.692207 15.1832 -15.3637 51 42 10
-2.27001 17.1294 33.8729 62 77 64
-0.986885 18.5713 -5.66755 13 14 0
1.15218 15.0449 -1.2939 6 16 6
3.28117 -9.20441 -18.8568 65 44 5
2.34219 11.1731 22.0655 69 80 70
-5.59396 3.50528 -4.87776 26 82 69
-10.1111 -3.3426 1.34207 61 73 63
0.0871201 13.9085 16.1322 4 24 17
6.30124 1.2342 -7.37893 39 45 26
-0.402805 24.7889 -4.88537 131 102 65
-1.39646 20.6343 4.15876 0 16 3
-1.94102 19.2132 35.2421 61 74 65
-0.435364 12.6695 16.2284 14 29 0
1.25365 12.6825 -1.71963 67 53 29
2.46148 17.9417 -15.6642 15 10 0
-1.46415 23.7838 1.07222 6 6 2
-7.26839 -10.2785 6.24759 67 79 66
5.02259 -17.4561 -32.9616 90 45 0
0.323784 16.9372 19.601 96 67 7
0.665306 3.29274 19.2926 57 67 57
1.58597 17.896 34.4608 66 79 70
0.446991 15.3377 -13.9904 56 32 0
4.91787 7.50721 8.41033 2 45 33
1.37334 14.2532 6.89672 20 36 18
5.08562 3.20627 10.0823 61 77 65
3.35546 -10.4954 -15.7432 64 65 50
-1.20241 16.9223 -2.02391 0 24 3
1.59631 15.1457 -6.81515 1 28 10
-0.102211 15.7858 -10.7864 0 8 0
-0.268768 24.2407 0.782028 64 48 19
0.483601 -17.0311 -29.3738 58 66 56
4.00837 -16.3019 -34.2106 68 26 0
6.51268 -22.5065 1.34039 50 65 62
-1.30717 13.7189 27.7935 52 64 57
-8.25401 -2.68395 -5.58976 7 46 22
4.3839 -14.8357 -26.1862 77 44 1
-1.16524 16.6955 -1.63629 6 25 10
-2.70444 8.61915 8.33324 0 6 0
-2.19833 17.4016 32.3599 69 85 71
-3.00024 4.22895 13.4969 68 74 66
1.51591 10.2246 -14.2044 3 0 1
0.203629 16.4526 19.5042 95 64 10
2.97295 10.3185 1.06416 3 23 6
-8.16144 -1.38565 2.77571 62 38 3
1.00745 23.8305 27.2843 75 82 66
-6.51975 -0.281853 3.19994 64 68 53
2.76944 11.388 10.4547 6 32 16
-2.75158 -9.67421 -16.923 95 103 87
-7.60374 -19.7112 11.9665 58 60 50
4.7643 -19.0784 -40.7524 83 47 5
-1.46678 22.6193 1.45721 3 1 0
-5.82313 2.98483 4.5999 1 36 17
-1.44969 19.1334 0.803502 2 27 7
-0.353283 21.7047 -11.3538 6 23 7
6.02586 -19.9854 -0.698563 65 65 45
3.6745 -1.36329 30.504 76 92 80
-2.92642 17.1887 30.3755 58 67 57
-0.593079 14.7397 4.99661 39 49 30
-5.92701 4.81816 3.25772 11 29 18
5.14979 -17.5437 -30.4742 78 62 30
-12.6372 -20.5233 11.4991 65 72 65
-5.33421 -2.79198 10.5439 91 101 87
2.15314 15.0462 -19.1041 72 42 14
-5.39125 -0.810375 6.7271 68 77 64
-2.64808 15.3955 35.8915 59 73 63
-0.666466 10.3248 -8.96108 2 17 1
1.03686 11.8644 -7.30727 54 50 9
9.25838 -20.3858 -5.7425 117 96 38
-2.05087 18.8709 35.5471 61 72 63
-1.7924 14.8767 37.4695 65 77 68
-9.32845 -15.6412 8.53585 83 98 88
0.265228 14.4047 -12.9213 60 42 10
-0.265404 14.5157 6.78558 42 35 13
-5.68224 4.66536 -2.44693 16 62 46
2.79575 11.1097 3.50323 2 9 0
-0.21093 23.9158 -8.24771 22 29 0
2.26917 11.8067 10.2713 56 48 30
1.85794 19.9756 -12.1199 50 53 51
0.969315 18.4088 35.9504 67 81 72
-7.54316 0.874096 -4.02779 16 28 13
-0.948215 18.679 -5.18565 3 21 0
-2.1963 4.72606 14.425 67 70 58
-3.53952 7.15133 10.8708 0 8 3
-5.73067 2.15529 6.0391 4 46 32
0.35154 24.3171 -3.43112 71 43 13
4.61128 6.41383 17.0304 57 76 67
-0.647995 18.7085 6.66436 4 11 1
0.286972 15.4373 17.6706 116 74 12
3.45157 21.0094 27.0454 80 96 85
-0.401894 24.6039 -5.17563 63 37 7
8.81818 -3.6035 -4.74715 114 154 130
-11.1864 -16.5995 6.13036 101 124 112
3.85172 -17.4847 -37.8096 88 48 1
0.058075 -15.675 -28.0261 72 78 63
4.9217 6.06245 14.5826 23 58 45
-5.94879 -0.487709 -8.76152 62 115 104
0.919708 21.0139 -5.88951 8 16 4
1.31933 14.0178 -19.5076 6 4 0
2.25451 14.9674 -19.318 78 49 13
-1.23114 18.2568 0.577977 4 20 1
-3.28508 15.5738 34.0656 58 67 56
0.0754852 12.8542 -13.3016 2 24 8
-3.14795 -3.04224 -14.0416 4 37 6
5.35637 -18.4512 -34.166 82 50 1
2.48246 11.277 11.2264 29 32 18
-0.815994 12.3072 17.7222 90 52 9
0.520958 16.5854 35.4387 57 71 63
3.69013 20.994 29.0788 60 72 64
-0.738907 -12.4275 -25.0457 79 75 44
-1.878 -1.85547 12.7854 70 84 73
-0.542618 12.2561 15.9592 22 28 12
-0.908455 17.2858 -3.7391 53 40 2
1.84301 9.00426 -19.2018 3 24 2
-2.38124 7.06099 12.9649 0 11 0
-3.84634 6.68559 -2.82194 8 8 0
3.74768 8.63679 2.46622 8 35 27
1.69831 10.628 -15.0024 1 10 2
-0.626377 17.4492 22.6934 100 92 54
-5.51814 -6.32717 19.1202 78 88 78
-9.66473 -13.6225 8.09406 80 96 87
-1.09791 15.6396 1.40234 0 22 4
-7.66498 -4.91786 19.7417 64 66 48
3.26917 5.14668 -7.5387 5 33 19
-5.01195 6.31831 3.90839 15 29 13
-0.957672 15.8591 -3.07076 62 49 12
-2.58163 16.2036 34.0233 56 66 56
-5.86615 4.7458 4.45974 3 50 41
-0.801445 11.1967 -5.53357 10 17 0
1.67408 1.88126 28.7347 64 69 53
-10.9068 -12.7485 5.65878 107 125 110
1.74525 0.823395 29.674 68 77 67
0.311775 13.229 8.17442 64 63 46
-1.02713 14.5928 -0.743614 3 24 7
0.538189 21.2853 35.3221 61 74 65
-3.74492 6.55392 11.7351 2 20 6
-3.46618 4.71325 -7.29911 16 65 42
-2.11724 4.4839 14.5427 66 74 64
3.46732 13.3336 17.1238 56 107 87
-0.473557 21.6857 34.5856 65 80 70
-0.833763 17.2539 -6.15819 16 32 0
0.995224 -17.6536 -31.9996 69 82 69
1.25587 10.5305 -6.39658 89 65 22
6.67201 2.51272 1.22041 83 85 64
-2.36624 -2.34418 -14.3085 66 89 74
4.31055 -17.0083 -35.7057 83 38 0
-6.56565 -0.28223 11.6283 83 76 45
-0.079422 7.2896 -18.0697 11 34 30
-1.13612 22.0237 -0.0956025 60 47 18
-0.184837 14.4363 17.8127 72 47 7
-9.66792 -6.29627 7.39781 78 82 71
1.23113 13.806 9.38548 87 67 30
3.77373 7.05895 18.7258 71 83 72
-4.94857 -3.02979 -11.0487 1 79 58
1.53671 -2.38381 30.4385 71 88 79
-0.0955658 9.77833 -13.8397 43 47 25
1.78139 2.3296 26.3984 77 78 55
-7.38556 -0.914482 2.81333 63 52 3
1.40535 23.8304 27.7223 64 71 59
-8.15035 -13.1774 7.35033 73 83 73
-0.839127 21.0418 35.8339 68 81 72
-0.208569 15.2928 -11.193 1 23 7
-6.53636 -3.79183 -8.83695 74 110 92
3.12968 -8.42201 -19.0087 6 14 0
-1.2009 18.8378 -0.115129 56 36 1
-1.38718 8.65497 14.6264 10 23 6
-0.502739 15.3453 20.537 96 67 7
-9.32945 -3.31654 4.66578 63 41 0
-0.994003 24.5432 -3.73348 2 15 4
6.80615 -17.2308 -6.39178 71 85 69
0.525314 15.7191 -13.9577 61 37 7
-1.29663 12.5801 22.243 54 60 46
-0.329254 16.5916 5.75452 0 17 4
6.41129 -4.66774 -0.218323 19 73 60
-10.7565 -11.1489 5.18019 101 121 104
0.616158 18.8118 1.62099 8 22 10
-0.898521 16.5346 4.55176 0 15 1
0.50148 20.1234 -12.8489 43 23 1
-0.305969 18.7658 -9.03142 2 13 2
-1.15869 18.0448 24.7332 101 93 61
0.318686 22.4616 33.1333 64 73 65
-6.98538 1.18987 -0.94154 59 45 10
-1.05752 22.0719 -1.75327 0 6 1
1.88668 -19.2582 -36.8259 74 88 73
-0.958977 15.9679 0.103554 71 57 19
2.72009 3.23468 21.9872 68 79 68
1.69255 5.19412 -12.2368 66 85 60
-1.9721 5.16748 14.949 61 72 54
1.42793 18.7697 -10.8154 65 46 38
0.276222 22.0839 -11.76 7 36 9
3.56837 2.87245 26.0396 56 65 52
1.75532 14.6458 -9.90993 17 13 9
0.00331116 22.6901 -8.44437 100 62 0
-0.35218 18.086 -9.85772 6 19 4
-10.1469 -6.17875 7.01197 71 80 67
-0.0718231 2.2215 -19.5016 67 56 20
4.85623 -17.0057 -32.6 66 31 0
-1.22932 21.2453 -2.86859 0 5 0
-1.23046 16.2931 23.3728 98 85 49
1.71768 17.8134 32.7397 57 66 58
0.614502 13.4364 9.89132 62 60 42
-0.0273743 7.67526 -17.5095 0 32 20
1.59846 21.2014 -9.33721 12 23 16
-8.19996 -19.3826 11.4751 50 55 47
0.0752029 17.0632 20.6531 97 72 8
-0.511879 18.8628 -7.104 92 69 14
-0.97094 25.1591 -1.57879 60 24 0
0.279373 19.636 0.940567 34 25 1
-3.40173 15.0975 34.6862 59 71 60
-2.90957 -6.62514 4.60377 15 29 27
0.310894 -0.494205 29.5322 64 70 57
-0.705254 23.1512 -4.58902 93 68 6
0.0674438 16.3405 19.8198 90 63 8
-1.51388 23.1647 1.04615 9 12 1
-1.01785 14.788 -5.02792 0 41 19
-4.90244 6.10469 9.3053 1 1 0
-1.16573 20.1207 -0.152036 58 44 1
-1.13699 9.52986 14.2088 1 8 6
-0.20874 14.0241 6.65075 46 37 14
-1.87493 9.21101 9.88893 0 7 0
1.76223 23.5771 26.6422 73 79 63
-0.562958 0.169342 -17.6126 74 70 48
-5.77609 -19.9975 11.6505 54 50 34
-8.35583 -20.5656 14.3034 55 64 58
9.41967 -20.5696 -5.59009 170 142 102
3.60815 -12.2363 -25.1946 83 39 5
-0.850716 5.00885 -14.1088 0 23 9
-0.882473 13.3393 18.8004 67 49 3
0.534576 20.911 -13.9053 19 17 4
-0.390289 16.8049 5.8904 1 22 6
1.80573 -17.2597 -34.8809 81 90 69
-1.45839 11.2458 18.2196 99 70 16
-2.25276 6.22108 -8.50043 18 35 21
1.80028 -18.955 -36.5245 82 88 70
1.27778 14.27 2.72668 33 47 47
-0.0702362 18.0041 2.61439 48 39 18
4.66175 -20.1267 -2.35419 49 51 39
-0.523079 10.779 7.8055 61 30 2
-5.37712 5.95644 2.70476 0 18 0
-0.266792 1.67309 -18.0654 67 67 44
-1.19537 17.2524 -2.1366 3 24 2
-1.46672 21.8394 1.89439 6 17 5
1.5976 13.8659 -9.38841 14 19 3
-0.594719 17.6732 -8.73503 1 8 3
-0.521229 16.0468 -7.75567 0 4 2
-1.41639 10.9481 17.6252 68 46 2
-1.13871 20.9275 -0.802848 55 29 1
2.71268 11.4551 21.644 69 82 71
-1.34209 13.9741 22.4188 61 62 44
2.2765 -1.90049 10.6094 61 74 66
-1.08064 18.589 4.84027 4 19 1
0.0386505 21.6866 -10.5129 2 12 4
-0.656639 24.4136 -6.09492 55 27 0
-0.561016 17.087 6.41878 0 13 5
-0.455612 15.9671 -7.48258 7 12 2
5.91534 4.59206 6.07639 14 61 48
2.21563 23.6511 28.6333 46 55 48
-1.17454 15.9829 -1.98969 2 25 7
-0.954735 11.4642 1.74502 62 35 5
-0.593006 12.3086 16.2742 1 21 13
-9.81807 -6.97646 4.03021 82 103 90
-1.1459 15.4073 -1.9241 0 29 13
-2.08946 2.01159 15.0021 63 74 59
-0.719021 9.8994 -8.62298 0 11 0
1.90965 9.95618 -18.3065 19 13 3
1.1191 0.454555 27.2413 108 100 63
0.478321 16.3811 18.4415 88 56 13
5.71246 1.97945 -8.13259 75 94 79
-0.0888224 0.924089 16.9495 70 84 74
3.30199 19.6876 26.5619 120 143 127
-0.85556 18.245 24.3023 87 83 55
4.93678 -4.37926 0.742828 57 73 64
3.29292 20.1404 30.2084 65 78 70
1.14072 -16.596 -32.2689 85 85 68
-0.651936 9.86789 11.8333 25 16 1
-3.92832 -0.322926 -11.5207 79 116 96
-0.256149 14.4738 5.97375 0 12 0
-0.420982 24.4791 -7.92105 5 29 15
-0.876091 16.5237 4.23004 2 15 1
1.48963 11.3066 -14.4902 10 13 1
1.45645 14.5768 -18.4404 50 22 3
-0.0513763 23.6409 30.653 60 70 61
4.57095 9.32063 11.666 3 38 23
-0.927475 8.86058 -8.30657 69 64 28
-6.25794 -0.0809517 10.7758 86 76 36
1.65944 10.0178 -17.7023 48 31 0
-1.09592 14.8205 -1.2488 1 19 5
-4.48105 -4.43161 -12.6141 5 56 42
-2.04448 0.252216 -13.6097 32 73 46
-0.91761 18.8849 -5.34811 15 24 2
-7.07911 -19.6826 7.82565 107 131 114
-4.4932 6.54551 -0.737067 0 12 0
1.56116 13.7438 6.76645 50 44 21
-0.681362 24.4647 -4.45174 89 53 1
-1.40716 22.3087 0.334874 3 17 5
-6.07836 4.28956 3.27968 6 43 26
-3.63072 -6.73364 -14.3149 2 66 46
5.53394 5.22266 -1.07265 23 37 25
-0.236229 15.7736 -10.0289 68 50 21
-1.24992 -2.38292 -16.2092 63 76 30
-0.0871239 7.34092 -15.099 29 44 23
1.01863 21.7618 -14.0473 65 36 2
-0.568565 -2.66583 -17.0622 62 66 49
3.85852 4.07311 20.1987 76 87 76
-0.285635 9.41635 23.9545 67 79 68
-0.0427094 19.9421 22.8646 84 81 37
-0.0743027 22.4768 -0.0962372 92 58 11
-9.20464 -6.3129 7.6359 81 80 63
2.71884 -21.0806 -43.29 62 72 61
-7.33342 -3.78654 -7.38135 3 79 60
3.9727 21.552 29.1411 66 80 72
-0.334984 14.3302 18.2956 78 50 5
4.06384 9.18889 13.8598 12 45 39
-0.900776 21.1507 -5.33396 0 5 0
-2.32666 16.6758 33.5035 62 75 64
-1.33048 9.11021 18.9499 55 66 58
-0.800262 20.8453 -4.57575 55 35 1
-8.57999 -10.0758 18.0732 127 117 82
-2.34981 15.9042 27.1234 68 82 69
-1.13585 10.5979 -2.64456 64 40 7
-12.5116 -21.3789 13.2595 73 88 77
0.0292282 16.6536 -11.2706 2 5 1
1.52117 14.4313 15.3302 147 90 16
-1.5709 11.3888 19.5629 56 55 35
-0.18074 20.2964 -10.8641 0 18 4
1.13666 10.8057 -7.16807 40 41 31
4.71381 0.981168 10.6473 59 72 63
3.91948 -6.01002 -13.6605 1 30 14
-7.58174 0.200291 0.30301 61 36 3
0.493279 20.8147 -14.0713 12 10 4
-10.7259 -10.3763 6.03399 73 84 74
-0.421066 16.8209 6.04796 0 16 3
-6.08183 4.03331 -0.866341 4 23 6
-0.0888901 7.36845 -17.3941 3 26 14
1.40923 12.7499 1.38236 70 49 1
-8.83205 -10.1194 18.8337 59 66 54
3.35511 19.9837 26.6878 106 126 112
-2.8209 18.3675 28.4817 79 84 65
0.700813 16.1566 2.76983 4 18 7
-1.14492 21.0335 -0.98589 37 21 0
-1.27642 18.3579 -2.16804 5 12 0
9.86536 -20.5828 -4.83089 146 125 81
-8.7609 -7.81345 18.6194 87 100 78
-7.31364 -21.5593 14.3643 52 63 55
-3.41656 15.2718 32.9977 70 85 73
-2.8973 5.16344 -8.34713 0 19 3
-5.52256 5.79134 2.38379 1 10 1
-5.28577 0.109474 13.4722 68 46 2
-1.87371 19.2592 36.2467 61 74 64
-0.539494 5.07497 -15.481 3 45 36
0.882706 21.5398 -6.25166 18 19 0
-7.01661 -8.43735 20.4719 78 92 81
3.1656 0.465208 30.0228 73 90 79
1.9791 19.6516 -12.321 9 24 18
2.08633 14.8421 -16.0659 70 59 28
3.56381 -8.26302 0.0572586 74 90 81
2.42543 -19.9038 -40.0772 60 68 57
2.66988 -10.0824 -24.0612 93 54 16
-0.118332 -9.10701 0.22184 67 79 69
-1.58173 16.5482 39.2047 71 85 75
-1.04471 15.7756 22.5721 80 74 39
-0.89185 21.3469 -5.484 0 6 0
2.38865 16.0021 -15.4353 18 23 0
-1.42033 11.0858 22.8834 76 64 37
-1.69207 8.09883 17.2237 57 67 57
-6.13914 -1.84203 5.71059 73 72 49
-10.2959 -11.1217 4.49117 120 143 123
-5.36656 0.0907288 9.30696 94 100 74
-8.08183 -11.8005 7.22015 70 81 70
2.93294 -22.2215 -46.1771 53 66 55
4.43369 4.86912 18.3189 64 79 67
8.33272 -19.2277 -7.98617 82 75 53
-0.309631 20.4089 23.7758 96 90 52
2.55689 7.77579 -7.14735 99 69 17
-9.71089 -14.5425 8.3362 82 93 83
-1.18631 17.0685 -2.13158 1 25 3
0.505486 20.2931 -12.6784 64 37 6
0.0534973 18.4216 -12.9267 2 35 18
2.64642 14.1211 -18.4007 0 13 5
4.18691 -13.7848 -21.8792 69 55 30
2.66286 -5.13176 -17.5476 2 33 15
-9.92785 -4.50357 1.94176 75 89 81
-1.8597 9.47464 8.47943 2 0 3
-3.58801 -5.74545 -14.4402 1 71 50
-1.93858 8.42828 11.2911 0 14 2
6.68878 3.65012 3.79597 1 45 30
-0.796093 7.32664 -11.3578 42 49 20
5.25836 6.90726 2.4822 10 38 25
-0.204807 17.7339 39.0171 70 84 76
3.82848 9.31552 17.0987 65 79 68
2.59538 14.0884 -17.8086 0 1 0
5.08218 5.72429 8.72233 11 49 39
-0.841965 3.50651 16.4832 61 74 69
-2.7875 5.87236 13.1278 34 48 35
-1.21851 21.4061 -2.86385 0 5 0
-1.00306 17.8747 -5.67092 4 19 0
-1.51926 23.4453 1.53311 17 6 0
-5.61823 0.71048 5.66745 1 37 23
1.06721 -0.0773096 -17.2091 97 89 48
-1.08309 17.8543 4.37871 6 18 7
-0.910637 12.3626 18.0254 105 67 9
0.345558 9.54381 -16.6368 20 48 27
2.70116 -21.8377 -40.1397 48 61 52
-1.34364 11.6229 18.3154 89 61 8
-9.87216 -5.33196 6.94037 76 81 70
-0.260445 20.816 -11.0099 0 18 12
0.275185 19.0126 -11.7794 59 43 13
3.12515 1.63145 29.3372 68 80 70
-1.31004 13.5444 23.3506 65 73 61
-1.11681 17.3579 -0.629776 19 20 0
-1.13878 -7.08342 -20.8484 91 86 47
-2.79324 -11.0282 -16.4363 70 80 69
-1.91843 22.1387 27.0389 96 107 84
2.3907 6.89468 -8.58459 106 67 6
-1.04928 18.3984 4.70075 0 15 1
0.858543 20.7432 -7.39914 77 53 27
-1.51311 21.1158 33.6179 68 81 72
-5.31782 6.05988 2.55362 3 18 3
2.79673 21.0856 30.9304 67 83 72
-1.24472 18.2577 1.98036 9 23 1
-0.154129 25.6248 -6.69114 61 29 7
1.0979 2.34697 -19.2144 74 36 6
-6.11507 -22.1563 13.7358 63 76 66
-0.805027 19.6 -4.41397 40 31 0
0.644196 15.8847 3.62351 55 42 3
-0.312416 -15.3249 -26.5357 78 85 72
-8.84734 -6.46572 7.81982 82 84 67
-0.771404 11.4206 -0.294252 57 39 9
-0.264526 -1.72064 -20.0664 60 47 16
-0.779892 11.997 -6.36422 1 18 3
-3.7463 7.02895 -1.80296 14 44 26
-1.39478 17.5371 1.08715 1 12 2
-1.09357 13.5078 -4.19691 2 21 4
-6.67541 1.47794 -5.7862 3 25 4
1.1888 12.0124 -10.6652 69 49 2
2.12739 1.8737 25.0899 69 75 58
-2.36436 9.54998 5.47157 2 2 0
2.00808 -6.28278 -19.9326 45 24 1
-0.319092 10.9224 -12.5447 6 21 9
-2.0577 10.2992 2.74903 30 8 2
-9.46228 -6.47594 1.55156 55 67 58
-1.442 16.5862 24.2051 72 72 53
4.67699 7.46014 14.7913 12 52 39
-0.226807 18.5481 -8.23866 46 32 4
-11.2753 -20.1655 12.2584 60 74 65
-0.638077 4.19637 -14.5428 41 69 54
-0.0100937 10.6488 11.6815 59 31 1
-1.04488 18.5764 2.93304 21 20 2
-0.874573 17.6267 -4.22488 2 5 0
1.40895 13.9505 -3.51219 75 97 76
-11.2709 -19.1798 9.41464 73 84 76
1.25251 14.0712 -17.8284 49 25 0
-0.803726 12.4942 17.8585 95 61 8
5.9791 3.13035 6.8487 19 49 33
2.20462 -17.1972 -35.9148 80 79 56
-6.01687 1.64178 4.45322 0 54 38
-0.945946 14.8159 -2.59026 66 51 16
1.04254 12.0061 13.066 125 90 48
-1.10836 18.6076 3.24318 0 13 1
-0.426414 11.7236 4.66052 66 60 34
-1.00556 22.4358 -3.54889 18 40 21
-6.36744 2.18399 2.7682 1 40 27
-0.273911 18.6877 -7.83617 79 51 13
0.788998 17.4874 -14.2791 36 38 24
3.34383 15.7908 21.2355 63 74 64
0.218609 18.6907 2.16515 12 17 1
6.5919 -2.09521 -0.9953 4 33 17
-4.14249 -1.66191 14.8919 61 75 63
-11.0093 -17.2677 8.3201 75 88 77
0.480362 20.3022 -14.2277 37 53 38
-0.563004 -15.1823 -21.8294 51 62 54
7.2057 0.553772 -7.1024 5 18 12
-1.06998 10.4928 15.609 76 47 0
-0.539818 16.3357 6.89588 4 20 4
-7.64745 0.284927 -5.23339 14 40 25
7.12405 -8.75372 -1.00057 75 91 80
4.67604 -17.3854 -26.5605 67 61 36
0.561184 16.1477 -14.7266 53 29 1
3.03313 22.8844 28.2259 93 105 87
-5.03535 3.64821 12.1148 56 69 53
-1.6197 -12.0188 -21.3827 73 79 64
-8.68832 -6.60189 18.7796 87 70 23
-5.2373 -20.624 11.8284 65 74 66
5.68523 -6.52418 -0.116478 71 87 78
4.23325 -19.6619 -43.9533 95 59 22
3.98229 7.41761 17.7728 65 77 67
-0.988274 17.3034 4.63967 1 14 3
-7.13779 -0.199532 2.09211 66 54 16
1.03288 7.87737 -15.4944 6 23 10
-4.92076 5.57286 -3.00332 30 45 25
-0.332664 17.3567 -7.94351 20 18 0
-4.15982 5.011 -5.73103 19 24 6
-1.30069 20.2529 3.2612 0 5 3
-1.00141 23.3874 -1.0703 64 30 0
5.35943 2.44728 9.60949 71 78 69
-4.53085 2.13158 12.7237 65 72 59
-1.05357 17.875 3.30182 0 14 0
-1.40074 20.2998 3.71672 0 12 6
-0.400284 26.5398 -2.77032 61 42 21
-0.953224 11.4583 3.10031 69 31 0
0.448296 19.9754 -12.6947 45 28 7
3.06466 17.475 24.2708 64 76 67
-1.2911 17.0466 24.139 85 80 49
-1.37984 10.2643 22.06 61 64 51
2.44328 3.88145 -11.7847 94 73 24
-1.09146 12.0809 18.202 94 62 11
3.99828 -20.3063 -2.97368 46 48 36
2.84378 13.2111 15.2116 22 58 42
4.51817 -2.86709 3.99403 52 67 58
7.80964 -22.7104 0.355362 56 61 51
0.754121 -2.36995 30.2611 72 88 80
-0.547501 18.9697 23.9006 81 81 55
2.68853 9.42789 -3.22486 0 4 0
2.65891 7.4207 -7.3471 72 62 23
0.525063 19.072 -13.8881 23 20 1
-5.21904 1.35697 7.25231 67 77 64
-2.53252 16.1465 34.5422 63 74 63
0.127548 11.3701 10.0649 62 34 0
-1.37882 16.9806 1.40309 1 20 3
-1.20675 19.5195 4.90283 3 13 3
1.85938 18.9521 -14.4187 79 54 4
-2.96938 15.764 34.4904 55 64 53
2.39921 17.0091 -15.9111 2 12 0
-0.213409 18.718 -8.39491 36 22 4
-0.62587 17.8551 5.9079 0 13 1
-1.04627 -8.82796 -22.3849 125 117 85
-6.59405 -1.80612 -8.42408 2 78 64
-7.91261 -0.434357 1.17705 61 34 0
4.16527 7.31275 -0.723412 11 30 12
-1.90457 10.2577 5.4642 20 9 1
-1.36228 14.1462 22.53 64 67 47
-0.508877 23.3627 1.43665 16 25 10
0.867722 16.28 -5.60976 68 45 13
-2.49541 -0.971466 -13.5245 26 73 58
4.82399 7.01734 6.16315 27 52 28
-5.53172 2.95201 9.13242 42 65 52
0.320381 14.7246 16.8803 9 25 13
1.37292 17.0714 18.2805 133 91 20
-0.952187 24.4837 -0.83276 64 34 11
-6.62983 -4.37589 -8.85484 98 118 101
6.59384 -20.4028 0.00270081 58 48 29
0.142357 22.2315 -8.93251 86 61 15
-0.296383 18.7315 -10.3317 0 27 11
-5.31251 -1.77635 7.45811 69 76 61
7.48983 -11.1815 -2.12102 70 84 75
-1.19682 16.8182 23.5798 94 85 51
-1.32501 -10.8897 -22.7086 89 99 79
-0.19912 12.0154 -11.4678 73 51 18
-7.13866 -8.56749 6.8203 64 70 60
2.33628 8.11605 20.5312 70 82 71
2.65146 11.8611 8.40106 32 23 1
0.630875 11.843 25.3628 61 74 66
-1.97453 3.39216 -11.8079 6 19 6
-3.0899 17.4645 29.7781 66 75 64
5.32152 5.60867 7.47112 26 58 51
0.340057 13.221 27.6312 63 76 67
-0.262581 19.1809 22.9795 90 83 41
-1.63914 -10.7299 -21.6874 85 93 77
5.95507 -4.34648 -0.12619 42 73 64
-0.783424 6.89717 -12.5775 0 37 20
-10.8327 -19.6732 10.7937 64 75 67
-1.34689 21.3386 -2.03498 2 10 2
2.83283 -14.9117 -32.5883 113 54 5
-0.957771 18.7309 -5.50769 26 29 4
1.69152 -17.4464 -34.6759 73 85 67
-13.1758 -22.1331 13.8584 65 77 72
-3.89439 7.07422 8.41678 23 16 0
1.34323 15.5322 16.5366 131 82 19
-0.0890121 15.9638 -10.9431 0 5 0
-2.37801 3.69161 -10.8813 6 35 13
0.558605 22.723 -3.11716 74 45 5
0.85907 21.9444 -8.29237 67 42 16
-3.45074 15.4955 33.2474 59 72 62
-2.29723 9.52163 1.07102 6 24 9
1.61103 13.3126 -2.92664 4 14 0
-1.06243 14.2407 -1.88926 4 32 5
-1.17132 15.7475 -1.8208 3 20 4
-1.75391 20.0503 33.7206 62 74 65
0.315918 23.0495 -9.53142 69 37 9
3.20065 -20.7083 -2.98237 50 50 39
1.5411 19.4882 20.68 153 124 49
2.19686 12.5249 13.2139 116 76 31
-0.172798 3.65408 -19.1517 28 59 35
1.47325 16.5317 17.6269 138 94 24
-4.99397 -0.671837 14.5861 77 64 39
-0.954582 21.0037 -6.09054 0 18 4
-0.0773087 22.4797 25.0465 109 103 71
-2.46187 17.66 26.294 100 104 74
0.910294 17.3644 19.0134 122 77 0
-8.406 -0.438656 -1.96185 47 35 10
0.411148 15.3291 -13.1629 51 53 22
0.439865 17.3079 8.0945 21 45 33
-0.979195 9.28628 23.0547 60 69 59
-5.52516 3.18032 6.34338 16 45 32
-1.07779 15.9311 -5.02913 2 17 3
-2.21481 17.3532 25.8297 94 99 75
-0.0548477 18.3004 -12.7234 10 25 12
3.66669 19.3909 27.3921 95 113 102
0.730827 17.025 18.968 103 69 12
-0.767399 9.42175 -7.95051 20 30 17
4.39638 6.41229 17.8085 62 76 65
7.66545 -16.8109 -7.05092 70 72 57
-1.73008 21.2503 26.6254 93 99 76
-3.20358 16.8081 30.064 60 72 59
-0.997093 16.9767 -5.02931 21 25 5
2.60955 -15.2297 -33.2528 112 78 29
-0.496284 18.5953 23.2081 75 69 41
0.556114 -0.831306 -20.8602 134 111 64
3.60285 -11.581 -23.7108 74 35 0
-1.65044 9.03365 18.1298 60 64 50
-4.95509 2.83841 12.3012 66 73 60
-2.14922 0.388191 15.4933 74 79 67
-2.39622 16.7015 33.0728 61 74 62
-0.553864 12.8275 -10.5664 16 39 25
3.57284 -21.3285 -1.46131 58 57 42
3.27003 10.4322 19.5998 68 82 72
-2.07511 9.07635 -4.68999 50 35 3
-0.74086 1.5617 -15.457 58 76 59
5.1486 -17.6037 -30.9173 77 51 24
-0.631332 13.7248 18.3776 74 51 6
-0.247215 19.0866 -9.02276 1 11 0
-8.03282 -16.151 6.99224 63 80 69
-1.11488 15.6835 -1.33431 0 19 2
5.20161 -19.078 -38.5534 73 43 1
-0.213242 19.067 -8.06513 63 40 3
-6.87612 -2.49603 17.1171 66 50 21
0.0545006 18.3925 5.71404 35 47 32
1.82695 10.9344 -18.6314 61 46 8
-1.3435 12.8072 20.5059 68 65 44
-4.03807 -8.4518 -11.9132 1 50 36
4.14938 -20.5236 -47.3895 95 76 27
-0.508749 9.40532 23.9051 62 73 63
2.7514 13.8396 15.9177 9 63 37
-2.69823 17.5105 34.9316 66 80 69
6.58971 -0.415001 -9.16766 11 75 51
0.339355 8.07221 -19.6259 5 37 19
-1.06982 -6.06902 -20.001 41 29 0
3.55285 7.67149 18.6469 65 81 70
-0.0999451 23.8269 29.2373 58 67 57
-1.08085 21.8343 -0.238297 72 48 22
-0.332756 18.3094 -7.53365 81 57 13
-1.40438 14.3545 23.7885 67 74 60
-1.95903 19.1225 34.2633 58 70 60
-1.05835 18.2245 4.49518 6 19 8
0.389042 23.3853 -9.62826 96 77 39
1.32527 13.6246 -5.31178 31 25 3
1.60551 11.0826 23.2021 63 75 66
2.89582 -18.6847 -40.2723 72 75 58
5.8171 3.96009 -1.87321 29 59 45
1.40575 19.0036 -15.6016 94 64 35
-0.0710335 -1.95441 29.7926 55 63 48
5.1195 -13.3878 -3.66864 69 81 70
-4.8266 2.59462 12.4285 68 73 58
-10.0882 -5.84474 3.77449 81 98 87
-1.37518 17.3372 1.22297 2 15 0
-1.41265 23.2167 27.8932 92 101 81
6.26561 -19.1702 -2.03674 56 51 30
1.9125 -19.5047 -37.0713 65 76 61
-0.318146 15.8517 6.15292 0 15 0
-1.0127 12.4229 18.3247 93 64 5
-1.06286 17.3559 -0.0420661 58 37 1
-0.865646 18.8571 -4.71152 1 5 0
0.0414276 3.72472 -19.7166 80 92 64
1.54292 10.9281 -5.55354 16 27 18
0.205105 18.6852 -11.45 71 52 10
3.9856 22.1259 28.973 86 106 94
-1.77721 20.0586 34.8038 62 73 63
0.276199 23.5721 31.1269 61 72 63
-2.32683 4.75074 -10.1327 5 26 7
-13.5161 -22.5903 12.3569 61 66 58
-0.704536 18.5718 6.00584 0 6 1
8.83023 -3.59429 -2.93709 29 53 39
1.90673 2.62453 26.5647 68 67 50
1.16368 18.4145 -16.6065 90 54 26
0.387901 20.2389 -1.1712 5 10 6
-0.595654 8.47894 -13.7298 3 17 6
-0.515579 25.2341 -1.18977 65 33 2
-1.33818 -2.22623 -16.0704 38 70 27
-1.87297 19.3055 26.7157 100 101 76
-6.80031 -3.1848 6.51873 70 49 9
6.29452 -10.3569 -1.49377 74 90 80
-1.38846 11.421 18.1893 96 64 7
0.0493622 24.7731 -2.71973 29 27 19
-1.99211 19.3165 32.2943 61 70 59
7.35705 -11.4562 -2.24004 70 84 76
-0.0622101 13.1231 -11.7574 51 50 21
2.3124 -15.7616 -18.6395 64 75 65
-1.42333 20.8157 3.9852 1 16 3
-1.84965 14.4843 29.523 56 69 60
-11.0116 -15.9456 7.80073 74 85 78
-1.39193 18.0559 1.02298 0 12 1
-7.32689 -20.8481 13.4082 65 74 68
-2.97846 8.46416 3.86613 31 35 13
-1.9346 -13.1872 -16.8644 82 99 86
3.62954 20.4795 28.4152 66 79 69
-0.0146255 10.801 10.2703 60 40 3
-0.895584 17.7085 23.8081 79 77 51
-0.594074 13.2784 17.8777 111 72 7
-6.1153 4.61171 2.41557 0 23 2
7.24155 -17.9082 -6.51552 74 81 71
5.50169 2.95242 8.73453 64 74 64
-0.0247726 21.0412 -9.59514 19 18 1
1.18291 0.490487 -16.7089 80 73 51
8.03469 -19.4396 -2.93747 51 37 8
-7.71295 -4.2993 18.4138 53 56 38
-1.2921 13.3343 26.0715 53 65 56
-1.65196 10.4525 17.8632 66 47 10
1.22451 13.413 1.0978 66 46 5
-4.13827 -1.56459 -11.9323 12 43 17
-1.66455 20.1881 29.6421 76 87 76
8.84783 -3.40083 -4.50187 34 65 51
-1.89357 9.52071 7.95571 6 19 10
-0.180962 4.77271 -19.5694 10 54 25
-5.21277 4.02267 8.37032 30 62 41
-10.6605 -20.558 13.2557 61 74 64
-1.02538 20.4783 -3.46575 55 49 19
-1.24844 17.9914 -2.31727 3 20 3
0.824341 17.323 -15.0317 58 31 1
-1.18637 17.7596 2.02559 8 21 1
0.663429 -9.33644 -24.6628 137 72 15
0.407433 24.2028 -3.54541 74 49 16
1.40769 21.8895 -11.6029 73 51 2
2.43099 14.8345 -19.475 92 65 31
0.495468 17.7505 20.2966 89 61 6
4.6951 -7.20487 0.195351 73 89 78
1.30645 21.6359 -14.6465 143 169 150
4.59644 1.4975 21.1929 60 72 62
-9.02149 -15.384 8.35594 78 93 83
-1.24925 17.6357 -1.50771 3 21 3
-3.84353 7.27669 9.60132 0 7 0
-0.219376 18.8959 -8.22954 55 32 4
3.35453 15.5006 19.9801 99 109 89
-1.03576 17.8907 -5.35053 20 30 9
0.887108 20.0351 -2.34455 73 55 28
-2.4807 17.4046 34.2888 73 88 76
3.82291 21.6669 29.9379 66 78 70
-0.508865 15.6263 -7.15998 26 25 5
-1.131 15.9296 -1.18522 0 21 2
-1.23939 12.1682 18.8207 86 62 9
0.1008 25.8386 -7.74944 39 45 40
-1.29253 11.8167 18.4445 85 56 2
-1.4737 21.5117 1.91443 7 16 2
-1.12499 21.5224 -0.0723505 53 45 11
5.17281 4.76388 12.3992 1 59 43
4.04934 -13.7514 -26.1338 68 41 6
0.0171585 24.7778 -8.53522 54 53 10
-0.147758 3.52064 17.7891 63 74 63
-9.45097 -11.4117 7.72578 79 94 85
-1.13368 22.3511 -0.110158 46 39 0
-9.92866 -7.35583 4.3353 102 124 108
-1.04095 -5.71692 -19.4624 59 45 0
-0.757179 23.984 -6.9314 6 19 8
-1.39496 20.9699 4.13125 0 10 1
2.23528 14.8096 -19.631 108 82 53
-5.52326 -1.93189 7.13522 69 72 54
-0.117146 23.0725 -11.5588 14 12 9
-0.146111 20.0759 -9.15174 19 16 1
-5.27362 3.04431 7.40654 61 63 51
-0.57505 -0.432499 -17.6754 66 59 31
0.160133 4.15559 18.9473 55 64 54
0.188614 17.8494 6.32979 26 18 0
1.00494 4.51899 -19.2395 1 4 2
-0.308075 15.4482 36.3146 60 74 65
-0.672993 18.5155 6.84441 3 14 3
0.410072 18.5065 -13.6753 16 26 9
2.70788 17.8553 30.9405 57 67 59
0.334942 13.083 -14.7068 1 37 13
0.527338 16.5541 35.2518 58 72 64
0.385971 21.4207 -4.04882 60 48 22
-1.06645 14.22 -1.27 1 20 5
1.73845 6.42429 21.1723 73 86 74
1.82011 17.9798 32.9782 60 68 58
-0.889267 5.0282 -11.9676 59 52 29
-0.759171 16.0939 4.93016 37 41 19
-0.916252 17.8277 -4.86893 6 19 0
-0.98143 18.2168 -5.50948 16 22 3
0.808765 17.248 -14.4655 58 42 8
-0.872993 24.2052 1.80711 60 44 22
-0.766296 9.73236 12.3581 46 49 31
-11.1035 -15.942 7.63645 72 85 76
-0.751221 5.15805 -14.463 6 29 14
-0.723885 11.5278 -0.445728 58 47 22
-8.86958 -12.3393 7.9063 80 90 82
-8.05346 -19.6248 12.7236 46 53 43
2.09535 12 -18.7266 58 46 10
-0.0757103 20.634 -11.2943 6 25 1
1.14372 16.4196 32.1842 66 79 69
-2.76406 14.2476 32.4212 65 80 69
5.22162 -18.6737 -36.7493 76 42 0
4.25806 -13.4999 -24.2331 69 37 2
-1.76356 9.11209 17.0584 66 58 22
-3.96155 0.169559 -10.9566 30 36 13
4.28001 7.95589 5.24899 19 38 14
-1.68842 1.36369 -13.3841 58 78 48
-0.0302048 14.3516 17.1984 63 48 8
-1.42402 21.3227 2.08546 12 30 5
0.263359 11.9722 8.8473 63 36 0
-1.49072 -10.6307 -22.237 86 92 73
-4.56733 -2.1864 15.624 65 71 62
5.13729 -3.20797 1.79033 55 64 57
-0.876213 19.647 25.208 100 100 72
-5.61879 3.08588 -5.22197 2 43 35
1.53447 17.9195 34.7595 67 81 72
2.49478 15.0116 -17.9017 55 27 0
6.21443 4.30754 5.19155 9 25 13
0.363739 17.9939 21.022 89 66 10
-1.22276 20.3988 -1.90533 6 28 7
5.24722 3.12771 -6.39159 27 26 0
3.94306 -12.7928 -24.991 70 34 1
4.61266 7.43283 1.62103 1 11 0
-0.849174 17.7915 -4.22576 6 7 0
3.76549 3.33944 21.4017 68 73 59
-2.29168 9.92017 1.38945 4 28 8
-8.55418 -10.4143 18.0204 131 130 95
-0.249763 17.5866 22.0707 108 88 36
2.9473 -20.5541 -43.9223 77 88 73
-1.12004 11.3152 17.1548 105 65 11
-2.54639 16.0699 35.2177 54 65 56
-3.35421 15.804 33.1867 59 67 57
-1.2526 8.97387 19.1023 55 64 56
6.31426 -2.93132 -0.501228 5 45 31
0.334557 24.0283 -1.41157 25 31 22
-1.64684 8.52838 12.1083 4 28 14
-1.02278 4.49073 16.3078 60 74 63
-0.468735 25.5726 -1.59865 56 36 7
-2.59148 4.72063 -9.49436 2 14 1
-6.12725 -1.36672 10.6025 93 102 75
-0.120956 -16.0595 -26.9091 70 79 67
-1.45606 13.2479 37.655 78 91 83
8.88636 -6.87757 -3.55517 14 59 47
-1.91396 19.5556 27.0694 81 84 65
-2.75861 7.95441 10.5248 3 19 2
3.99948 8.43308 2.65598 23 53 39
-1.84139 19.659 31.1891 62 72 61
1.92582 2.17512 25.9327 76 89 68
-3.78699 6.77815 -2.27633 7 14 4
-0.207447 14.1871 5.68416 1 23 6
-0.716782 3.1411 -15.6979 0 8 0
-0.974144 17.479 3.1774 1 16 0
1.62589 12.3323 -8.65624 2 13 13
-0.166157 2.255 -18.5886 66 72 45
-2.73969 -1.54925 -13.488 5 68 44
-1.75136 -5.72594 5.53716 72 86 78
-0.178261 18.7908 22.6183 100 75 35
-0.464195 -0.279949 -18.418 73 65 34
-4.81168 -4.88033 -12.2477 29 88 65
7.60937 -16.3336 -6.92352 69 75 59
-6.9785 0.357655 1.37698 65 57 28
2.98367 -22.4347 -45.6775 49 62 55
4.48285 -19.0556 -41.3809 76 38 3
-0.816315 6.78516 -10.507 62 48 21
-6.03053 4.03246 3.81354 3 45 39
-3.12212 14.4568 33.1742 67 83 72
-4.21796 -8.38317 2.3593 59 72 64
-0.782177 22.0515 -5.77915 0 7 0
-8.97719 -1.78328 -2.296 0 28 19
-0.879856 25.5575 -4.03455 39 32 3
3.23779 10.5157 13.6197 16 55 36
-1.44699 1.67662 15.8886 67 78 68
4.28156 2.12283 24.8306 63 76 66
0.571579 16.8875 0.977066 65 43 12
1.04036 17.0832 -3.32365 3 12 9
-1.33465 19.7839 1.90667 3 12 2
2.12022 23.6537 29.115 43 51 45
2.56371 -19.237 -39.7908 75 81 68
-0.659477 12.9899 17.8009 95 66 3
-0.0724411 14.3747 17.3511 86 61 6
-12.1417 -19.2224 8.49318 66 82 73
-0.00725555 3.30942 -19.3922 80 80 59
-1.37146 17.1568 1.23306 4 21 1
-7.18039 -0.557449 2.54876 67 48 10
-0.499481 14.7712 19.6421 85 59 4
8.43147 -2.27364 -5.88234 11 56 42
-0.370987 1.05125 -16.8229 63 67 49
1.39523 8.11687 21.9063 70 82 71
-0.102592 -1.27852 -20.2531 66 49 9
-0.660248 -15.0991 -23.7741 58 69 59
1.07074 12.4813 -7.33679 80 56 10
-5.28414 -4.59029 7.72992 57 70 61
4.66692 8.75898 8.37101 0 49 27
0.22126 10.7975 -14.6555 46 45 11
5.7983 2.94964 7.87059 4 46 35
-0.814362 11.7998 -6.37627 0 16 3
-0.575142 2.36085 -17.0504 55 68 51
-3.9458 -8.54205 -11.7315 3 46 34
0.0207024 17.3393 -11.8583 0 7 0
-6.2571 2.96365 3.06679 3 52 34
-2.56705 16.8901 32.1454 58 67 55
7.90645 -2.19766 -1.86302 1 23 11
-0.358665 25.3294 -7.91252 54 63 45
-3.0835 2.21529 -10.5546 19 67 44
1.69691 22.1831 23.2872 136 124 81
-0.0232544 22.5927 -10.8542 29 39 35
-2.38704 -6.32251 -16.6801 23 64 56
1.80099 14.1059 14.9563 146 85 17
0.31086 7.03271 -19.3858 64 65 26
0.0965958 -13.8084 -27.8423 76 77 65
-0.714813 8.85091 -10.2227 24 33 15
2.13816 19.4131 20.9819 125 117 85
1.02983 -17.3852 -32.1724 70 79 67
3.80707 -1.09561 29.7633 64 76 67
0.83577 14.9772 8.38603 61 57 36
3.4559 18.0422 27.3116 69 84 75
-1.08468 7.61879 18.3605 58 69 58
-0.269394 16.3335 20.7134 83 63 10
0.598221 20.6739 22.2519 130 100 43
-1.10381 19.1284 3.04732 17 22 10
1.86728 18.6117 -11.3475 33 46 44
5.04842 8.07806 10.7148 3 46 35
-1.71693 -1.01076 15.0093 73 88 75
-0.985428 24.9654 -1.424 65 24 0
1.81299 6.28485 21.1247 74 87 74
-1.19572 19.1524 -0.357368 61 38 0
-8.1123 -5.15772 19.1936 51 42 17
-0.951218 12.7737 18.4404 93 67 5
0.799995 16.8862 34.6793 63 77 69
-0.393326 13.7951 17.715 85 57 3
4.87165 -18.3602 -6.73334 75 78 66
-2.64154 8.71582 5.85172 2 16 0
-1.24571 12.3664 18.9478 103 71 14
-1.65753 4.15611 15.1164 65 77 69
-0.652416 17.6247 6.33833 1 17 3
-1.48388 21.2788 29.8448 97 113 99
0.0887451 17.5088 -11.5278 16 21 1
2.53677 6.22003 20.6687 78 89 77
-3.17672 14.9683 35.656 60 69 60
1.17778 -4.00527 -19.4401 144 116 68
0.0948448 11.1023 10.3511 63 45 2
-5.29198 3.25283 11.909 40 59 46
0.482964 19.2671 -13.7088 68 54 17
2.37574 9.82186 -3.69397 57 34 0
2.61588 23.3869 28.8261 52 64 57
1.9348 2.08023 20.7543 58 67 58
8.70211 -7.80446 -3.85962 26 84 63
-3.14536 1.58227 -10.7571 25 55 34
4.37468 2.7906 21.0915 66 73 60
0.0688782 24.3964 -2.85699 20 13 7
-1.34988 13.5664 23.8313 65 74 61
-7.31427 -9.52832 6.2111 67 75 64
-7.79763 -0.968269 -6.10581 1 71 52
3.41343 12.3032 20.1392 65 78 69
-2.37516 -3.31427 -14.7478 47 70 51
-0.814247 20.8936 -6.59476 22 35 18
-1.58332 10.8672 1.05347 62 25 1
1.01624 21.5921 -13.1091 65 37 4
-0.601158 -0.0156708 -15.6279 67 72 54
7.72731 -12.3469 -3.15712 70 80 73
-4.56322 6.88278 2.68556 1 10 1
4.49431 -6.49191 0.340118 72 81 74
1.31761 20.1211 -7.88686 58 37 7
7.35853 -1.71927 -1.75211 2 22 14
-0.851151 19.3722 -5.03002 0 9 3
1.19632 7.97118 -13.2835 18 28 10
-6.55945 2.04802 0.630241 20 55 43
