ply
format ascii 1.0
comment Created by Open3D
element vertex 1398
property double x
property double y
property double z
property uchar red
property uchar green
property uchar blue
end_header
1.94858 3.30177 20.9458 67 79 69
-0.580933 -15.3268 -22.9815 58 68 59
8.4192 -21.5891 -0.246208 50 42 28
-9.42896 -11.1669 7.70396 81 96 86
0.629607 4.62414 -20.5345 76 117 90
3.11832 14.124 22.4385 65 77 68
2.65999 -3.4244 -15.7266 0 29 8
-0.699129 10.7737 7.14862 60 28 0
5.04615 -17.0451 -9.65816 165 194 157
-1.98187 -13.1143 -14.756 58 71 63
-1.31452 19.3149 1.75928 18 22 5
-10.8922 -15.1841 7.66362 74 85 76
-7.3818 -4.58335 -7.00391 4 75 57
-1.86717 15.1707 26.6772 67 79 67
-0.835854 9.81623 -6.22499 87 77 54
-11.2462 -15.6459 6.23377 92 112 96
4.11042 8.45588 5.51041 66 60 27
-7.49203 -1.22106 3.07107 66 47 1
-1.74984 -4.41747 7.70499 66 81 72
3.20835 -8.88596 -19.6826 26 19 0
3.08797 -21.2378 -2.07971 61 63 55
3.05601 14.7913 17.8493 74 88 71
5.03373 4.84754 -3.34731 22 43 10
-0.999226 16.0201 -2.80474 102 89 52
1.21902 6.57178 -19.2042 50 39 5
0.268303 22.8187 -9.64107 65 27 1
1.69701 11.2936 -19.0089 136 136 98
2.9986 -15.0559 -18.7374 60 70 60
-2.27293 14.9106 29.8136 56 66 55
3.90876 -4.76768 -12.9358 50 86 71
-0.67712 9.87856 13.5493 1 15 0
-3.06177 7.79754 -0.905253 1 16 0
-0.364368 6.97885 21.332 47 54 45
8.70573 -2.96148 -4.54343 5 48 30
0.196806 11.1725 11.7162 64 31 0
0.999603 21.6363 -13.4758 58 30 6
-0.300526 23.4253 31.0825 64 76 68
0.28331 8.57998 -19.1982 0 9 1
-10.1123 -3.24508 2.37465 65 66 52
-6.03289 3.91709 0.0193553 6 34 12
-1.30054 -1.2913 -15.6265 10 58 27
1.71258 13.2377 -15.6094 54 44 4
-6.08399 1.85946 4.48656 1 53 38
-1.36517 10.956 22.3258 58 57 39
-4.72796 -5.46767 6.86304 63 75 63
-11.3736 -20.6183 13.1236 62 74 64
3.71015 -3.64617 3.95842 58 71 64
1.07572 -4.07267 -19.7703 86 59 1
1.44628 11.3361 -7.87344 11 32 24
6.02659 1.13879 7.18591 0 47 32
5.03859 5.91004 -1.38416 10 31 14
0.180504 23.5723 -1.21436 15 17 7
3.07985 9.58414 -1.45052 2 14 7
1.08076 15.2067 -5.7627 54 32 1
-2.89542 3.08344 -10.4701 31 61 47
-1.35283 12.9138 21.4093 59 60 44
-10.8744 -20.9796 6.53462 159 179 157
2.23167 -20.1213 -39.0526 96 113 99
5.28454 -18.0865 -30.7166 70 54 26
5.32197 -8.03072 -7.11287 115 128 111
-1.42898 22.72 2.28478 61 45 7
-0.0477905 22.0219 -10.893 3 17 13
5.1485 -7.75251 -7.55665 113 129 112
0.552612 12.1596 14.0712 59 49 26
3.08228 -8.28836 -18.9732 0 14 1
2.86062 19.1999 21.7503 134 144 117
-7.53824 -12.6586 5.78733 66 71 62
-2.85626 8.58884 3.52132 32 38 13
8.62021 -20.0066 -2.16499 52 37 8
1.98756 2.6523 -13.7784 61 79 37
2.62938 6.31362 -8.81667 70 41 5
1.55867 10.1614 -17.4668 57 38 4
-0.443382 9.58665 -12.2709 0 40 19
-8.57282 -5.04421 7.30408 80 77 55
-4.0364 7.08274 -0.569725 0 1 2
2.07442 -18.2296 -36.865 72 78 57
1.93272 -14.9483 -32.4386 107 88 51
3.62733 9.46294 3.85622 26 49 35
0.199257 24.9579 -2.27798 13 14 4
2.30986 -20.844 -37.7625 51 63 54
2.91862 -10.3141 -23.7569 83 38 3
0.228752 15.706 18.1724 78 54 8
5.86339 3.14183 7.36764 17 47 34
0.875679 -0.225683 -19.7618 63 33 2
5.79674 -18.6616 -4.79065 59 60 48
-0.798313 4.33903 16.6985 57 68 58
8.29343 -6.42004 -1.62025 64 81 70
4.77866 -16.8476 -31.8859 86 54 7
1.34882 16.3762 -17.2378 3 28 10
-1.24389 11.1602 24.2532 57 62 51
-0.593235 12.9318 3.46442 8 15 3
-2.90786 8.03706 9.47711 0 12 0
-5.34109 4.80651 -3.83816 0 40 18
-10.3018 -14.9747 8.22619 77 92 80
1.66503 22.8706 -10.2638 20 30 23
-1.46167 9.73121 16.5057 101 67 6
2.83316 17.7731 25.4481 64 77 68
-0.428749 10.8876 13.654 8 10 2
0.843666 17.5079 -5.53353 72 45 0
5.97395 1.62355 7.1176 4 46 36
4.5386 7.34016 4.58076 50 55 39
2.16202 16.8971 -17.4988 122 133 86
-0.660398 21.8691 -6.85095 52 48 16
3.55088 -19.8337 -28.5042 67 82 72
1.75304 -3.15569 -17.7544 131 86 8
-0.493248 24.6128 -5.523 60 29 0
4.27381 8.07457 5.52842 31 36 7
0.0141983 10.6334 11.8603 52 32 6
-10.6725 -10.2105 6.13185 69 82 71
0.105991 22.0669 -9.95656 40 20 0
0.814835 19.7834 -6.82109 69 42 11
-5.98199 -2.30222 17.2887 72 58 29
-7.03705 -2.86293 17.6172 65 52 27
-5.46695 5.79502 2.02037 4 16 3
5.51612 6.13692 4.3152 5 32 17
1.18703 -5.41029 4.06628 64 79 70
0.608879 9.55674 -19.1462 2 3 1
-3.08393 6.45255 12.5841 0 25 9
-0.7258 13.1154 0.404194 67 58 27
-10.8551 -19.9167 11.623 58 70 62
0.762703 6.33126 -13.7825 70 67 48
1.13773 -1.69211 12.0794 66 80 70
2.88003 -11.6254 -5.35329 57 68 61
2.74477 -21.7606 -5.29551 88 101 83
4.57765 -20.9246 -47.3442 83 58 15
-10.1149 -11.6197 7.50533 77 89 79
-6.16103 3.23128 -2.88317 28 57 43
2.47579 15.9499 17.9148 123 109 64
3.47513 -4.87341 -14.6743 31 60 51
2.3553 11.3467 11.199 41 41 26
-0.232346 -13.8463 -26.8262 83 83 60
0.120705 -2.11927 30.0815 66 80 69
-7.24037 -3.88919 6.9473 75 67 33
1.35891 14.367 10.8361 66 59 37
5.5239 6.3564 3.50542 10 22 4
6.98412 0.38836 -7.88354 13 43 21
-10.0487 -20.8292 14.0998 60 73 65
-0.681561 3.18921 -15.3006 3 17 1
0.230341 15.4956 -12.5314 2 32 9
-0.68021 12.2027 1.60063 49 48 21
3.27217 16.9334 27.7097 62 75 67
-0.565544 12.6982 2.66684 58 44 10
-1.35094 20.2083 28.9771 67 82 70
1.41082 -11.086 -27.0168 147 81 16
-6.90446 0.449127 -6.35042 47 98 72
-2.21002 -6.91257 -17.8533 23 85 65
3.66193 -11.9204 -24.1993 84 39 1
1.16568 21.9541 -13.8396 72 37 6
4.0219 -13.7344 -21.2613 64 62 47
1.13455 17.1504 -3.41934 4 9 3
0.995224 -17.6536 -31.9996 69 82 69
8.71001 -7.42323 -2.47275 58 80 67
1.10913 -4.72875 -20.2632 83 39 0
2.44685 7.44498 -7.91999 120 75 24
8.90512 -6.79546 -3.06114 12 63 50
2.87506 15.9297 24.2431 68 79 70
5.3899 -20.5094 -43.5164 73 50 5
-4.90534 -21.4598 12.4717 67 79 69
0.215561 -13.2816 -27.9512 96 92 58
0.262199 20.85 -0.955368 31 35 29
-8.77089 -7.24953 8.05912 81 89 76
7.89159 -10.7024 -4.6664 66 79 68
-5.45329 1.54679 12.3861 58 64 47
0.929249 15.636 -0.882912 16 28 14
-3.21109 3.75169 -8.9847 12 42 23
-2.09712 -4.28924 8.09749 70 85 76
-5.98616 1.11476 4.22382 15 47 35
-5.02549 -3.17566 16.787 63 74 64
8.48203 -5.46095 -1.85715 61 76 61
7.46863 -13.9488 -4.74361 62 74 64
-2.33695 5.46378 13.8984 58 65 50
-6.4488 -2.71357 6.23111 70 60 29
1.49918 14.1552 -6.59547 5 24 13
3.35387 -18.0368 -23.6639 71 83 72
-1.1032 23.3877 -2.12461 0 5 0
0.450436 18.0582 -0.277229 14 37 39
-5.25842 2.51725 7.30803 61 67 52
-4.67274 -5.31063 -12.4084 11 79 57
0.399391 17.6725 7.98088 15 45 29
-2.73106 17.3849 35.5621 63 78 67
-2.51225 16.96 32.0506 58 68 56
-1.5132 20.7392 0.457184 4 24 8
2.01991 20.1792 -14.206 78 54 7
-4.37265 -7.23064 -9.68138 2 36 26
-3.0152 -6.55109 4.74126 16 29 28
1.45628 16.3745 -8.4549 1 20 0
5.07195 7.50498 10.7657 3 57 41
0.718143 -17.6466 -30.2697 66 75 63
-0.160614 7.94536 -14.723 36 57 35
0.64212 22.5379 32.9416 65 75 67
7.26055 -0.982201 -7.90419 43 98 87
4.86987 -16.9042 -31.3564 83 46 1
5.08198 -20.7639 -45.5497 125 97 23
-0.260557 13.3555 -11.2291 1 41 8
5.82084 3.59967 7.1673 0 38 27
3.4706 -9.92613 -17.412 67 55 16
5.21658 -18.1396 -29.9519 71 61 39
-6.57267 1.90752 -2.17002 39 53 37
-1.35098 13.4342 21.4063 66 63 39
3.23595 -8.1763 -17.5694 27 35 17
-2.70972 -1.08664 14.8976 75 90 82
0.667435 18.49 -0.631622 5 9 1
-7.74797 -2.75338 5.48064 65 38 5
-0.208321 21.0468 -10.9293 0 14 10
2.0687 -6.31426 -19.4785 13 20 9
0.907806 5.93657 -18.0284 31 35 17
0.797424 18.0626 -2.28511 74 44 0
7.61306 -15.7856 -7.06023 68 70 54
1.36904 15.6028 -8.4015 6 24 3
-2.98725 -5.45235 -15.1565 36 82 54
0.504868 16.1891 34.1819 81 98 88
-5.34301 0.0316675 6.69751 69 80 72
-1.36647 -6.33512 4.35838 63 79 70
-5.25629 -7.65095 19.1573 89 103 92
6.18186 -10.4881 -1.52379 74 90 79
0.238789 13.6636 -13.9764 7 22 5
-5.69094 1.34799 6.02999 5 52 35
4.34319 -18.7498 -8.71636 91 107 98
0.205528 10.8089 -15.1691 2 6 1
-3.84734 -1.0984 -11.9259 2 61 32
-5.19923 -1.46335 9.32765 89 96 74
0.698536 13.0403 -15.3152 6 38 24
-3.35905 -6.90594 4.32484 21 17 28
5.65201 -2.12747 -11.4843 12 78 57
-0.0685158 19.3138 38.4333 68 82 73
-1.31963 16.0367 38.6975 71 84 78
5.40647 6.55232 1.80978 0 17 3
3.39978 -14.1823 -18.876 68 70 53
-0.641251 23.695 -7.37883 13 24 11
-1.11499 0.728165 16.189 71 84 72
-4.04612 -7.78683 -9.19569 26 51 40
2.31509 -0.176809 14.4192 61 73 63
9.19948 -20.7522 -1.50027 53 49 36
-1.02916 23.9726 -3.61507 5 10 2
2.15267 -22.1762 -3.65447 85 105 89
4.94251 2.73742 10.7194 58 75 65
5.91608 3.80242 6.6425 8 53 40
2.09064 8.29539 20.9356 70 82 72
1.25378 9.08406 -16.0965 54 47 23
-4.44321 -1.98867 15.4074 57 64 56
-0.84095 9.546 -8.87973 29 42 21
6.99035 -3.8214 -9.96905 111 134 104
-5.1632 -21.1899 12.548 58 63 53
5.08553 5.17757 14.5883 68 79 68
-4.98706 -22.6312 11.1298 87 107 95
3.01026 -6.95713 -17.5793 10 40 21
9.89228 -20.382 -4.59474 132 117 89
0.403061 -15.8601 -29.4675 72 79 64
-1.12905 16.8045 39.4256 77 92 82
-0.804728 16.1847 22.3215 112 96 51
3.03505 -4.46095 3.43493 58 72 64
4.50512 3.30367 18.6288 90 107 93
-2.95764 -2.25892 -13.5126 10 52 32
0.015831 24.5651 -3.06753 49 32 9
2.46538 -1.84658 -15.2295 4 38 23
0.883865 20.0707 -2.28923 58 48 28
-2.15868 -7.72152 -18.5454 25 63 45
-2.31459 -4.86027 -15.8087 39 51 32
7.28449 -0.404934 -7.81536 16 84 64
-0.933868 15.9939 -3.3391 53 43 3
6.91519 -13.9739 -4.26553 70 79 70
-5.14541 6.21072 3.73541 35 53 36
-0.907108 11.3582 -4.01085 57 65 39
2.57999 -10.5905 -10.3127 71 83 72
-2.53789 6.82359 -7.27818 0 3 0
-3.1822 -4.18131 8.33205 74 89 80
-0.566597 20.9396 5.16181 36 36 9
5.09044 6.39655 10.6051 52 102 83
5.46283 5.3008 -1.49987 10 24 7
-0.54565 5.73947 -15.7768 50 85 65
7.46405 -9.31928 -1.53137 72 87 76
-0.450581 -2.51158 -19.2329 65 55 25
7.07685 0.480711 -5.76502 4 20 4
-9.87421 -3.87099 5.16009 67 42 1
7.43692 -13.399 -7.05854 138 134 103
-0.879856 25.5575 -4.03455 39 32 3
-1.39801 15.512 23.444 93 90 57
-6.70877 -10.4627 19.874 77 93 83
3.94451 -12.845 -25.3178 80 37 1
-0.86704 -11.6424 -24.4375 96 100 77
0.3311 11.0393 12.552 64 33 5
7.20496 -5.1274 -0.502037 9 54 44
-1.28871 20.8346 2.67192 52 33 0
1.94431 22.6561 24.3143 74 77 60
-7.64354 -3.45654 -6.75417 4 50 28
0.761383 2.4864 19.0898 57 67 59
-2.16206 13.1515 37.4241 61 76 66
-5.45507 5.23388 -1.58717 19 62 38
-0.696373 20.9898 36.0144 68 82 72
-2.61106 6.28043 13.0248 14 44 28
1.14834 10.5547 23.5437 66 78 70
-7.26936 -12.2707 4.44587 68 77 65
-0.967232 3.25824 16.2729 64 76 65
4.79649 -18.2283 -38.1802 78 39 0
-1.23309 12.8023 22.7932 59 63 51
-9.75014 -2.54247 1.45873 66 56 30
-5.08319 4.34257 11.7939 39 69 51
-0.260338 23.1461 -0.444122 53 54 22
5.15807 4.30789 9.58064 67 74 66
1.08767 -17.8416 -32.4378 67 77 67
4.95132 -3.99352 1.17793 57 75 65
-0.0518951 22.1765 -0.653114 40 58 58
5.20682 6.47259 4.80477 20 52 41
-10.4982 -10.6368 6.81425 71 84 73
-4.70587 6.00149 8.56984 0 6 2
2.71458 -21.1131 -3.04124 46 51 40
4.04399 21.8843 28.9953 84 102 90
4.45493 -19.343 -28.8347 60 70 62
-0.953461 3.75027 16.2582 62 74 66
-0.319214 17.5293 -8.10153 12 10 0
-7.59873 -19.4772 7.11085 94 110 101
1.55424 19.8385 21.03 152 122 54
-2.01366 23.1546 29.1943 71 85 73
-7.99918 -13.3418 6.99023 66 77 66
1.5168 11.9023 12.3959 86 53 12
0.885918 23.5125 -6.24772 59 67 59
2.69778 -13.1949 -29.0032 98 56 10
6.54634 -0.923374 -9.66885 0 54 23
1.45511 12.8119 -0.718544 15 22 9
1.69382 10.5128 -8.00866 8 19 11
5.62525 -20.5863 -38.1522 68 49 22
-2.56142 5.66797 13.5308 38 58 40
4.18989 -19.7309 -44.4971 75 53 23
-0.559586 -10.4015 -7.42778 64 76 67
-1.55395 8.37012 13.0939 1 31 24
3.20712 10.5159 13.0201 16 43 34
8.8629 -4.99161 -4.63078 14 51 38
-2.80344 -2.8865 11.2843 70 84 75
3.94592 -6.52875 -13.6376 0 32 8
-6.94944 -7.05445 7.90979 71 75 68
4.1712 -19.1983 -8.50191 99 117 103
-7.15408 -3.85541 19.0365 65 56 35
-3.32668 7.65712 7.67012 7 26 14
-0.97522 -14.7125 -19.6895 69 81 72
6.53648 -16.8034 -6.29002 89 101 88
3.96573 4.83159 -6.32552 6 18 0
0.943962 21.6815 -8.2881 62 34 8
-1.07619 23.5557 -2.74748 1 18 7
-1.51081 11.1813 20.5264 53 58 39
-5.61902 -5.13848 -10.7409 85 101 89
-10.5391 -13.3352 4.62771 110 135 116
10.3224 -22.7259 -4.26141 123 143 125
1.3766 17.9133 -4.2155 10 24 12
3.22557 0.603011 19.7813 86 100 86
2.58651 23.4461 29.2635 49 57 49
-7.13358 1.02044 -5.54412 31 71 62
-0.38833 17.087 39.2124 75 90 80
2.91364 -22.1957 -45.6972 55 67 56
3.68026 0.647656 12.9641 51 62 53
-7.48607 -7.46942 8.04583 75 86 76
-2.18823 -11.7077 -12.5646 52 63 55
-1.42684 21.1582 1.78563 0 8 3
1.54845 20.9332 -9.03937 5 13 7
1.21374 14.2843 -1.29735 28 29 0
3.10053 19.9781 24.6185 68 77 69
4.01527 -19.3549 -8.06061 76 91 75
8.35496 -5.30358 -1.64577 22 58 45
0.845638 16.0981 -15.7255 68 56 20
1.54829 -17.6231 -34.1493 74 81 64
4.76954 -16.4299 -30.6511 68 31 5
0.405209 22.3891 -2.25607 28 37 22
0.558113 -17.3271 -26.4543 58 63 58
-1.08515 23.6356 2.29906 69 43 13
-1.08316 15.4282 -4.95714 0 28 5
-0.510338 -6.48419 3.75358 67 81 73
-10.4868 -12.8364 4.59677 102 126 108
-6.00566 1.22196 10.4528 16 39 23
1.86127 16.0141 -13.7476 22 18 0
3.54876 10.8751 6.86942 0 34 23
3.0166 -14.3012 -30.964 107 59 17
4.93382 8.38841 10.3494 4 54 38
1.54943 12.2574 -5.02618 8 21 12
-5.49009 -1.49573 6.84759 68 71 56
-1.87641 13.9465 30.9233 65 78 66
1.77307 12.2471 2.1068 73 43 0
0.0232773 25.0219 -2.7416 24 16 4
2.29002 15.5161 17.19 112 95 36
-4.94542 6.31193 0.0940857 0 4 0
5.71175 -9.05924 -6.88487 154 171 150
0.164967 11.9919 26.2882 59 75 68
-2.51708 16.2888 35.8047 56 68 60
6.54523 3.51077 1.54261 58 78 62
-3.07819 8.15378 6.22253 27 24 9
-0.842209 10.9372 -7.20513 62 62 41
-2.46103 -2.55617 -14.2714 86 107 80
5.97849 -0.575721 5.42733 60 73 64
3.56302 20.4987 27.3532 91 108 95
1.08738 -14.1959 -30.3768 105 97 60
4.39527 -13.8188 -5.15729 73 82 72
-0.838409 9.00571 -7.61432 55 40 14
-8.26625 -0.813221 1.17114 69 52 19
-0.56189 12.3985 3.24192 47 35 9
2.87137 -0.0279555 -13.0436 1 49 25
-0.57151 17.3904 5.50917 13 31 16
-1.97983 15.0425 27.8395 54 66 56
-0.541031 0.247597 -17.685 71 67 44
3.90048 -11.934 -21.6507 66 52 28
0.84491 19.7549 -2.50336 86 55 8
4.14766 1.59982 26.3283 68 81 69
2.93184 19.0707 25.5329 64 78 72
-3.67876 -7.46848 -14.1699 2 60 39
3.3505 -10.1734 -8.96147 131 152 129
0.654792 0.865185 -20.6246 101 81 26
-9.36347 -18.983 10.4049 60 69 63
7.47552 -4.70031 -8.52699 52 101 83
-2.54549 0.389877 -12.6675 3 65 44
-0.854256 16.41 3.38499 0 21 2
0.255577 15.4933 17.7524 102 65 10
4.58604 9.4269 9.41367 3 39 24
0.102726 3.52802 18.3383 60 70 60
0.421043 1.23164 17.8706 62 75 67
-4.6771 4.10655 -6.42589 13 48 17
0.228934 3.28338 -19.9335 113 107 69
8.01252 -18.0716 -8.25916 83 76 54
-0.159096 20.0795 -8.19934 84 56 11
-0.757977 21.2805 4.50259 27 32 14
3.03414 -17.032 -36.8912 112 100 64
2.8366 6.71225 20.1275 72 84 73
4.61201 2.42679 20.013 67 77 66
1.74259 -11.0027 -26.7799 127 58 10
-0.925018 11.1676 25.0566 61 66 59
-4.40691 6.98432 0.794969 0 3 1
3.63259 7.80632 -1.95128 2 37 19
5.35271 -21.7806 -45.8551 132 141 98
5.6276 -21.3219 -42.9792 68 57 20
7.99959 -19.2455 -3.2949 53 37 3
-8.39815 -15.5997 4.73867 133 157 135
-0.807198 13.2194 29.0519 55 69 62
-1.03273 13.4617 -1.48129 0 30 12
3.38895 -3.27001 5.52496 60 74 65
2.24195 13.0138 -16.6721 0 1 0
5.78564 -18.7309 -4.3559 58 60 46
-7.28869 -4.63755 19.7762 68 68 53
2.56577 -1.9193 9.98282 58 72 63
-0.237602 4.59108 -19.2224 10 33 20
1.8307 -4.05725 -18.2501 124 94 40
-7.37364 -0.0437698 -6.26415 2 48 29
-2.74947 13.4125 36.651 54 66 54
5.7274 -1.06439 5.23127 57 71 63
4.03146 7.45385 17.6025 69 80 70
5.00494 -21.4178 -35.832 57 70 62
0.921028 -17.9822 -31.3497 60 70 58
1.36701 13.133 3.56125 64 51 9
2.17135 -12.6211 -28.8255 120 55 15
0.927574 17.231 -0.570923 14 42 21
6.25456 -9.06544 -6.43905 145 163 137
-0.509172 -5.08705 6.17229 66 82 73
-5.2303 3.44284 -6.25582 6 35 17
5.09437 0.910691 9.86413 60 71 64
-1.62829 15.5401 38.0215 72 85 77
3.27233 0.738447 15.9523 63 77 67
0.95447 2.35331 -16.4586 14 24 0
-3.83855 -9.05614 -13.1276 52 74 64
-4.9194 -2.51084 16.3763 60 70 63
5.41743 -18.5212 -33.0894 70 39 4
5.92461 -2.57911 -0.321045 14 52 41
0.560143 19.407 -3.57941 43 52 35
3.15981 10.9309 20.3638 65 78 69
-0.859379 10.4015 8.6326 46 30 1
0.857491 15.2817 -5.10638 60 41 0
-0.518944 3.88313 -15.9715 0 27 14
-7.81903 -1.20713 -6.1595 22 84 62
3.15172 -17.6555 -38.3643 113 93 60
-0.956947 24.2811 -0.847008 63 31 1
4.0355 -13.1029 -20.8339 72 54 27
-0.738297 9.72693 12.2128 35 41 25
-0.0435181 14.8826 35.8465 62 75 67
6.26361 -10.8435 -7.12121 146 144 99
-0.870441 -10.0428 -23.662 91 82 52
-5.05461 5.8584 -1.24932 17 31 12
-5.19597 0.507586 7.12586 63 79 65
3.62408 8.95004 3.56545 1 48 32
3.35555 -9.97936 -14.5213 61 66 52
2.5134 -19.4943 -40.051 59 69 55
-5.43695 2.72213 -6.26107 32 78 67
0.034256 9.66555 -15.9043 12 44 25
0.30155 3.20453 18.5953 57 65 56
-1.8363 -11.1326 -20.5364 65 73 58
0.734749 0.62825 17.3725 63 76 68
-8.94675 -1.53483 1.12656 68 57 24
-9.09596 -20.2001 13.6096 64 80 71
1.56297 18.8249 20.1583 160 123 49
-0.821678 13.0484 -7.6757 6 36 22
-4.75935 6.53065 5.97873 8 24 11
6.537 -8.22053 -6.17037 142 169 149
-2.54479 17.2634 31.036 57 67 57
-0.695976 14.5658 20.1545 89 59 6
-11.5893 -19.3066 7.01 118 139 124
-0.251678 23.6252 30.4447 56 67 58
2.47527 1.45936 -12.7202 0 31 5
3.87099 10.3217 7.58159 11 40 30
1.217 14.6555 -2.38831 35 41 26
2.98127 8.37114 -4.19332 3 28 9
0.072567 1.41684 -20.738 119 111 72
1.89188 4.01863 20.8566 68 80 69
2.26604 -21.616 -3.6394 77 91 72
1.15575 15.2123 16.4875 124 75 14
-2.32907 17.7928 38.4216 55 65 56
1.41462 11.0195 -13.0678 13 51 16
-4.97607 6.31241 0.46032 5 8 0
2.32467 -17.0047 -35.9757 85 85 60
-10.8999 -13.7373 5.54948 85 102 88
4.51593 -18.283 -39.1078 80 35 0
-1.39894 13.4255 31.1613 72 85 76
-0.0545883 5.43815 20.0156 50 59 49
-7.33748 -4.63632 16.5951 103 119 101
-7.66717 -13.8272 4.79914 71 89 76
-9.04512 -2.19204 -2.63649 21 67 49
1.34981 20.6402 -8.1946 40 24 3
5.0617 5.19559 9.50642 32 65 55
4.97324 -19.1742 -40.5359 85 45 8
1.39802 14.391 -7.35516 14 29 13
0.0611839 6.82141 21.8397 54 66 54
6.68877 -4.88368 -0.290749 32 77 66
0.402565 -4.40732 -21.4961 140 100 15
-7.69412 -4.06091 17.7163 66 71 55
4.05071 0.894518 24.054 57 71 62
3.28202 -9.02693 -18.5972 83 56 24
-1.32167 8.81485 18.7702 56 66 57
-6.36475 -1.29792 -8.77161 4 45 26
8.6683 -4.47528 -2.26212 37 63 52
3.87941 -15.741 -22.1812 63 64 50
4.41159 -21.2413 -47.9331 81 59 17
-1.71664 -6.98184 -19.1321 60 82 64
-2.8043 17.345 36.8554 58 69 60
-2.69241 0.766449 -12.2616 0 56 35
-5.87564 -19.9447 11.3685 54 48 32
0.417589 13.4972 8.52989 58 47 20
1.41984 -0.388535 30.0439 71 82 72
3.82246 -5.32413 -13.9184 17 48 28
3.89524 1.06497 17.6361 62 76 66
-10.8348 -11.1477 5.45393 67 80 69
0.628716 16.6284 7.66744 3 32 21
-0.689034 13.3388 2.24544 30 39 17
-1.5416 14.2167 26.9311 51 62 54
0.853071 15.5012 4.60483 13 25 22
1.41185 15.9276 32.4503 62 75 67
4.52856 -15.2785 -6.28598 65 78 68
2.0561 17.6784 -12.7131 1 5 0
4.04362 -13.0467 -24.8825 68 39 4
-1.16592 6.08469 -10.3088 96 55 1
-5.95598 1.54483 11.8503 17 50 35
5.16602 -18.888 -37.279 74 46 5
1.63188 -10.6951 -3.8137 60 73 63
3.17375 6.80337 -6.06718 0 25 11
1.22369 -1.13567 13.145 70 85 75
4.22012 7.89666 16.5202 54 70 61
1.35544 13.5095 -7.21272 5 26 5
0.79052 23.2095 -5.33677 7 19 5
4.10938 0.852322 21.3936 55 71 61
6.29824 -11.1607 -7.24768 154 142 97
-5.19557 6.03701 -0.225932 0 12 2
1.91559 15.2719 -13.2985 19 19 3
-9.0993 -1.90667 -1.95102 0 34 18
-1.43518 13.5995 25.2788 52 62 53
-6.17441 -1.3643 -9.01219 25 54 40
3.0434 13.6549 16.4404 25 74 56
-7.90268 0.0600204 -4.36223 13 43 29
2.84721 16.9734 20.1985 100 106 82
-5.76395 5.54461 3.89913 8 32 16
5.04963 -20.3255 -44.9676 91 65 9
2.83649 8.59039 -4.35616 8 28 14
3.37624 -9.21142 -10.8753 60 73 61
7.67626 -22.0267 0.230064 52 57 45
0.394814 1.4253 -21.0189 120 125 88
-1.19965 19.4788 -0.185078 44 34 0
-0.00514984 13.8417 31.2151 66 79 70
-5.86165 4.93267 1.49427 8 31 19
-5.30368 3.88125 8.64519 21 53 37
4.21847 -7.28081 -9.97486 12 69 49
-3.64674 7.32839 -0.642471 31 16 0
-8.2732 -21.3334 15.4623 49 60 50
0.0233078 7.05925 22.0815 56 68 59
-0.921715 19.7931 5.50845 61 42 11
-1.25879 15.3687 23.0397 89 89 62
-0.372814 24.6914 0.0837784 69 37 1
-1.54352 -1.16899 14.4561 72 85 81
-0.18428 4.77031 -18.3124 0 3 0
-0.651063 16.9314 39.3613 77 90 82
1.66267 11.3843 -2.86696 79 48 5
-1.1495 9.95975 9.68653 4 8 1
-9.94373 -9.09437 4.19708 118 142 123
-1.71085 -13.5612 -17.3164 68 81 71
-5.85519 -5.1982 7.72213 69 79 69
-4.03052 7.42432 2.24048 0 9 1
7.69199 -14.745 -7.21346 68 66 48
1.94683 16.1351 17.358 131 92 19
1.65 20.9754 -9.79091 12 23 17
-3.33804 14.3429 34.4042 65 85 70
-5.16736 0.878084 12.8265 64 63 35
3.16928 20.2265 26.0456 83 102 90
-2.14291 15.6841 26.7175 66 80 69
-0.70002 5.8209 -12.8892 53 61 42
-8.46343 -0.622818 -1.09644 75 53 3
-4.04153 -7.92643 -10.745 0 41 28
-9.96931 -6.17858 7.18408 77 86 72
3.46423 9.30082 2.62936 36 60 46
-12.2852 -19.943 10.0384 66 79 71
0.912781 3.98429 -16.1998 4 7 1
2.02789 19.8092 -13.92 71 52 4
-2.14234 21.9176 28.1498 69 79 68
0.382027 13.4745 -14.909 5 45 29
-0.536163 -5.92156 4.6312 57 71 63
3.76509 8.26741 -0.262749 7 30 11
0.674744 8.72396 22.8853 71 82 73
4.33452 -22.1989 -49.4372 113 121 96
-7.19023 -2.09512 14.2386 69 79 65
-2.1977 22.6466 28.2888 69 82 66
-0.852867 2.79259 -16.0748 26 69 52
0.393082 11.6047 11.1097 66 46 9
-2.27401 8.914 -3.83933 1 7 0
-1.54398 14.0484 25.3497 58 68 57
2.01696 -1.55974 -16.2854 97 54 1
0.530413 -2.42712 11.0765 67 82 72
2.62975 -2.98872 7.79435 60 73 65
3.66753 14.7207 20.8131 65 77 67
-0.432713 -5.59919 5.01514 65 78 71
5.27384 -11.5629 -8.03213 173 162 113
-1.36533 9.39334 -5.30155 88 43 7
-0.126072 -1.39609 28.9233 148 148 120
2.24551 -14.3326 -31.6495 127 80 15
6.44883 -20.4299 0.175507 60 50 31
3.87153 -13.009 -20.0659 66 62 43
3.10903 9.95615 1.04012 14 33 23
-6.76229 -0.94968 -7.69379 4 58 46
0.333572 -13.4648 -28.4517 96 87 55
3.94759 -12.6442 -24.1362 73 48 3
-10.219 -19.938 11.9108 59 71 63
2.45707 8.92013 -5.46282 82 42 0
-2.67496 19.1036 29.7971 59 64 52
3.28438 8.18261 -3.03822 4 24 4
-1.85374 -2.79992 -15.5588 0 48 32
1.545 9.84691 -15.9018 19 23 1
-1.16379 12.8844 26.1882 54 64 55
-6.21285 2.19217 4.10193 11 53 42
5.16586 -21.8945 -38.7966 47 64 53
-0.0276108 16.1177 -11.9248 16 47 24
4.13917 -13.0266 -23.2999 68 35 1
1.81679 11.1861 -17.4957 42 43 19
5.46184 2.9079 -5.86206 2 20 3
2.87968 14.5991 23.3982 65 79 70
4.03492 8.45676 5.24774 60 57 33
0.0916138 18.3683 6.13285 53 42 8
-2.53732 16.1484 35.2711 54 67 57
-13.3773 -21.4955 12.6162 67 75 73
0.740204 24.7712 -8.8277 89 61 16
-1.38131 9.7879 21.4532 57 61 47
-6.88166 1.66604 -4.19579 5 22 7
-0.70985 10.1732 14.0009 20 22 3
1.02617 -18.0111 -28.2352 48 60 52
7.05394 -20.1361 -8.91801 177 210 182
6.48462 4.15559 2.03992 5 49 31
-5.83959 -6.44552 19.9505 62 72 65
-3.81136 7.58064 4.05573 28 43 37
4.24553 -20.0549 -45.5648 94 70 26
-0.988464 18.0194 2.97736 17 18 3
0.775871 19.3585 36.1336 67 79 72
2.4472 21.0593 23.1674 128 137 107
-3.03237 1.61132 14.1533 67 74 59
-7.75384 -3.76178 6.67419 77 51 15
0.591423 0.793307 28.7603 56 52 31
3.89611 9.15511 16.5491 64 74 68
5.46117 5.59767 6.72906 11 41 29
0.591927 25.8781 -7.46274 49 48 32
0.980728 4.73761 -16.3815 0 14 4
2.19532 2.24194 24.4141 65 71 57
-4.01769 -1.67574 -12.2525 2 27 2
-1.61063 20.2821 30.2338 54 66 54
-4.18941 -3.89526 -13.0409 0 62 40
5.42773 -19.5231 -38.4395 78 43 2
-0.261002 -2.80663 10.5549 67 82 72
-5.83701 3.77659 -3.0624 20 50 38
0.681591 -1.0456 14.0366 71 86 74
7.10899 -18.6721 -4.44798 55 40 11
-8.74716 -1.25123 0.963593 64 41 5
5.55394 -19.7064 -1.29221 58 58 44
0.444443 10.4038 -16.9888 18 53 31
1.82266 -14.2681 -31.4173 123 103 67
-7.82828 -10.8446 3.00262 169 200 177
-9.17583 -1.68571 -1.03497 56 56 39
3.16389 -1.65802 30.8153 74 91 80
0.725143 24.0148 -9.82138 96 55 8
2.41528 15.1023 16.8954 50 76 50
1.61633 8.60633 -19.853 83 74 32
-0.671978 14.4299 3.51724 0 14 0
-1.38239 -12.3713 -12.805 65 78 70
-7.74443 -0.272095 1.24442 64 38 0
-3.88456 7.08581 8.74178 1 0 5
-7.40608 -1.47343 -6.93365 10 82 71
0.972309 0.090023 -17.7651 63 65 46
-3.49302 -8.08187 2.65108 56 74 63
2.53681 -10.7357 -9.61515 73 87 74
4.4912 -19.6355 -29.2473 58 69 60
3.97302 1.88821 -10.3292 5 32 15
0.358696 19.673 -13.0276 0 9 1
-0.581751 -0.229408 -17.5505 67 68 49
-4.48879 -4.43166 -12.5763 7 58 44
-9.95818 -9.34888 4.20497 117 142 123
3.08884 5.01974 -8.06977 6 29 14
-2.7163 6.52572 -6.93467 2 13 2
-4.54407 6.34455 -2.28707 1 1 3
-4.12086 -0.408966 -11.38 2 51 29
4.22329 -18.8445 -41.2857 85 54 2
-2.51014 9.2299 1.72408 14 24 11
1.68163 22.2622 -10.9433 31 32 5
0.450073 19.5663 1.62246 27 36 23
0.289352 -16.684 -24.0842 57 65 59
8.07438 -7.86188 -1.25092 73 84 72
-3.84564 2.48364 -9.20232 0 47 13
-1.54181 11.8347 19.5635 66 56 33
6.214 3.34303 6.17454 42 76 65
0.615715 19.0737 -3.09726 83 46 5
4.64371 1.8495 20.0159 81 93 80
4.98537 2.9835 15.9055 62 76 65
3.21756 -14.7242 -31.5372 81 37 1
2.22786 -0.705959 13.5653 66 80 71
0.796715 24.8258 -7.98373 76 36 1
6.00176 -11.132 -7.47105 163 153 115
1.12008 7.47066 -13.4732 45 43 20
4.0494 -12.587 -22.9411 84 47 0
1.39879 13.5835 2.92609 32 38 18
-6.85245 -0.676807 13.3176 64 37 0
8.06006 -3.96146 -1.26481 3 32 15
4.18562 -6.1328 -12.3093 18 81 61
1.08561 -12.5648 -12.4465 71 84 75
5.12782 6.25829 8.13514 3 40 29
3.51606 9.23077 0.29998 14 37 25
-9.77704 -2.46632 1.14793 63 54 30
0.471962 2.29945 18.5445 58 68 59
-2.255 9.88657 1.71865 1 19 3
-0.0206413 15.2847 35.5142 66 81 71
-1.77761 19.608 32.1505 66 77 65
-1.29061 19.273 2.1401 6 23 6
-9.75613 -12.5576 3.71446 129 153 132
0.989504 -14.0558 -30.1795 100 91 52
4.02005 -19.3635 -7.39903 67 81 68
4.36956 1.54689 18.1688 74 87 76
-0.856873 16.0769 4.20545 3 16 1
0.547302 11.3013 -17.3051 29 43 27
-0.823536 12.5683 26.8897 52 64 57
6.51579 0.918945 4.26022 61 75 66
-6.25431 3.54388 3.05668 0 51 34
-0.0854721 19.2839 6.57567 20 23 7
-0.685696 10.9998 6.35603 63 36 2
0.0561752 13.1689 7.78368 61 66 54
-2.83746 -11.4022 -14.7183 51 63 55
-0.262947 14.7576 -10.9923 18 33 12
-9.73616 -4.81055 1.47137 63 81 70
3.13299 14.8972 18.2528 107 114 95
0.17775 20.6026 22.9701 86 69 41
4.34901 1.69076 -10.2181 2 35 0
-7.75755 -4.58085 18.4739 53 62 52
-1.0769 15.9309 -5.19189 3 26 3
-0.835426 16.0246 4.76243 17 29 8
3.93565 -19.3721 -42.9768 95 61 16
-8.53165 -11.5377 7.60669 72 84 74
0.90062 20.6649 -6.36452 86 61 20
-1.21476 9.16829 15.2826 85 58 0
5.1322 -12.9748 -8.83514 158 142 74
4.0781 -18.1796 -39.4135 85 44 13
8.00428 -13.2467 -5.26899 63 72 62
-10.0214 -3.56036 0.442539 80 95 85
-1.16748 23.4792 29.0518 62 70 57
8.10487 -18.9826 -8.36907 131 131 107
-3.28433 7.68184 9.43539 4 13 3
-5.03839 -1.61477 9.01929 100 112 95
1.68631 3.54449 20.6234 67 79 69
-2.21868 -3.16397 10.2987 68 83 72
-1.1203 16.7989 2.10948 14 34 19
-7.69314 -12.1034 6.72453 70 80 67
5.54896 -12.7895 -8.57053 170 138 66
7.62518 -8.41195 -1.04508 74 88 79
-0.296101 -0.830103 -18.6739 81 85 65
1.47038 -4.65859 5.80335 64 76 67
3.84241 -3.81781 3.20032 55 69 61
0.828484 7.55031 -11.6676 64 52 20
1.47058 15.3823 -3.17277 15 30 29
0.178047 18.1822 -13.1146 37 70 62
1.84906 -19.6396 -36.6877 65 76 63
-6.50618 -0.722191 -8.02596 22 74 51
1.36969 14.6267 10.6035 62 51 22
1.4211 -17.5584 -33.7909 74 82 65
-0.837433 2.16728 -14.467 34 37 10
-0.673244 25.0386 -7.19654 15 23 10
-4.5151 4.50281 12.364 47 64 50
1.7239 8.99224 -18.2768 4 7 2
1.11879 15.0399 6.58937 0 22 2
-2.057 19.2707 27.1366 85 88 68
0.813377 19.476 -2.51969 82 52 3
-4.91017 5.36798 -4.18859 9 11 13
-3.13025 16.9084 30.4861 59 68 54
6.32836 2.73748 -0.835068 53 67 54
4.12294 6.10414 -4.048 2 9 1
4.43783 2.57021 18.3646 91 108 91
-5.62988 -0.313126 9.63738 87 91 66
-6.84512 -19.6076 8.39512 95 115 103
-0.305584 13.3526 28.9818 68 82 74
-4.64439 6.34142 8.95453 4 1 3
2.56198 19.0842 21.2981 130 134 96
-0.181435 0.0842848 16.4392 67 83 74
-0.125887 13.3824 6.09919 45 38 8
2.32738 -18.8673 -38.4244 64 68 53
4.13599 -7.2156 -11.9149 7 49 33
-10.1727 -3.53439 3.25766 64 70 56
2.83959 -21.6353 -44.3421 53 65 53
1.39164 14.1005 6.52015 9 31 5
3.33688 16.9806 22.384 69 80 71
1.1678 -14.9699 -31.2437 90 89 63
-5.14708 0.662952 12.9876 68 61 42
4.39328 -10.1412 -1.054 70 85 75
7.88306 -10.2555 -5.00091 106 112 99
0.299568 0.3334 16.7542 69 86 77
2.75458 -12.0862 -27.0009 107 53 5
-2.11342 -5.85413 -17.029 39 87 67
-0.895622 23.7129 -3.96671 54 51 26
-0.538126 -15.2454 -24.8387 66 77 67
0.264343 18.3085 38.1499 70 82 73
-0.834999 1.53587 16.4917 66 77 69
-8.13439 -10.8573 19.4479 70 88 79
7.58054 -2.94601 -0.892494 2 25 18
-9.3453 -10.235 7.42424 76 93 83
3.82756 9.88847 13.0926 8 40 30
4.17036 -4.35191 -12.4573 7 93 61
4.94917 6.88797 7.11549 32 63 46
2.69248 6.6228 -8.04322 51 50 17
-2.9873 17.4073 27.5962 73 83 67
5.07194 -0.860641 7.97427 13 50 40
0.839526 22.3432 33.2644 64 76 68
-4.51222 -0.902893 14.8396 77 71 52
0.314392 16.3805 -12.9126 5 36 21
3.69572 8.50487 0.0573807 2 21 10
6.54412 -21.5919 -8.60275 173 203 181
1.94901 19.0029 -16.7353 72 64 48
4.01443 -13.199 -5.42039 63 74 64
-2.13464 13.0241 35.9464 86 96 86
2.95192 -19.6208 -42.1489 63 67 47
-4.75304 5.40263 7.43202 2 26 10
4.05597 10.237 9.85303 5 29 19
2.72119 0.606463 18.5221 89 110 94
-1.46283 22.4183 2.02345 36 29 3
3.65791 7.38974 -2.64123 10 30 3
-10.3826 -6.06013 6.42426 66 79 68
-2.92347 15.9651 29.158 71 84 69
-0.0623894 17.7548 38.9112 71 85 77
-9.56249 -2.19617 1.14949 63 48 19
-12.8066 -21.5183 13.1532 75 89 79
-2.96737 5.68429 13.0686 49 52 38
2.02764 5.88621 21.0582 76 88 76
-9.83971 -17.5518 8.93474 83 97 88
-6.15546 -20.9446 8.66143 133 163 146
-0.561695 -13.4753 -25.7061 103 112 101
1.70698 10.4147 -16.3833 13 24 1
-5.80672 -19.9726 10.3543 88 95 77
-6.94624 -0.652473 12.4884 73 53 11
7.47818 -17.2261 -6.82838 69 77 65
-0.0497322 21.9291 -0.648399 35 51 52
7.29088 -21.2537 -8.64051 165 200 174
2.49538 13.311 -18.3012 0 5 0
-3.43091 -2.18613 13.1784 66 81 70
3.13088 -2.59599 -13.6695 19 86 59
4.45284 -6.98126 0.304817 72 86 77
4.80843 -16.419 -26.9983 67 55 28
-4.56963 6.52362 9.45519 0 4 0
-0.489128 17.582 -8.55394 0 5 0
2.45959 13.7592 -17.4456 2 1 0
-1.22346 19.5435 -0.935392 20 20 0
2.23491 1.47183 21.2711 52 61 52
0.25367 14.0891 31.3899 60 72 64
-8.66978 -3.66855 6.14862 75 44 5
-0.595226 21.691 -7.13491 17 26 8
-7.01657 -1.4686 4.12197 67 55 18
1.02058 -14.925 -16.2319 70 84 74
-0.744522 8.745 -9.52727 78 65 29
-7.62106 -11.823 5.65081 69 79 67
1.23791 -18.5095 -33.2723 66 81 66
7.73728 -21.0581 -0.583733 54 45 23
-0.565842 11.2587 -8.08505 24 35 13
5.0015 -15.6881 -5.96761 72 83 73
-2.54086 6.9278 -6.78047 1 20 12
5.4398 -19.9147 -9.03832 171 199 175
0.0177324 10.6901 12.452 33 28 8
3.09771 -13.0264 -8.01508 61 73 63
5.15485 3.52124 14.9122 62 76 65
2.63875 -2.67442 -15.0508 17 49 33
2.32658 14.9852 -15.2735 4 3 2
0.593552 19.2948 21.4464 106 81 20
1.1315 19.8336 -7.42875 62 30 0
9.02894 -5.43831 -3.68424 1 61 43
5.25471 4.23157 14.4427 67 75 66
2.44614 1.82877 -13.5032 61 41 2
-6.11027 -20.249 9.15533 137 162 149
-0.62262 12.8607 -8.38044 64 61 34
-1.44239 20.0424 1.29065 5 18 2
-1.08022 24.5194 -3.31136 18 34 23
0.793419 5.37348 -20.766 73 82 56
0.795723 12.7608 14.3644 68 51 20
4.58659 -19.0711 -41.1487 84 39 5
3.01849 21.8048 31.0648 68 81 73
-9.80071 -18.2746 5.73112 160 193 172
3.44249 10.2116 4.8921 13 38 23
-2.49832 8.57069 -3.80102 1 4 0
4.23254 1.46315 16.5924 63 76 66
1.07226 21.5748 34.1809 64 78 68
2.86033 -21.8368 -44.8494 56 68 56
-0.196751 19.0488 -8.60412 28 21 2
-1.63395 -10.7439 -21.7061 85 93 77
-2.94159 -7.11034 -15.9248 4 65 45
5.73462 -2.5209 0.755516 61 75 67
-0.10585 -16.0319 -21.2915 51 61 55
1.71396 11.002 -4.22941 56 29 0
0.762817 16.8798 -2.44643 119 85 29
4.42867 3.44576 17.6914 63 78 69
-7.86987 0.236412 -2.13093 56 40 8
-5.13845 -22.7491 10.66 104 137 116
2.72463 10.7133 1.74728 8 17 7
8.22496 -1.66798 -6.24414 21 67 56
6.79996 2.61581 2.58982 64 67 51
-6.82684 -19.8294 8.12562 103 124 111
-2.18593 18.2189 31.0569 59 71 60
1.95523 -0.00994349 27.2529 123 142 118
0.685806 15.231 -15.3259 57 47 14
0.275215 19.909 0.278671 59 35 0
-0.958351 11.2737 0.229336 69 29 0
1.16803 14.6336 4.35421 3 18 13
-8.75829 -2.21799 -4.1479 30 91 73
4.64562 -21.298 -8.16044 140 166 147
1.13538 -18.1881 -26.823 55 68 60
7.85373 -21.3427 -0.324394 51 41 15
-8.57512 -7.89045 18.3428 124 130 98
-7.03808 1.10983 -1.77603 55 39 4
0.706779 15.6685 3.07668 23 23 8
-2.27295 18.7825 27.3121 86 92 71
-1.17319 16.698 -0.990149 1 15 0
-0.36026 15.3674 -9.47391 32 40 17
-12.2501 -20.0825 7.84177 116 141 126
4.98756 3.59067 16.9234 63 75 66
5.83089 5.80175 2.14557 32 56 48
-1.28156 11.5171 21.7252 56 62 47
6.88129 -2.09763 -9.85063 0 50 28
7.24641 -22.5309 0.790176 60 64 52
1.69763 23.3669 -11.4867 85 58 20
-7.20536 1.03092 -2.81587 33 29 1
-0.0233498 12.5323 -13.0493 0 25 11
-3.58395 -9.68732 -13.7424 78 95 79
4.59561 1.98746 15.8355 48 62 51
-10.0605 -3.21374 2.95229 69 64 45
-2.11163 -10.5577 -19.2327 74 86 71
5.1285 6.27077 6.75793 10 35 21
1.1879 10.5478 -6.66053 78 56 15
5.78106 -18.0186 -6.10342 80 83 74
3.05753 -14.455 -18.1095 59 65 50
1.21163 -3.31084 -18.8816 90 46 0
4.66585 -22.4984 -48.432 92 90 64
-3.79855 7.58022 2.68175 0 0 1
1.27493 10.028 -6.71962 58 42 7
-0.867516 24.0577 -4.01396 42 45 8
-1.81417 5.27705 -10.3483 58 49 1
-0.912506 9.15203 -8.61325 59 58 25
4.00544 5.4493 18.9453 71 84 73
6.02312 2.38582 7.17612 21 58 41
-0.885178 13.8682 -2.86484 50 43 13
1.40928 22.5147 -12.1087 55 45 21
-1.79414 19.6147 35.7885 60 72 62
-2.62219 16.7522 37.378 49 61 52
4.80438 -19.3338 -29.5901 60 69 56
-1.03827 -4.5348 -17.7897 39 62 27
0.956997 5.17152 -18.5674 1 18 7
0.546539 17.9153 7.77046 6 30 20
0.171648 17.4139 38.6528 68 79 71
7.8698 -13.9037 -5.64852 65 68 55
1.28862 1.72948 19.3012 56 67 58
-4.56733 -2.1864 15.624 65 71 62
-4.73141 6.15409 10.1854 1 36 24
7.76701 -0.711485 -5.06273 2 12 11
-0.218561 5.28848 19.446 55 61 52
-5.95684 2.69073 -4.53417 4 35 20
3.71908 7.55269 -1.69435 12 27 11
4.58971 1.67071 19.6073 67 79 70
-0.802486 13.8665 -0.284302 20 25 4
-8.96278 -13.4459 8.04744 76 89 79
-8.075 -9.402 3.08435 166 197 173
-0.795547 16.6959 5.04774 46 46 25
2.32318 17.1661 -15.7645 0 16 4
4.94884 4.7086 -3.91719 3 25 9
2.96726 -21.258 -46.9322 47 59 50
6.73973 2.85552 4.47253 26 57 44
-0.586819 14.9213 20.2417 86 60 4
-1.38264 -11.5875 -22.6001 78 91 72
5.32563 0.000397682 8.34066 1 38 26
5.09155 6.84561 11.2539 26 57 50
2.27386 13.8104 -19.7418 119 125 103
1.47901 9.57536 -14.4888 2 35 15
3.38451 13.9269 20.2603 93 110 97
-8.5373 -10.8171 19.2287 61 71 60
2.42672 -17.579 -36.8113 76 77 51
-0.824127 2.8642 -13.9402 59 57 36
4.67213 5.57012 17.325 66 82 72
3.9705 10.3238 10.7554 0 20 1
-3.07126 -7.94609 2.81586 60 74 65
-5.51363 4.27026 5.55956 0 37 27
2.70822 -21.3107 -2.75724 50 57 45
0.428185 12.8317 8.52921 57 50 21
3.30858 4.75037 -7.88643 12 46 17
-0.91301 6.34393 -10.7059 78 55 11
8.1581 -10.3714 -2.15654 67 80 69
1.82512 12.5989 7.93001 57 36 0
2.05988 16.1002 31.3777 58 68 59
-1.07536 12.8208 26.4464 51 64 55
2.15347 23.5681 30.068 51 59 54
4.01238 10.1896 11.0563 3 22 4
-4.79999 6.7272 2.55652 9 19 6
-4.90535 -6.55978 5.41898 13 14 19
-0.385365 16.9236 21.8887 107 87 21
2.01131 -15.747 -33.3232 100 94 69
-3.44446 7.96895 2.15964 0 8 0
-7.47772 -4.54582 7.30217 78 67 39
1.68747 12.7861 5.74029 74 43 1
0.102501 10.47 -15.1862 0 5 1
6.08128 -1.86497 -0.497513 3 48 35
-2.28226 -7.46962 -17.969 47 83 76
3.39891 5.21449 20.183 74 86 75
-0.0265274 24.6618 -1.17512 9 6 0
0.384773 18.601 1.07839 59 46 4
-4.87959 0.283806 7.72536 64 75 65
7.8989 -0.656502 -5.31936 1 18 8
6.4069 -0.971971 -9.94254 14 71 42
1.86017 12.6482 24.2727 65 76 66
1.33266 -9.69709 -24.9971 137 73 0
-3.5133 3.36206 -8.84439 21 45 22
7.82587 -16.8845 -7.55001 67 72 58
4.61147 7.21309 5.63528 65 51 18
-1.31341 -11.594 -22.8341 83 97 77
0.103979 0.0921268 16.4822 68 84 74
-9.61262 -15.2569 4.04033 159 196 172
3.18433 10.7709 4.40077 4 30 10
0.441277 9.04528 -19.0052 0 15 1
0.383949 16.4853 3.19288 68 44 8
-3.14924 6.9712 11.6143 8 27 5
-0.0746613 4.69806 -19.7721 28 55 32
-1.20724 7.51962 -8.5272 105 55 0
8.69106 -3.98983 -2.40888 3 39 28
3.68636 19.5673 27.6121 72 88 78
5.2846 -10.1428 -7.46606 156 168 136
1.99458 19.7509 -13.2781 0 12 10
3.37838 -22.5767 -39.2316 56 71 60
-8.66703 -7.98167 8.08586 78 95 84
0.659045 -0.238708 -20.5782 116 95 31
5.04427 3.41513 16.0825 64 76 67
0.451893 3.65089 -20.1198 139 141 95
-0.653316 13.6963 4.40994 24 31 10
0.181885 11.6435 9.34157 62 33 0
0.206493 -0.68205 29.5559 62 68 54
8.65129 -19.3245 -5.98334 65 57 30
6.46948 4.48888 2.90738 3 46 33
-2.40147 18.3433 36.4926 56 66 56
7.17978 -16.6111 -9.18807 143 148 109
1.1489 6.39192 -16.3212 40 32 15
0.701988 13.3736 15.0874 61 58 32
-11.1302 -22.4539 7.06951 135 167 145
-2.66347 17.0487 37.6421 59 72 62
7.75079 -5.34512 -7.4423 0 78 53
0.114067 5.73038 -19.8138 1 4 1
5.27527 -18.9005 -30.5836 64 61 42
-2.90979 -10.3703 -16.3318 76 91 76
7.50412 -0.457039 -3.19127 19 31 18
5.51797 -20.0753 -33.5574 60 60 39
-5.779 -6.02889 19.671 59 71 62
3.4687 10.0602 14.2001 58 81 60
-5.72801 2.33016 5.10738 4 45 32
1.65807 11.1366 -14.747 0 1 2
7.70059 -2.28403 -1.59212 2 25 13
5.63068 5.70288 4.50601 5 34 22
-4.42882 2.86636 12.68 64 72 59
6.48055 -17.3211 -6.34505 78 83 72
-5.64967 4.81208 -2.30449 14 38 23
-5.42138 5.56785 -1.02142 4 14 2
-0.474361 -2.32402 11.6592 69 83 73
-0.755611 24.6664 -6.97783 28 35 16
5.15064 5.4151 13.8075 65 75 65
-0.945595 -6.92636 -21.0994 106 87 36
-0.67131 21.3813 4.05901 40 33 8
-0.347679 13.8603 -11.0314 10 21 12
1.65903 12.0881 -9.13705 0 27 5
8.07308 -12.4842 -5.49551 99 103 78
0.645557 16.5239 -14.0539 76 57 17
-3.28977 4.80403 13.0535 65 73 60
0.810345 15.7856 17.2009 89 63 17
-3.53299 7.90421 1.57433 8 2 3
1.19556 5.42084 21.268 65 75 64
6.30482 -15.3261 -9.19064 158 112 27
2.06059 21.418 -13.6502 32 38 8
2.23932 17.2253 19.1579 121 111 80
-5.73434 2.95599 -4.87773 6 50 33
8.7549 -19.5508 -5.61032 95 84 56
-3.95351 -0.430172 14.6428 77 85 71
3.36801 10.4365 13.9917 19 86 60
-2.86436 8.07769 -2.8188 2 13 2
1.57459 16.5383 17.6239 141 98 21
8.19296 -10.4322 -2.98836 98 110 94
4.30737 1.0172 20.319 71 85 76
1.99944 15.7327 -13.7597 8 6 0
2.60405 -21.585 -40.9275 50 62 52
-1.58243 7.99628 14.4769 1 24 14
4.34408 -15.523 -23.8388 65 67 56
-7.10963 -1.77535 14.7207 64 56 27
-0.613174 1.00013 -15.513 69 73 56
-2.39072 19.4423 28.9722 73 76 62
-0.353333 -4.67568 -20.84 78 60 19
0.593536 22.7018 -4.85138 30 37 36
-3.86905 6.5285 11.6276 5 26 11
-5.4373 -7.58444 19.9649 66 79 72
-0.583366 15.3973 20.8277 93 66 9
-0.363739 6.83698 -16.1396 12 29 20
-1.40922 8.74598 14.4436 0 11 0
-6.76735 -1.05717 14.1914 61 37 3
1.26439 10.1305 -12.1822 3 29 3
2.40252 17.3928 19.5828 112 115 79
0.600403 9.55359 -20.3033 9 17 17
-1.55333 9.46787 18.6197 58 64 56
1.35006 17.5085 -3.98978 23 41 29
2.85698 11.4997 9.44196 15 33 27
1.49706 14.9911 31.6952 58 72 56
-5.25422 6.09099 1.83932 0 12 0
-0.5877 24.0707 -7.46983 1 27 14
-1.386 9.3642 15.7789 79 57 9
-0.672897 12.663 1.868 30 35 15
2.37573 -5.98824 1.99809 64 76 68
-8.04706 -17.5945 7.0666 70 81 74
5.77835 -8.66574 -0.649315 74 90 81
2.06244 16.3849 -15.3362 37 32 8
8.03851 -2.04517 -3.03633 0 20 13
-1.22228 10.3165 7.42371 36 17 2
4.3187 4.67802 -5.91976 30 20 3
-2.45008 -9.3186 -17.8223 93 101 84
0.249626 24.4706 -1.82536 14 22 12
-0.358665 25.3294 -7.91252 54 63 45
4.91215 -9.1303 -7.42911 164 189 163
-1.09153 13.373 -4.1516 1 20 2
-10.7474 -15.4457 7.97456 71 85 73
-0.62846 14.0582 -8.47022 6 36 11
-2.89796 -9.88675 -16.3638 74 83 71
2.94685 11.8722 21.2989 69 81 72
-2.20168 16.0163 26.2765 71 85 72
-3.23496 -4.33517 8.06659 72 88 79
1.91938 12.2336 10.5596 60 55 35
3.85312 1.51253 27.9698 65 75 67
0.289852 -0.166245 29.3001 55 59 47
8.14775 -3.87758 -7.47224 34 72 62
2.22559 2.13111 22.3479 62 65 52
2.7263 5.06588 -9.54034 14 45 31
-3.88095 5.44743 -5.55683 13 30 13
3.60812 -15.759 -21.3297 61 66 54
-0.971283 15.985 -0.379209 33 31 6
-5.72929 -6.8803 18.4976 130 153 132
2.61658 -19.2902 -40.2522 67 77 61
5.65158 -22.0515 0.74279 49 56 49
-1.89425 10.3708 2.41598 43 24 2
4.13377 -3.26509 3.92134 56 69 62
-6.20476 -21.9557 8.58319 129 156 139
-0.509974 11.7678 14.7862 10 14 2
1.01499 -0.852093 14.331 70 86 77
3.70373 19.3979 28.8454 68 80 72
3.1607 8.7028 -3.16976 11 33 18
-1.10677 11.8232 17.8559 87 62 4
4.15948 -16.1186 -23.2391 64 65 49
-12.4552 -22.3329 8.41739 97 127 106
-0.913109 17.111 -4.54451 4 16 2
2.42857 -21.2844 -3.16988 48 56 45
-5.51068 5.18057 -0.409313 2 28 14
-6.06209 -8.42255 20.2629 72 86 80
-2.90493 6.23453 -6.59055 7 22 6
0.511955 13.0363 26.8402 58 70 63
4.01807 -3.69051 3.00471 56 69 62
0.312683 11.1469 12.9841 92 62 29
-10.4941 -20.0888 12.2072 60 71 62
-0.601482 -1.6176 -17.3277 77 88 71
0.483971 17.6185 2.29801 17 30 27
-8.07238 -2.38787 -5.89712 2 72 52
1.58948 14.48 -11.644 57 67 40
-0.827438 15.556 4.65397 9 22 2
4.94502 -16.9741 -28.1084 66 56 31
1.74483 -1.37471 12.0187 63 77 67
1.02652 13.315 10.7823 62 54 35
2.92746 -14.4072 -17.4286 60 70 60
-0.319126 13.6 5.19651 33 49 36
0.962828 -10.9955 -26.77 117 74 12
-5.57537 5.4163 0.199579 5 34 16
-5.70168 1.06765 12.3914 58 61 40
-0.685158 18.3186 5.93026 0 8 0
1.22454 14.9692 -5.83949 34 21 2
3.11955 16.9071 26.9497 151 174 161
-8.43629 -16.0416 5.0053 126 151 135
0.79612 15.4507 8.07487 62 55 28
-4.74903 6.54024 4.0807 28 53 29
-6.55732 1.99611 -2.9069 18 33 19
-2.47094 9.13239 -2.46594 3 10 1
-1.11525 14.832 -1.57869 1 19 4
3.24315 -20.228 -44.6884 65 71 61
-1.41849 12.4682 19.5522 82 71 36
0.581238 14.9431 9.66227 66 28 4
-8.11961 -17.6156 7.54702 68 79 70
3.85697 -20.5272 -30.1154 68 81 72
3.86849 8.55363 2.61211 11 39 28
-4.01564 7.04511 9.97547 1 4 2
-0.28463 20.9879 2.6036 0 15 8
-5.74996 2.86366 5.84172 1 42 29
4.5147 -13.2614 -9.1048 179 180 129
7.13771 0.226624 -3.36186 18 42 37
-2.31798 -0.175407 -13.4962 4 40 18
5.81889 -0.283172 6.73817 10 43 31
0.707878 -17.4996 -24.6147 57 72 65
7.39998 -10.9345 -5.98827 118 105 67
4.6092 5.95399 -3.09703 7 27 7
-7.55051 -18.7941 8.38316 66 72 59
0.298363 16.8924 2.76044 26 24 3
3.42886 10.8478 6.36959 13 45 30
-0.590916 18.6013 7.21495 13 19 1
5.53497 -21.7349 -39.8044 63 64 49
1.3203 19.5659 -11.0835 68 56 38
8.30798 -7.4822 -1.66156 70 81 71
9.28236 -22.8142 -6.76615 115 138 122
-1.29574 19.9096 3.28716 0 8 3
-3.24369 14.9501 35.5123 60 69 59
1.09421 23.2283 31.6445 63 76 66
-6.37767 2.53841 -1.76138 65 103 88
-4.24517 0.00668335 -10.8262 4 41 20
-5.96336 -21.1541 8.84926 121 147 131
-1.597 1.81822 -13.2484 4 44 9
-4.54531 6.8194 5.96549 18 47 33
8.67297 -7.59148 -4.0614 11 79 56
-0.635564 20.9492 -7.30042 3 26 4
-6.43337 -22.4087 8.39993 129 161 138
-0.743111 -0.540913 -16.7366 76 73 44
-1.16294 18.4378 -2.85412 9 27 2
-0.428024 17.2275 -8.26838 0 3 0
2.4988 -20.2182 -40.8518 78 96 82
-1.19859 13.4893 20.4014 88 63 20
-1.41165 10.625 23.3148 57 59 42
2.70186 -21.6636 -38.4358 45 61 52
-2.78463 7.76737 -4.52021 12 47 36
-0.466103 -9.64969 -23.9185 106 86 52
-9.61858 -7.33887 3.88578 113 139 123
-0.683563 11.501 0.0666876 67 41 4
-1.20322 -8.85162 -22.0666 92 83 42
0.10759 -16.3306 -23.3567 51 63 57
0.499275 18.5015 37.3269 69 83 75
2.66045 -21.5296 -42.3076 61 75 64
-8.0611 -1.67153 -5.58607 12 76 62
-2.58144 2.05405 -11.6923 4 74 48
0.633537 13.2548 -15.2106 0 39 14
0.830681 17.8251 -1.63187 10 25 14
1.81776 8.18196 21.3314 69 82 71
0.875593 17.5829 -14.7001 86 63 21
3.58794 11.7193 18.3534 34 63 51
2.14972 2.23545 25.0535 69 70 57
8.93971 -7.29613 -3.35284 3 54 40
-6.64804 1.73748 -1.32529 120 128 115
0.812347 18.7516 -1.14007 3 13 0
-13.3745 -21.3455 10.9514 74 86 80
0.0492172 18.1011 21.6609 120 98 46
-5.166 3.4975 8.24754 65 79 60
-0.891113 13.2731 18.6558 79 59 4
2.96989 -21.1785 -45.94 69 80 66
3.8951 21.3892 28.7345 78 104 88
0.995605 -0.473909 15.1063 71 83 77
-0.810585 15.21 2.48493 38 45 19
2.66617 9.85906 -2.58585 15 14 11
-6.50044 -3.58023 -8.83207 48 105 90
-9.55793 -20.6435 14.118 63 75 67
-3.4478 7.34343 8.42965 16 14 0
-3.07341 -7.50962 -15.752 2 61 42
-7.86227 -4.24692 7.027 77 65 46
-1.74392 5.9798 -9.56113 63 50 0
-6.96885 -3.00611 14.3265 75 85 69
0.390995 23.7396 -4.19981 103 55 12
3.94002 -13.7264 -20.9124 60 69 55
-5.00097 0.971992 -9.23958 3 41 10
6.74323 -17.4253 -9.48721 179 200 166
-5.39364 -8.75719 19.9815 70 87 76
8.33837 -8.48617 -2.10349 62 74 65
3.4098 8.07055 -2.32369 0 17 1
-2.47772 -6.75513 -16.8984 54 91 77
5.63216 -21.814 -44.3182 66 50 17
-8.65135 -0.915798 -1.44116 56 47 18
-2.30881 18.8843 32.6333 61 69 59
-1.92312 13.4943 37.6908 75 87 77
3.4875 -9.08326 -12.4287 39 61 51
-0.310036 18.644 -8.86414 0 9 0
-0.97715 17.8339 -5.02974 11 23 2
5.36281 -20.8541 -35.614 58 69 58
6.67085 1.19555 3.33907 64 74 65
3.85935 -14.1543 -28.7483 78 35 5
8.19846 -8.70338 -4.07624 95 114 103
-2.25694 16.5968 25.8222 102 110 90
1.19843 11.5907 -10.8926 39 35 4
1.4978 10.6943 -5.78442 43 50 29
6.55156 3.66785 2.14718 50 73 60
-1.94495 -9.71159 -19.9871 78 87 63
1.62053 12.9014 -5.4235 12 27 15
5.99969 -0.50692 -10.1577 24 54 45
1.50455 -5.4447 3.63095 64 78 69
-5.44818 5.16999 -2.06702 32 56 42
5.06432 -18.4171 -29.3201 65 59 42
-3.78423 0.349644 -10.8897 58 65 43
6.04455 5.09553 4.37157 0 28 12
-10.2821 -18.9646 9.54435 78 91 80
3.04579 -12.2448 -8.94418 154 179 156
-0.0625458 21.447 -0.595581 33 41 32
-1.06783 10.7976 24.5004 57 68 59
0.56955 16.0726 -13.8753 69 49 14
-2.0844 4.41719 14.5913 65 74 64
9.04537 -22.1299 -0.302376 54 62 53
-1.36639 12.6452 19.9831 53 54 32
0.819237 23.715 -6.38784 6 20 11
3.75813 6.37822 -4.25536 4 28 7
-3.49926 7.93302 3.69977 0 10 10
-8.37268 -10.6102 17.9086 148 137 87
1.21566 18.613 -15.6145 81 50 19
1.35435 -2.28668 10.7607 63 78 67
-0.917465 23.4691 2.46421 58 43 17
-2.94546 2.50191 13.7829 70 75 63
-2.68838 -6.51833 -16.2755 2 57 38
5.39749 0.457313 8.59109 0 44 30
-7.74547 -10.2048 17.7925 152 108 22
3.20325 -18.0278 -23.4215 71 83 72
5.06738 -6.10761 -10.5407 0 86 62
5.35202 -21.8566 -39.4101 57 66 52
2.26818 -0.343102 30.4878 70 86 75
0.220612 2.2941 18.1265 60 71 61
4.91955 -22.7744 -41.2548 57 70 58
3.11556 -20.9577 -2.69654 47 54 39
4.266 -19.3814 -42.6744 86 56 7
0.828903 21.4829 -6.79496 67 38 5
2.84283 -20.7177 -31.6975 60 69 61
-0.0763168 25.5248 -8.23132 52 55 43
-2.68717 0.533211 15.0869 72 72 57
9.6532 -20.0171 -4.45185 74 66 23
6.66406 1.1175 -3.467 0 10 1
-0.10724 -2.67054 -20.5919 130 136 119
-3.44605 7.19809 10.942 0 9 4
1.67575 -17.5707 -34.7024 77 92 71
0.198009 19.9643 37.3841 65 81 72
-1.47679 9.52947 10.4038 0 9 1
-1.04224 9.47609 12.1709 15 15 2
-5.35471 -1.83409 -10.5616 0 64 45
5.69054 5.35699 5.7622 18 40 22
4.77854 2.60495 16.7132 63 73 64
-5.18276 -3.91348 17.1819 63 71 58
3.12104 -19.7403 -42.9797 68 78 59
0.361629 -7.80446 1.61996 65 79 69
-0.32641 -4.62254 7.02531 66 80 71
3.57989 -17.3471 -22.9973 60 68 58
-5.65873 -2.88271 17.6991 65 67 51
-5.33192 2.4179 -7.13375 3 38 20
-2.25715 22.0622 28.9087 58 69 58
-5.08997 2.5465 12.2664 56 65 49
1.23412 14.4686 -3.9352 0 18 3
-2.35773 -8.5405 -17.9901 80 85 63
5.23879 4.63223 12.9361 43 64 55
6.46951 3.93794 4.9539 18 39 27
-4.87405 6.34557 6.47201 2 20 0
-6.80594 -9.96292 18.1173 152 144 78
-3.22503 -2.85429 11.5621 71 85 74
2.36907 0.809274 -14.401 117 99 58
-1.5479 11.5694 20.0381 54 60 37
-1.61417 15.5223 24.5975 94 105 90
-0.799965 3.2195 -13.3412 67 74 53
8.19127 -18.7218 -6.47895 63 38 3
3.078 -11.3665 -14.6925 65 70 56
3.78195 -10.3213 -1.36787 64 79 70
2.19705 2.34595 21.7349 60 69 59
-7.06149 -0.308257 2.42712 67 53 25
-4.68259 2.70691 -7.89612 13 38 6
1.46004 9.57362 -14.1413 2 8 1
4.31698 -11.0407 -8.4413 174 181 139
-4.59478 6.94301 1.13097 1 2 0
-0.431114 23.2645 2.34569 23 37 27
-8.07621 -15.7946 5.37946 77 96 84
1.55993 13.112 2.90311 59 53 28
0.99942 16.2661 7.0154 2 19 13
-0.66906 11.9318 -0.310387 48 45 26
1.46905 22.9704 24.5758 116 116 89
3.62045 20.3561 28.0048 67 82 71
2.14336 -13.2209 -14.7345 58 69 59
-1.13327 10.8811 5.2496 68 44 6
-2.81065 8.43738 1.25972 8 18 8
1.92823 -6.11224 2.272 61 75 66
4.08797 -7.41744 -12.0541 2 44 33
0.782478 0.220552 -20.0967 71 46 1
2.62431 -22.4328 -1.97443 46 55 51
-3.34533 7.4111 -1.0382 42 27 4
5.1307 7.06045 2.70764 8 36 18
1.06183 13.8436 -19.314 0 8 1
6.53465 2.17352 5.18037 1 49 38
7.5261 -0.146389 -5.28277 5 24 5
-1.16029 21.0424 -1.60965 0 2 0
-2.81894 7.19338 -6.15958 23 68 39
2.09828 8.99222 21.0554 69 82 71
