ply
format ascii 1.0
comment Created by Open3D
element vertex 1404
property double x
property double y
property double z
property uchar red
property uchar green
property uchar blue
end_header
-1.37375 14.8205 4.73922 66 77 46
-0.167314 10.0002 9.81059 24 24 30
-11.0154 -1.87611 -10.5389 79 78 9
0.947761 8.49587 6.70436 21 19 30
0.156071 9.43209 1.87833 10 11 22
-7.33087 11.4687 4.08562 15 17 25
6.13681 -5.8007 -12.8285 26 42 28
1.25477 -3.58514 11.58 70 80 8
-12.6134 -5.83036 -5.7335 74 83 45
-8.61445 -0.86882 11.7224 81 94 60
-1.41724 11.2266 -7.83762 20 25 25
-5.61939 14.1246 -4.78661 7 5 22
-11.9042 -2.45456 -10.5095 76 79 33
-11.9047 0.355206 -0.658522 67 78 22
-11.698 1.85157 7.0755 66 76 52
-12.5059 -6.96627 -0.324964 70 80 62
0.991119 7.46968 -11.3174 20 26 30
-11.6171 -1.08795 -10.4202 77 79 19
1.42188 7.12404 -11.0586 11 6 12
1.20052 8.20787 3.7398 25 25 34
-9.63981 -10.6347 12.2518 85 98 45
7.61747 -5.18883 3.61853 25 36 41
0.0255241 9.45167 12.089 21 31 35
5.2856 -3.5495 1.24558 75 86 57
3.99141 -5.9895 -6.1307 26 43 41
-2.43586 11.3723 -11.9647 17 17 17
0.473013 -8.27868 -14.0579 56 62 9
1.93612 6.96311 -9.82708 7 8 13
3.4398 -5.2781 -8.62749 47 60 47
-9.80921 8.74139 -5.53419 1 0 15
-5.9982 7.23248 -10.9103 71 79 32
-10.2043 8.06889 8.68069 21 22 25
6.1524 -4.67625 4.4756 31 42 34
3.07835 -4.65471 -9.20141 87 103 60
7.51887 -4.77419 7.02069 31 45 25
5.35887 -5.92531 -2.10116 23 40 41
8.00273 -5.56267 0.424886 27 50 25
-3.27106 13.5901 1.43589 14 16 25
2.31655 -4.90332 -11.235 22 34 24
2.70224 -4.62945 -2.87637 54 71 51
4.34039 -5.71621 -12.3312 8 30 24
-12.2525 -1.95705 -4.22674 73 82 37
-5.43528 2.60361 -11.2258 75 79 9
9.9076 -11.4254 6.50409 48 66 35
2.62573 -7.08744 11.7302 10 28 17
3.23087 2.37794 1.27983 66 57 10
-2.11391 -4.36012 11.7657 65 78 44
-1.49165 11.3463 -5.65715 13 11 18
1.76575 -11.3776 -14.0183 29 38 17
-0.692496 -2.81285 11.6481 61 76 11
-1.95493 11.9384 9.9394 20 22 33
3.04934 2.89886 5.81375 67 58 11
0.137857 -10.2454 11.9324 67 81 25
-7.67044 11.1092 -1.93178 1 2 16
-11.917 -7.63474 11.2616 71 82 58
-0.170639 10.0347 -1.5545 9 7 19
-8.53078 10.0866 0.490152 2 4 18
7.37522 -5.63868 -10.4867 15 34 27
-0.40297 11.7731 4.74547 35 40 42
-6.12265 12.6844 -1.13263 2 5 20
2.74636 -5.49818 -12.4239 20 31 19
-11.989 0.0639496 0.940056 67 77 33
2.53793 -5.04587 -10.9728 22 37 21
-1.02912 11.0988 10.0523 28 31 36
-11.3467 6.83875 -2.97633 12 11 21
-2.63301 12.5281 -7.04841 15 10 23
-1.57483 11.4422 -2.4388 8 4 15
1.21166 8.00274 -2.01914 20 21 30
8.40318 -10.8712 -6.54388 34 47 50
-10.185 -9.71387 -11.7489 76 85 13
6.53255 -0.743324 6.49185 60 40 4
-1.45852 10.9956 -10.8725 20 26 31
0.238708 8.99816 9.4233 17 16 30
0.725277 -2.0623 11.5644 68 78 10
-12.1485 -2.41706 1.59413 64 75 35
-4.95694 14.418 -8.08838 25 32 39
-8.24162 10.6485 5.85274 1 0 7
3.27905 5.57525 -4.87619 13 16 22
1.16568 8.15652 -3.66924 24 30 34
-3.83972 14.0832 -1.84124 1 1 10
-12.268 5.6987 -2.80896 8 9 21
0.523438 5.17697 -11.484 55 64 26
-12.1539 -2.81937 1.08239 66 76 31
-0.518785 1.96214 11.4413 63 74 33
-9.99183 8.17862 -3.00025 0 1 10
-0.622299 -10.0288 -13.9926 72 82 15
-12.3824 -4.62246 -1.24195 66 75 24
2.13085 2.40152 -10.0845 70 81 36
1.0973 8.165 -6.56469 26 30 32
-4.19679 14.2189 4.08474 23 27 32
-11.7183 1.16578 7.2688 68 76 55
-7.27157 11.7467 3.7856 13 18 23
-5.03965 14.4193 -7.54005 23 26 35
8.05373 -10.9921 -9.95789 31 45 30
-0.153887 1.97922 11.3903 62 77 13
5.98343 -4.03461 6.15192 45 58 36
-12.3035 -2.37442 -5.96928 75 84 28
-3.49551 13.8139 1.98961 0 0 13
-1.09315 11.1099 -0.218438 10 10 20
2.36198 0.6008 -5.59256 69 84 42
-0.965328 10.5202 -5.18122 1 5 15
-0.569086 15.5563 6.46666 70 84 36
-8.45634 -10.4749 -13.7777 70 77 11
6.92352 -7.47495 -6.8681 30 39 43
-9.67447 8.34209 10.1866 7 5 22
1.83993 -3.12579 -10.7271 69 77 35
7.96144 -6.54865 -8.69651 29 43 47
-13.1238 -11.1715 -6.5547 64 73 60
1.71031 5.56547 -12.0638 48 56 8
5.67015 -6.38196 -7.43765 32 43 46
0.695291 8.81305 5.30974 4 2 17
3.76833 -5.86778 -2.4092 49 60 44
0.102407 10.4271 7.43843 68 79 51
2.43648 2.24994 10.7375 72 85 44
-1.15154 11.0098 -5.00764 15 24 29
-10.6185 7.25628 10.8238 7 2 20
-12.6202 -5.52312 -9.95586 78 85 55
-2.42958 12.1603 -9.3622 9 9 19
6.4977 -7.12406 -5.73981 35 45 50
-10.9513 7.16685 -0.417893 0 3 14
4.60914 -5.67031 10.7932 15 39 14
6.58775 -6.99811 11.3927 20 40 19
-0.046257 9.4672 -5.64363 24 29 24
-10.1433 7.19478 12.3402 23 27 35
-10.96 7.16798 -0.239517 2 8 21
-10.5269 -9.60388 12.2497 87 102 68
-9.8003 8.34556 8.56691 6 4 17
5.88644 -6.27679 -7.86668 24 56 67
-4.12644 16.5747 7.39765 55 66 43
2.36062 0.847183 10.6359 79 91 51
1.93641 7.26878 1.5757 2 4 21
5.70583 0.0375404 1.42933 63 49 9
-0.997644 4.74094 11.3723 62 74 31
1.65473 0.99003 11.3806 65 79 19
5.59352 -6.22029 -6.55567 29 45 42
5.53415 -6.12413 -3.20246 25 41 36
-12.9713 -8.58817 -9.233 82 90 42
-3.2097 12.7442 -10.83 18 18 26
-6.17489 13.271 -5.94329 14 16 31
-6.8091 -5.73061 -13.516 73 81 28
-12.5112 -5.13634 -7.97933 78 85 42
2.94956 -5.16819 -12.1214 34 45 24
-2.79202 12.3687 -11.2841 12 10 18
-9.74234 8.51097 -1.78397 11 15 24
2.51532 0.6609 -3.63191 68 80 44
-12.2408 -2.44369 -10.3591 75 79 36
9.2352 -5.57929 8.2305 36 49 39
-8.82732 -8.90793 12.1829 89 100 49
-11.9787 5.75942 -7.7199 5 5 24
-11.8491 -6.07697 11.0915 69 80 37
-2.64465 12.5317 -4.92005 14 18 21
-2.69997 7.63445 -11.016 65 75 36
-10.9534 7.11215 -2.97849 10 13 21
-2.52482 -3.60149 -13.5471 73 81 42
-2.11465 12.2703 10.1024 26 31 36
3.18971 5.77487 1.55768 2 1 17
-2.76361 0.976686 -13.2951 13 13 5
6.30946 -0.582436 4.77214 59 39 4
4.32288 -5.21386 -12.8843 38 55 33
8.80214 -4.80412 4.79356 32 53 25
-2.11794 6.88486 -11.0483 65 74 32
-7.21834 11.9516 5.2646 22 27 32
-12.5947 5.44983 2.0607 23 24 28
6.33496 -6.80603 -4.41682 38 47 58
1.73007 0.169201 -10.7472 63 74 29
-3.77932 9.01646 11.4102 67 79 51
-0.905891 0.834526 11.548 62 76 36
-2.10708 12.3614 10.7559 6 7 16
-3.03646 15.8648 6.0491 56 70 34
2.86902 -6.41026 -13.8107 18 38 30
-6.6009 12.47 -6.37794 10 14 26
0.953642 8.06894 -8.94618 22 25 22
-11.3884 1.10901 -10.4981 78 80 50
-9.26644 0.0597343 -10.8345 81 80 11
9.65024 -8.03297 1.26763 38 52 29
8.79085 -4.43868 5.79735 49 64 36
-8.5357 10.0866 -5.47294 2 9 24
-3.22446 12.936 -9.00344 5 13 21
1.31913 7.67119 11.1652 11 7 26
2.50716 6.00089 -9.45662 13 14 15
-9.32676 9.56949 -7.94843 7 8 23
-6.03709 13.4011 5.56691 8 7 24
-11.8119 6.26584 -3.7877 17 21 24
6.81934 -4.89927 2.28476 37 53 26
-6.65104 -5.08247 -13.427 76 81 13
3.22752 4.82402 -5.04763 42 52 36
1.94361 -4.40504 -5.80341 39 42 41
2.43882 -7.42422 11.8165 37 50 21
3.44087 5.72221 5.83322 6 9 23
0.198932 -0.892181 -10.8281 66 78 32
-11.7059 -3.81588 11.1558 70 79 45
-9.38009 8.64392 -11.8579 14 12 24
-10.9082 7.17963 -1.2266 8 12 20
5.95539 -4.42468 5.63063 30 37 22
-8.32944 10.285 2.21943 9 14 24
-2.37116 2.70244 -10.801 70 76 14
-3.39179 13.1396 -11.0307 19 26 29
1.55673 1.72972 -11.0905 61 72 31
-7.75268 11.1254 -3.30446 4 1 14
-5.75626 13.7148 6.73825 8 20 26
-7.69312 8.0548 -11.1178 52 55 9
2.59424 3.31956 -1.24207 69 79 37
1.35923 7.68036 0.196383 6 14 23
4.40705 -9.64999 11.8023 58 72 19
-12.32 -7.0409 5.1407 74 84 57
-12.2492 -2.98605 -1.23404 67 78 35
2.62068 -1.7526 -2.30937 67 76 35
2.6404 3.7715 1.84003 66 78 49
-3.70649 16.6307 7.93762 60 68 44
2.61311 0.992403 -0.131791 71 81 46
-11.8637 1.51326 3.52966 66 75 42
3.7156 -3.90323 -1.6079 63 77 44
-5.43833 14.1777 -9.87266 15 12 26
-0.602104 -0.688988 -13.2768 17 20 32
-2.71789 6.09082 -11.0054 68 77 30
2.33747 -0.586529 10.5253 82 99 43
-3.86862 6.77939 11.4817 70 81 34
-10.4392 -9.70762 -10.8186 87 92 13
-12.1855 -3.85274 3.27434 67 77 30
5.4534 0.269459 3.12023 61 41 5
-4.212 14.2627 -6.86284 5 1 21
-12.6556 -6.86224 -3.37626 70 79 41
-11.6988 2.22412 5.89985 64 74 36
-2.85638 14.9995 8.35382 59 72 23
1.15855 -1.31619 -10.7229 69 78 42
8.88229 -5.3172 -1.40906 49 72 41
6.3988 -4.81533 4.50926 30 40 34
2.19238 -2.18732 11.2877 71 82 48
-10.3167 8.16313 -5.52047 3 2 19
5.42448 -5.87402 -7.94266 9 41 44
-6.30403 -4.11456 -13.4746 73 79 30
-7.73367 11.1773 7.04619 1 3 15
0.1382 9.36607 1.58153 3 6 16
-0.504311 15.438 6.61032 71 85 38
-5.64465 14.0012 10.6995 1 3 14
-12.234 5.73852 6.86709 27 24 34
-2.82471 13.3137 8.97619 50 59 37
-12.0864 5.83259 -8.41041 5 6 22
-7.74141 11.0028 -0.210426 1 1 12
10.1245 -10.1513 4.70795 40 57 34
-4.9519 -10.4401 12.2051 75 89 40
-3.04463 13.3139 10.617 22 25 33
-8.65055 0.276367 -11.1199 77 79 9
-3.07454 12.8204 -2.23274 8 8 22
-3.67141 13.6996 -7.74507 6 8 15
0.331585 0.0556908 -10.7544 68 82 38
-9.39796 -6.28207 -12.4274 80 87 30
-6.78711 -7.77732 12.0244 81 94 55
-11.5416 6.42885 8.47915 7 4 15
-1.33559 2.68602 -11.0735 69 77 30
-2.85842 12.5647 -9.28586 3 3 16
2.25175 0.584984 -8.1614 59 72 34
7.09031 -5.88185 -8.65204 26 46 49
1.36896 7.69472 11.4698 15 11 22
9.09008 -8.33974 9.44295 32 49 34
-12.9766 -9.52796 -4.9064 66 78 68
9.75838 -8.93766 0.665052 35 51 31
-12.2105 -1.81138 -8.73355 79 87 41
-12.0794 -4.38808 6.65446 70 81 27
-3.4554 13.7572 2.22967 1 1 14
-12.403 -4.28084 -2.64374 68 79 28
-11.0475 7.16343 7.26547 4 2 16
8.72743 -4.4789 6.15607 35 53 14
-11.3415 6.76768 10.3287 34 33 26
-3.92809 13.9417 -11.0662 6 3 21
-5.45267 -1.48469 11.682 74 86 55
0.341911 8.93741 6.49177 8 11 25
1.22532 7.63711 -4.76667 8 12 23
-7.77215 11.1802 8.51024 7 2 11
7.00568 -7.29806 11.5494 33 49 31
7.82032 -8.46988 -7.77453 21 42 49
-2.3028 16.335 7.52611 61 73 46
8.08243 -5.62754 0.715263 15 38 15
3.06194 5.92992 5.34332 3 3 13
-9.85389 -0.99292 -11.9588 50 51 27
-8.50577 10.0464 3.41396 2 3 17
0.31597 8.66458 -8.47583 8 6 16
1.70216 7.50055 11.3765 14 12 21
-5.29005 12.6137 -12.0382 10 14 24
5.67458 -4.4568 4.65636 49 60 36
-6.33623 1.71161 -11.7557 56 55 14
0.0216045 9.65691 -2.74719 19 20 27
5.9652 -5.47131 -8.54507 37 55 56
-3.37332 13.3795 -9.55146 27 28 31
0.200672 9.26494 2.39337 14 20 31
9.44923 -8.98771 8.36119 50 65 42
1.27978 7.67025 -0.579865 0 3 22
8.71999 -9.86484 -4.62427 42 51 53
0.953074 0.651402 -10.9016 66 76 37
-8.11554 10.854 3.64344 10 10 24
-12.8137 5.00386 -1.3696 23 25 29
-12.605 5.51212 -1.19787 17 16 24
-9.2065 -7.74904 -13.5076 74 80 14
8.31587 -5.28136 2.42574 15 32 11
-1.76368 -5.60548 11.8341 63 75 32
-1.51557 15.6906 4.75934 64 76 54
-1.57718 11.0776 -11.4083 22 18 30
2.63719 -3.79167 -3.42416 27 31 16
3.25888 4.79934 -2.78988 48 58 38
2.36296 6.7256 7.76502 17 25 32
-4.04914 14.5768 9.35458 20 21 30
-12.3154 -8.34706 7.65467 76 90 39
-12.8773 -8.81685 -3.60512 63 74 59
9.92453 -5.52988 2.22304 40 48 30
3.3683 0.725327 0.715372 83 90 49
-8.95427 2.64816 -10.7275 78 78 20
-6.00959 13.0859 -0.562969 12 20 28
6.99488 -5.63797 -11.8597 38 50 36
2.75338 -5.68965 -5.6921 10 18 15
0.238863 9.35752 3.11667 14 15 26
-12.6501 -6.01974 -7.23649 76 86 34
-3.27078 0.911366 -14.4282 43 34 29
-8.36417 10.4513 4.7096 21 26 31
-2.46025 12.3294 12.4859 22 25 27
-10.554 5.53592 -11.337 47 46 4
1.98277 -3.76019 -10.6221 62 72 32
-0.758842 15.4762 4.97285 75 83 54
-10.0268 7.03287 12.5297 9 13 24
-1.85694 -3.26703 -13.643 73 78 42
1.30418 7.54356 -6.22671 16 18 25
-9.09177 6.43218 -10.8992 56 57 12
-12.2725 -1.98748 -4.85356 72 82 39
-0.31875 13.6962 6.66963 74 87 45
-4.19819 -7.86492 -13.6014 74 81 42
-9.06772 9.31523 11.9305 33 33 32
2.60619 1.96562 -0.550857 69 81 48
8.15812 -9.29934 11.4922 22 40 22
-6.13507 13.234 8.47793 3 3 21
2.59774 3.49098 -0.0320034 66 75 48
-5.13658 13.0874 -12.1367 7 8 19
-9.07961 9.5237 10.6713 12 11 26
-1.05629 11.0351 -0.3689 12 13 22
-2.57641 9.01352 -11.3621 52 64 27
-9.39491 -0.575268 -13.6883 31 25 17
-3.0657 12.4601 -11.5927 6 8 20
-11.3254 -2.51746 11.5835 78 92 70
-12.6171 -11.3913 6.18712 71 82 63
6.23014 -0.405819 8.8791 64 56 9
6.40331 -0.563816 7.69106 64 37 8
2.48255 3.29808 9.3254 74 83 38
4.62951 -6.15891 -7.03415 29 45 45
10.0955 -9.98148 5.26155 45 62 42
-4.54669 14.5092 3.27285 9 12 27
5.81868 -7.87741 -14.0439 45 57 32
-11.5827 6.68464 -4.19487 25 21 32
-1.95034 -6.11777 -13.7832 71 80 27
-11.3665 7.03441 4.42349 8 6 17
-10.8778 7.16984 -2.83978 10 14 21
-2.73694 16.2205 5.54129 60 74 58
2.60731 -3.28317 -3.12008 50 62 31
-10.7608 5.11645 -11.1299 55 54 4
9.2129 -8.48415 7.33038 37 51 30
-0.0593379 -8.23779 11.8689 64 80 9
-8.47069 10.1513 -9.50272 20 34 39
2.74816 3.2 4.76449 68 70 44
2.09371 -8.61871 11.8226 61 76 12
7.16606 -6.13735 -11.6167 18 33 27
-11.9164 -0.269272 4.37206 66 75 48
-6.32245 12.8283 11.0954 4 2 10
-0.444807 0.613972 11.5465 63 75 28
1.79615 7.39806 1.27639 4 0 20
-3.32409 5.32467 -11.0059 72 80 22
4.63069 -4.75105 -1.16242 15 29 27
-3.44361 13.5615 -9.09921 11 13 20
9.50956 -7.35493 -3.06621 29 39 44
-3.01083 -10.9292 12.1976 61 74 39
6.46792 -0.853226 3.44424 56 40 5
-6.18605 13.0158 7.03754 2 7 17
-4.4968 15.1811 7.99094 9 13 22
4.76189 -6.1233 -3.89347 31 42 43
-10.366 7.38007 11.8163 8 3 25
-12.1394 -8.00421 8.56673 72 84 47
5.30478 0.241207 2.15332 62 44 8
1.91914 0.462336 -10.6113 64 76 33
0.628908 -1.7645 11.524 70 82 16
-12.7148 -6.64074 -7.16396 78 85 40
1.15828 8.0367 -4.84188 22 31 28
-6.37601 9.78698 -11.2468 51 58 16
-4.54506 14.6194 10.0078 23 30 33
-7.36098 11.5779 9.32986 3 3 22
5.67927 -4.9059 -9.32663 25 45 32
-9.73234 8.62804 -1.20311 11 11 19
1.05203 7.35371 -10.3996 10 15 17
2.55039 6.40109 6.40118 12 16 27
5.25511 0.677595 7.45775 60 53 6
-11.878 6.08807 1.43584 0 0 10
-1.71699 11.4412 -4.26369 3 11 22
-5.48018 2.55554 -12.3973 37 37 29
-12.1443 5.77827 7.9257 14 13 20
6.37015 -6.80429 -13.2111 28 42 29
-2.90929 11.301 -12.0997 29 35 27
-12.471 -3.76126 -5.30715 73 83 43
-12.2137 -4.08576 3.17698 66 75 36
-6.4595 12.7346 10.8109 2 1 16
-0.148094 12.7974 7.40934 75 88 38
-3.59278 13.9391 -3.13772 8 9 19
0.292508 8.72341 -7.7076 5 3 13
-12.0497 -0.761459 1.25984 66 76 23
9.89719 -9.28562 2.26562 39 56 31
2.38355 -0.349716 -7.11499 45 50 27
-9.17469 9.45477 -11.7864 18 13 33
6.31208 -5.20927 -8.99461 25 42 56
-10.1774 8.10077 4.48756 15 10 25
-8.55811 9.88693 1.61431 3 6 17
-5.49892 6.2582 11.5401 73 85 40
-3.93283 14.6203 9.04562 30 33 37
5.12643 -6.19257 -6.87626 29 45 43
-1.66136 11.4662 2.9901 10 14 24
-5.60153 -6.58402 -13.4944 76 81 3
-2.22433 12.2796 -7.31795 25 30 31
-12.0013 -8.3093 -10.4159 80 79 34
-3.91425 -10.9224 12.195 68 81 38
5.4679 -4.7733 -10.6328 43 61 42
-5.20367 -7.33778 -13.5235 73 82 10
-0.567957 10.2132 -4.42386 7 6 17
-2.83904 13.09 10.7577 11 11 27
-4.53931 16.0538 6.61734 53 65 44
6.58466 -5.68336 -8.65902 32 53 55
-2.14626 3.11635 11.5174 66 78 45
-9.35706 -7.06148 -11.8923 82 89 28
-6.52799 3.87484 -10.883 74 79 1
6.32571 -6.27286 -3.63454 26 40 40
-1.13154 15.3201 8.28585 63 76 8
-6.96096 -9.14295 12.086 83 96 40
-7.74976 11.0577 -8.38878 10 6 27
-1.15062 10.9091 12.3222 29 38 44
-6.17065 12.9387 10.5803 3 2 19
-4.50041 -3.65073 -13.4314 77 83 13
-9.56852 8.81924 0.989136 11 15 24
1.49519 7.08072 12.4964 6 5 18
1.24069 7.83003 -3.7763 13 23 31
-1.62059 15.8291 8.28749 65 77 35
2.09708 -2.98371 -9.95024 65 80 50
4.87259 -5.17586 -1.28573 20 34 26
-3.09658 12.762 -9.17462 1 4 17
3.57296 -10.0478 -14.0549 32 44 26
2.26801 -3.91827 -6.76316 11 24 20
-5.6852 12.6506 12.5268 17 20 29
-12.6227 -6.21206 -4.52251 73 81 42
-1.33699 11.0049 -8.63829 23 28 27
9.6322 -5.30427 -1.75147 33 42 25
-6.06191 -3.58725 -13.488 74 81 24
-11.9415 5.96986 7.01845 9 7 16
-11.9713 5.78583 -3.233 0 0 9
-12.4502 -10.1346 6.87787 77 89 46
-7.87337 10.9861 -8.22985 8 5 24
-12.5608 -9.76048 5.5686 76 89 72
5.6692 -5.80587 -11.3913 10 29 25
9.98106 -8.94734 -0.705855 32 49 29
-3.85091 -2.51432 -13.4984 75 80 13
9.13896 -11.7771 -4.32682 37 51 49
-1.97786 -6.37874 11.8147 65 80 27
2.5635 5.9144 -9.12619 7 6 10
-9.62264 8.57016 5.01973 5 6 19
2.56182 -0.799942 -3.14984 56 63 31
-7.35707 11.6511 -11.9203 28 28 30
8.76977 -5.13236 10.6493 52 61 38
-5.80336 13.5195 1.51148 17 20 25
0.211504 9.11586 -0.837061 3 2 17
10.1977 -5.99024 -1.18401 29 36 24
-0.08711 -3.3311 -10.6412 69 83 36
-9.48023 -2.44411 -10.4413 79 73 9
10.0987 -10.0542 5.02106 37 54 36
-4.16352 -7.0979 -13.581 72 82 49
-4.16675 4.1376 -10.9915 73 80 42
0.180457 9.13985 7.70534 23 23 33
9.86889 -6.09746 0.505321 27 37 32
-6.18882 13.4905 -6.76144 14 19 33
-5.04119 12.2396 -11.8955 32 37 22
-9.96521 8.32503 -0.561924 0 0 12
-7.24518 2.29438 11.6763 75 88 44
-10.6345 4.20438 -10.5894 61 59 16
-8.76223 9.81479 -3.57858 5 0 21
-12.0178 -3.82669 7.60171 70 81 41
-12.196 -1.02311 -5.05573 74 84 35
7.99534 -6.03428 -9.47724 25 40 45
1.29385 7.9826 -2.38048 15 13 21
-7.7478 1.84063 11.6623 77 90 43
-12.5618 -6.29468 -3.46979 68 80 38
-10.6839 7.26808 10.6287 6 3 16
-10.7037 7.7004 -11.2652 12 12 33
-3.19747 13.474 -4.94617 26 24 30
2.65609 3.98521 0.486465 63 75 53
-12.5333 -9.23425 3.71383 72 84 65
-8.55581 9.99621 -3.50092 8 4 24
-1.82253 3.19022 11.4945 66 77 48
6.56984 -6.13514 -1.30987 38 57 41
-11.2459 6.99323 0.324308 7 7 19
-7.21306 11.5624 12.3189 21 19 21
-12.4351 -8.20908 3.58756 70 84 32
-10.9435 6.82869 12.1004 33 43 41
-8.693 10.0084 -7.8306 11 17 30
2.17149 -5.56229 11.4611 64 75 16
-4.23532 10.0115 -11.0229 60 71 15
-1.87681 3.66861 -10.8007 74 82 0
-5.07045 14.3286 1.56679 21 26 35
-7.66402 -12.0275 12.3299 36 36 9
-9.55493 9.11824 -11.1685 12 18 35
-10.6416 7.61299 3.67904 26 24 33
0.199888 9.55635 2.89358 15 22 31
-7.13954 2.86747 11.664 75 88 41
2.60685 3.42252 -0.987605 67 78 38
8.9275 -5.13678 7.98681 29 44 24
-11.3334 -3.46022 11.7021 79 92 71
-10.2871 8.09712 -0.222524 6 3 18
-11.5759 6.64713 5.85164 27 26 33
-2.38104 12.388 -7.70486 18 19 23
-5.40395 -2.8603 -13.4746 73 79 34
-12.2812 -5.10297 -10.2611 78 81 29
-10.4611 8.0299 -9.21873 5 5 24
-10.8512 7.61094 -8.02694 17 21 28
-2.56445 -6.4665 11.8839 63 75 27
-6.25608 12.6588 -4.69316 11 16 24
9.68596 -11.6451 -1.45371 41 57 54
2.65705 6.18356 7.22139 3 2 16
2.44695 3.85343 -5.01592 69 82 42
-2.82421 12.6725 -3.16188 4 4 16
-5.79865 13.7609 7.86341 8 2 17
2.42649 3.69634 10.1261 78 89 44
5.34037 -3.96851 4.04725 11 11 10
8.1157 -11.8913 -10.03 38 47 32
-10.7504 7.61783 -1.43893 27 26 35
-1.86946 0.627111 -12.1866 12 9 11
-0.280554 13.6938 8.06637 65 79 33
6.61372 -4.95759 3.97828 22 48 46
-7.36438 11.5285 -4.58235 12 19 32
-8.33671 6.46706 -10.7297 67 72 25
8.11554 -5.34559 1.94568 47 58 39
-9.37633 9.25282 3.89912 16 16 26
-8.47202 0.803276 -10.8593 78 76 8
-2.63574 4.57606 11.5251 66 78 41
-2.1955 -5.41852 -13.5827 72 83 43
-9.67688 5.54275 -10.7353 63 65 10
-10.6405 -6.29315 11.9343 83 98 69
-0.151297 -1.92211 11.6157 61 73 17
1.22049 7.91743 6.00322 10 17 27
-12.4116 -10.7 9.2398 78 89 77
-2.8647 15.6405 7.12066 64 73 25
1.54062 2.40145 11.3284 65 79 16
0.122137 10.4726 7.84789 65 79 58
-9.4113 9.34982 -1.8574 8 9 22
-11.7064 1.55725 6.67866 67 78 39
0.659527 8.45333 -8.34488 17 15 20
-0.983612 6.36065 -11.2056 60 71 18
-1.97398 12.0316 4.37333 61 72 45
-1.01027 -0.560291 -13.7546 16 18 25
-11.6964 2.68478 5.42476 64 74 40
1.88154 -6.00461 11.6416 58 68 38
-4.77831 2.7179 -12.7206 43 41 31
5.16098 -4.94355 0.0567474 9 28 30
0.357313 2.10278 -11.0825 69 77 22
-12.4164 -4.27194 -3.5318 69 79 31
7.58433 -5.87242 -10.5708 20 34 23
1.19451 5.97896 -12.0341 53 62 18
2.26898 6.53879 -5.60608 22 25 29
-8.22695 10.7053 1.18459 17 19 29
2.77496 -4.78231 -10.6067 24 33 18
-2.538 15.7968 4.91216 65 78 47
-12.4975 -6.37411 -1.46262 64 76 35
3.85926 -3.23234 1.05625 78 91 45
-0.289873 9.84923 -7.1502 18 20 21
-12.2047 5.70786 -4.99796 7 3 20
-0.349091 2.0271 -10.9943 70 78 33
7.92421 -11.6912 -10.3965 49 63 37
8.41644 -7.86976 11.3621 45 64 41
-9.24007 9.44317 4.75716 2 2 21
3.53181 5.15943 3.26851 30 33 41
-10.4116 8.11381 -5.82444 5 3 23
3.39101 -4.74134 -9.25249 66 82 43
3.33431 5.56449 -4.21098 18 21 22
1.03366 8.60708 2.67093 23 21 34
-6.10788 13.2366 5.0313 9 7 21
-10.1505 8.19304 -1.98837 5 3 19
-7.50941 1.82141 -10.9628 77 75 14
-8.51785 10.2443 -4.89484 6 10 23
-7.3395 9.31843 -11.6547 23 19 15
-10.8482 7.40685 -4.41281 26 27 38
-8.89868 -0.122917 -11.7562 75 78 17
4.85514 -6.10608 -5.84096 26 36 43
-11.672 1.48544 7.57783 67 77 51
1.54894 7.56825 8.81724 8 7 28
-12.6743 -6.30978 -7.14287 76 86 24
-4.00193 4.11555 -10.991 73 80 46
7.12704 -7.91537 -7.67509 35 50 57
-3.15592 -2.92566 -13.4777 77 84 15
-8.02728 10.8828 -1.26097 0 0 15
-12.2708 -2.5308 -3.99084 71 81 36
-6.28987 12.6374 -4.21763 11 15 28
-9.09436 9.5687 -0.188204 2 1 13
4.18496 -4.22417 -1.73656 38 52 34
-12.3221 5.67561 4.78036 17 16 26
-9.38473 -5.51577 -11.35 84 90 17
-4.83088 14.1692 -11.6125 49 49 49
3.4912 5.6106 6.38656 25 27 35
-2.23214 -5.14973 11.8437 68 82 31
3.42007 2.45885 6.367 59 47 5
10.1067 -8.71723 5.06385 52 66 48
5.03678 -4.50347 9.43792 43 52 36
-7.24862 11.7778 4.58245 13 16 27
-11.9643 -0.0797997 3.00826 63 74 39
-4.12143 -4.9103 11.9009 71 83 38
2.52988 -4.95251 -7.36065 37 44 26
-11.5738 1.95898 8.86663 66 75 25
2.10702 -0.329807 -9.28445 68 84 37
-11.7105 6.56816 -6.71122 19 22 35
7.67276 -7.28384 11.6632 32 50 37
1.90971 -0.0534153 -10.5179 68 79 34
6.60203 -4.34944 -10.1183 34 51 52
0.172411 9.12853 6.70348 13 21 31
1.16402 8.30075 6.88122 24 30 34
-8.4943 10.44 -10.0619 28 32 43
-8.52607 10.3381 -7.27138 20 29 29
-0.680774 10.2419 -2.11835 5 12 24
-0.445387 -1.92947 11.6512 61 74 19
3.37187 2.24402 2.18407 68 52 7
-10.0321 0.808121 11.6882 82 94 66
0.310712 8.84424 12.4995 26 30 31
-10.1753 8.12547 8.32878 21 22 24
-6.31306 12.9308 8.12728 3 2 13
-0.147508 9.9816 0.0717411 3 1 17
-3.85492 -3.17381 -13.423 74 82 13
-11.3432 6.84681 -3.50158 21 18 27
3.50349 2.44137 5.3193 66 51 9
-3.2965 13.4201 -6.2998 25 32 31
-8.00212 10.6418 0.546001 1 0 8
8.57883 -5.05746 2.47951 78 97 73
3.08277 4.77562 -7.4296 51 62 41
1.61463 7.60299 2.75234 8 9 24
-3.67068 -8.85471 12.0865 69 83 37
1.30328 8.25574 9.15769 26 32 36
-12.7927 -7.75122 -9.42118 80 88 35
2.29473 -1.66078 10.0351 72 86 50
-5.33863 -8.16582 12.0095 78 89 40
-1.05567 10.6903 10.7612 15 19 31
9.35294 -9.00609 8.84831 43 56 37
4.51639 -4.30758 0.372248 57 67 34
3.60895 2.13972 3.36042 60 44 1
1.36858 7.4429 -4.64709 1 1 17
-4.29597 14.1646 -9.21177 4 4 19
-4.96928 14.2471 -10.5053 28 31 36
-7.2953 12.0313 -6.56531 29 32 39
10.0659 -5.98526 4.57366 28 42 28
2.17605 6.99893 -3.90166 18 24 31
-0.847703 -0.444565 -12.7964 8 14 26
-9.49246 -2.99678 11.7602 83 97 50
-8.49118 10.0257 1.07834 3 6 16
2.37845 5.97119 -10.7809 12 10 14
-1.06145 5.13846 -11.1077 67 76 29
-2.72258 13.2193 12.061 17 18 30
9.853 -8.34687 5.67635 36 55 34
-8.20202 10.9421 -7.05075 12 11 25
2.83341 -11.4278 -13.9455 44 56 22
4.08425 -5.17511 -13.5506 43 56 30
0.0441468 10.3448 8.20223 62 73 48
-1.05053 0.817425 -10.8863 47 56 29
-2.01763 11.5743 12.4903 16 21 24
4.5039 1.51999 5.841 63 54 10
6.42846 -4.48094 8.38523 33 42 19
-10.2876 -9.00526 -10.6856 82 87 15
6.41689 -9.45438 -13.3503 42 55 33
-5.79518 13.7854 8.05375 7 3 14
-10.5236 7.48564 8.1753 4 3 16
-8.53139 10.0234 -4.48965 11 15 29
0.298565 8.77001 -5.16351 9 8 20
5.80715 -6.14292 -3.1387 24 42 35
9.30251 -12.4543 -3.77936 16 23 26
-0.714185 6.51418 -11.359 56 67 21
3.02762 5.86076 10.9258 6 8 18
-1.49477 -10.6129 -13.95 69 79 21
-7.29186 11.753 4.25522 18 20 29
9.12513 -9.825 -3.65055 32 44 46
-0.15971 9.34017 -10.0538 20 26 25
-12.1334 -0.992897 -8.29697 78 87 45
-7.10035 12.0884 -2.71 24 26 38
6.60979 -1.25002 1.06936 69 57 15
-1.3043 -2.5663 -13.6252 66 74 41
1.64043 7.37681 10.7975 14 13 25
-3.37013 13.6902 -6.53384 5 7 17
2.42692 2.1175 10.2889 74 86 42
-1.185 -7.30747 -13.9642 70 78 15
-8.38023 10.4648 -2.03721 20 25 34
-5.06227 -3.93388 11.8177 74 86 51
-12.1869 -2.53812 -1.24347 67 78 33
6.43479 -7.51871 11.5447 17 34 25
-8.62696 6.44652 -10.7661 64 69 21
9.63333 -10.4272 8.31065 40 57 25
-2.01298 2.61324 11.4963 66 79 43
5.75795 -7.76609 11.842 3 22 0
-7.11564 11.5243 0.560265 0 0 14
-8.05609 10.9727 -4.8382 7 11 22
4.62707 -9.6309 11.7755 58 72 20
6.69813 -6.36553 -3.50023 28 44 48
3.17695 5.89268 7.15077 4 1 23
10.3014 -6.10424 -0.63502 49 54 31
-1.8568 -10.036 11.9829 61 75 19
-0.701105 10.5189 9.16546 18 20 26
2.65887 -4.12899 -3.38376 35 40 21
-4.62599 -0.780722 -13.4458 74 77 31
-7.86628 11.0837 -4.58579 4 8 20
-0.907375 10.436 1.40775 11 16 28
0.336744 -5.57744 -13.613 62 70 18
2.43267 1.07614 -5.02452 69 83 39
-6.01579 13.3505 -2.85369 22 22 28
8.70876 -5.16024 4.31894 24 44 24
-2.04774 6.15233 -11.0335 65 74 16
-12.0205 -2.17264 5.11335 65 75 39
-9.42414 9.46354 -4.33964 1 2 16
4.03132 -3.99191 0.406967 54 63 32
-3.17447 13.0129 0.598501 14 16 28
-4.70319 8.27629 -10.9365 68 76 46
5.82086 -4.34278 3.76098 28 39 22
2.55991 -9.63887 -14.1144 31 46 22
4.41511 -6.08887 -3.04631 45 50 19
1.87437 -0.850538 -6.68165 14 21 11
10.3031 -6.46305 1.65649 43 54 35
3.32184 5.7145 5.34814 11 14 29
-8.94775 9.78666 -5.37279 2 4 16
-7.77123 6.95674 11.582 72 85 34
-6.67445 12.4484 -6.85807 13 13 29
-10.1184 8.2495 -9.53426 13 18 26
2.9523 -7.20142 -14.32 41 53 30
-11.2392 6.876 8.25242 2 2 13
2.52319 -3.66578 -3.5947 17 18 11
-12.4417 -4.2632 -9.41518 77 86 43
-5.74581 13.9547 -4.01892 5 4 22
-2.52458 4.17689 -10.8669 69 77 25
1.80511 7.39505 1.03675 5 0 21
-2.0077 -3.87255 -13.5677 73 81 30
-3.97559 0.361252 11.7034 71 84 36
9.84336 -8.92316 2.59855 43 60 38
-4.77736 14.4648 1.54884 19 26 33
-9.83875 8.63153 -9.46898 6 18 25
-4.13912 14.7229 4.86348 43 50 33
-1.10124 10.8154 11.6018 23 28 37
-9.51005 9.108 -3.67831 9 19 23
-9.55641 9.46676 -6.04193 19 19 27
-11.9417 6.06973 -6.35814 18 22 31
-12.4556 -4.58501 -9.62902 76 85 44
2.43654 6.18036 2.49223 10 12 25
1.51397 7.58 2.18639 9 8 24
9.88246 -10.3535 7.86399 54 70 35
1.70894 -6.20886 -13.8017 31 46 26
7.3152 -8.19041 -6.33617 33 45 51
-6.49667 1.64355 -11.7201 56 56 10
-8.52264 9.56095 12.4618 31 34 38
-11.9972 6.06618 -11.3505 27 36 43
-0.199885 -9.83891 -14.0276 67 76 31
-12.2493 -2.82227 -1.58607 66 77 35
9.59141 -5.96343 -2.63067 23 35 26
-8.7139 10.0075 -8.15436 17 24 37
2.59496 2.38507 -1.20116 71 81 52
-4.4357 16.3897 6.18742 50 62 40
-11.2997 6.7525 -10.5505 7 6 26
-6.85427 12.2663 -2.95902 11 9 24
-11.3254 -4.61425 -10.3412 81 81 10
2.28678 6.68981 9.87174 14 24 22
0.151013 10.5057 5.53289 55 67 59
7.0348 -7.58086 -6.59353 35 43 47
-5.87839 13.6803 11.3924 6 4 15
-3.59784 4.88999 -11.0142 71 80 37
6.07398 -9.05563 12.0463 23 39 8
7.09363 -9.85765 11.8968 7 29 9
1.31055 8.22744 1.7212 24 31 38
-0.873796 10.0768 -10.4329 11 12 19
1.65868 -3.37047 -10.8187 66 76 43
3.29385 -3.48343 0.720798 77 89 42
-2.3069 15.9944 4.8904 62 75 45
2.33004 1.39782 11.0843 67 82 42
5.88313 -6.03382 -12.0547 16 36 32
-12.7751 -7.0898 -7.40886 76 87 42
-7.26505 11.8848 5.03973 18 21 32
-2.00895 11.7191 -2.6607 14 15 25
-9.43222 8.06369 12.3416 39 44 35
2.21465 3.78999 -8.59322 64 77 35
-0.501198 10.3147 9.6449 15 17 29
-9.16762 -2.56068 -12.9871 65 72 40
-6.03973 13.0327 1.37164 20 23 35
4.20583 1.79742 6.93899 62 51 3
-8.35177 10.6876 -8.28709 11 13 24
-10.7587 7.53899 -3.15866 34 40 36
-7.29644 2.03683 -10.9713 76 76 11
7.28436 -4.98056 2.99423 30 44 25
-10.4908 5.33971 -11.0534 56 56 0
-8.5019 10.0524 10.2639 4 3 19
2.30667 -0.0889034 9.75362 75 87 34
9.00237 -11.3393 -4.72081 28 45 45
5.51479 -5.22173 10.2338 33 45 30
4.70959 -4.66576 9.85477 23 38 24
-1.02191 10.872 -2.06922 20 20 32
4.83411 0.966957 2.36601 62 49 7
-12.8825 -8.9876 -3.82955 56 66 54
-6.02807 13.012 3.23622 7 13 19
-11.933 -0.813065 4.4904 66 75 45
2.23241 -3.09806 11.3449 70 83 41
-8.23742 10.7385 -1.51299 5 7 21
-2.66803 11.9388 -11.9922 26 31 27
6.45014 -6.36572 -3.69326 26 38 43
-6.87251 -7.68316 -13.6189 73 79 42
-5.6458 14.02 3.99746 6 6 21
-2.76672 -0.90678 11.6913 68 80 44
-6.79234 -0.984993 11.7438 75 90 23
-2.50538 12.4724 -7.39195 18 17 25
-6.02382 13.7481 -5.05936 6 5 18
-7.42408 11.0048 0.298712 0 0 8
4.06701 1.74492 9.2465 61 54 3
-12.5033 -9.73858 5.89107 76 88 73
-6.70092 -0.69371 11.7402 77 91 26
-12.1038 -0.96983 -2.12313 68 78 43
-12.3139 -2.66038 -10.2267 76 82 44
-1.27039 10.6552 -10.0845 23 32 33
-0.34322 14.1969 6.13492 78 89 39
-6.05743 13.6626 -6.97194 5 7 24
3.47266 -5.818 -13.8455 35 43 25
2.56269 5.774 -11.5372 14 9 18
1.67678 7.42087 5.15422 2 3 20
6.21485 -0.397087 8.22212 63 50 10
-11.7473 -11.1785 -10.5825 71 73 21
-7.4885 -9.36426 12.1066 86 97 40
-2.41089 0.981857 -12.0901 6 6 7
8.18323 -5.48785 11.5809 28 43 22
-2.20952 12.5776 10.3359 17 14 20
-0.54806 15.3208 6.09955 75 88 44
-12.2489 -9.56706 10.5332 72 86 71
-12.4685 -8.374 -10.3688 75 78 38
-6.15876 13.0456 7.3709 2 4 17
1.92746 7.31048 3.74889 5 3 16
-0.631926 15.5284 5.12252 75 87 56
-12.34 -9.30584 8.75535 74 87 66
1.19207 7.80979 3.69751 7 15 30
-7.4453 11.4517 10.703 3 1 19
-6.29022 -10.9325 12.2895 81 94 42
-2.55948 -6.38979 -13.6792 76 82 35
-2.49701 -4.22474 -13.4994 73 81 26
-10.6645 -3.34177 11.7755 83 99 50
-6.08966 -9.07457 -13.7142 75 82 15
8.483 -12.144 -7.92968 30 35 29
-10.295 8.12427 5.29446 15 17 23
-0.120163 10.8496 6.52093 68 79 43
8.4424 -4.82211 10.7674 31 47 29
-4.73122 -7.39865 11.9568 74 86 26
2.01001 7.30206 9.91336 7 9 15
-6.10798 13.2846 -3.96025 18 28 34
-1.96241 -7.22229 11.9514 63 75 38
-9.74414 8.51726 -1.42497 6 8 17
-12.747 -6.82909 -6.96859 78 85 45
-9.30229 -3.02448 11.7675 82 96 53
-2.26434 12.4586 0.103015 14 15 22
0.07479 9.64827 -0.342579 14 22 29
4.4108 -4.56199 9.90046 28 40 21
1.88718 -3.62478 -5.56326 22 34 30
2.30296 6.5678 -5.35223 22 26 29
-12.0024 5.95087 -8.6761 9 12 24
-12.3038 -11.6244 10.065 63 70 38
-12.011 -0.0524368 -4.28969 72 82 31
0.601351 8.84159 10.2728 11 9 24
-0.203124 3.78513 11.3815 64 75 25
6.23851 -0.543198 9.18377 66 69 15
1.09486 8.39089 0.257648 24 24 36
-10.584 7.90738 -9.51745 6 5 25
-11.7787 0.0634308 6.81237 67 78 21
-10.1319 8.16505 -10.0509 5 7 17
-12.6577 5.00319 5.2823 34 38 35
-12.0445 -1.30996 1.70453 65 75 36
5.5402 0.228361 2.83354 60 41 4
-12.8976 -7.79877 -7.37138 78 88 40
2.60369 6.21011 5.85658 19 21 33
3.31508 5.4143 -5.46837 30 36 34
-11.8939 -6.91397 11.042 70 81 47
-9.29456 9.13306 -11.9023 16 10 27
9.78433 -9.73185 6.15326 40 55 35
-9.44678 0.926022 -10.7229 79 78 20
-12.6022 -5.90716 -6.89267 75 85 34
-2.42044 12.284 -5.42254 1 2 7
-6.33404 3.50621 -11.0045 76 79 22
-0.222137 9.24987 -10.9918 25 25 28
-11.9916 5.98935 6.58893 6 4 15
8.4246 -4.91559 8.56345 34 53 34
-12.2128 -2.67499 -1.79541 65 76 33
-12.2463 -1.56936 -5.46231 74 82 34
-11.9692 -4.94043 8.92206 71 80 28
0.208 10.1307 5.07683 42 48 52
1.20608 8.33113 5.59531 13 17 27
-9.55653 9.07078 -3.36619 13 19 25
-3.48456 6.99316 -10.9742 67 77 27
-10.0676 0.64352 11.69 82 94 66
-2.0377 12.0339 -0.433218 16 20 32
-12.4337 5.63928 -8.76789 12 10 23
-12.8588 -8.13279 -4.90529 70 80 64
2.61801 2.46366 -0.957248 70 81 50
4.8776 -5.12782 -9.03411 28 42 32
0.473054 8.61118 -7.91953 7 4 14
-8.8771 9.73895 2.56373 2 1 17
-7.40696 0.903791 -13.501 25 20 13
-2.17414 12.6261 11.2222 16 18 37
-0.837885 10.3409 2.85748 13 20 30
-2.04566 6.44937 -11.0446 68 76 24
3.55464 5.39488 6.70746 48 52 45
1.67079 7.2808 -4.66491 2 1 14
-8.03736 6.07754 11.5824 75 87 46
-4.04004 13.118 -12.1475 33 36 36
-8.34532 10.2728 2.69022 14 15 24
1.38963 -1.49736 11.4872 62 78 10
-10.3587 -11.7857 -11.4783 45 44 21
2.41129 6.12664 -5.78685 10 9 17
-0.00256538 9.33471 -3.89122 14 22 23
-4.79114 14.9699 5.00994 8 4 18
3.13691 2.76337 6.05732 64 52 6
-12.4267 -5.27248 -2.22396 65 75 29
-12.7067 5.30032 0.303249 19 19 28
-6.09137 13.1804 5.7686 5 4 19
3.63583 -5.11822 -13.4627 41 55 28
-6.96345 -5.52552 11.7734 77 91 49
-4.2147 16.5073 5.97138 56 73 41
8.43264 -9.80697 -7.47348 33 48 51
4.33974 1.45427 7.77154 54 42 4
9.56949 -8.52518 4.11544 35 51 34
-1.81975 11.5205 -6.05996 13 17 25
-1.50571 16.3434 8.29396 62 70 39
-10.3125 7.28163 12.0659 14 12 25
-11.3749 6.77332 -7.96421 7 8 27
-7.85918 0.652855 -12.2309 20 19 11
-8.51294 -9.04852 -13.5486 76 81 3
6.10999 -0.34506 5.95608 63 48 8
9.76292 -5.02684 6.8539 49 53 41
9.22409 -10.447 -3.79985 31 45 47
-1.3986 -8.37636 -13.7238 69 80 12
2.37603 1.08161 -7.45482 54 63 29
-5.50769 -5.13211 11.7169 75 88 35
-1.04986 3.19702 11.4146 64 78 20
1.07964 8.36652 5.39987 1 0 14
0.74189 8.64725 -0.412022 6 7 21
-3.31391 -2.7789 -13.4431 78 82 11
-4.4534 -2.83735 -13.4693 76 80 29
-12.7037 -6.57998 -5.32695 73 82 38
2.71919 6.18413 10.3509 7 4 24
-2.07168 12.0518 0.81094 19 24 30
1.17712 -4.72093 -11.8427 45 52 21
-4.75216 15.0074 7.05343 2 1 19
-12.5982 -11.5994 7.26263 68 82 50
-11.5022 6.84346 4.91866 21 22 33
1.86071 -7.90878 11.7797 58 74 7
8.11711 -8.08993 -8.40465 20 39 48
9.08599 -9.17017 10.6008 55 69 36
-12.5815 -5.6217 -9.14014 79 86 44
-2.37436 8.12186 -11.1274 58 68 26
-11.5812 2.40031 7.97611 64 74 46
-5.48528 -8.55445 -13.6131 76 84 21
2.48119 -4.07825 -10.1111 56 69 38
-12.3605 -9.76292 8.1456 76 87 58
3.4333 5.07264 1.09732 34 31 39
-11.0621 7.07973 -2.06499 11 10 23
2.51397 6.22713 1.97442 0 0 25
-7.24804 11.6862 9.80731 16 21 17
-1.82156 11.9673 10.7114 10 11 25
-0.369538 3.32521 -11.0936 68 77 23
-0.0182838 10.9244 5.72378 63 76 47
-0.346191 9.76864 -8.81679 13 14 20
-2.90207 13.4682 12.0295 24 30 36
-8.29263 10.6008 -3.18282 14 19 27
2.50241 -7.66235 -14.0777 35 48 25
8.00054 -7.0728 -10.3778 24 39 38
-10.1206 7.86034 11.7603 38 41 36
-4.18098 7.97241 11.43 70 82 40
4.49021 -6.05957 -4.04777 35 48 49
-12.1867 -1.53062 -2.65204 68 79 35
2.25533 -1.44673 9.70641 72 80 43
-9.69999 -8.45043 -12.724 77 86 21
-12.2953 5.67864 -4.40824 9 1 21
-0.447485 15.1097 5.86395 76 88 46
2.42209 1.49036 -5.39353 71 82 43
-11.9698 -1.20242 4.4332 67 76 36
-0.441621 1.29315 11.4653 67 79 24
7.44612 -5.24496 2.29753 44 64 38
-4.71163 6.55712 -10.8815 72 79 30
0.0296955 9.07807 -2.64809 2 6 17
4.1427 -5.10314 -11.2245 27 42 24
6.1641 -0.45229 5.05867 61 42 3
-7.57066 11.3023 1.52967 5 4 20
-12.2128 -4.04705 3.53772 67 77 30
0.41717 9.02163 12.3544 16 17 24
4.00291 1.87614 4.72911 62 42 4
4.80976 -6.25742 -12.0722 25 39 32
-4.57895 14.2997 -10.7026 19 22 31
-10.8332 7.66544 -6.41729 31 35 43
-1.69391 -3.02695 -13.6492 71 78 37
-10.6002 7.73842 3.99203 21 22 30
-0.729691 13.1275 4.7769 79 91 54
-3.28771 -2.1055 -13.501 74 79 30
-11.1092 6.902 -5.75392 13 12 23
-12.0313 -0.536324 1.34591 66 76 22
-3.41833 16.2926 5.16624 53 65 40
-5.88713 13.5106 7.28195 6 8 19
-0.210358 8.31431 -12.0318 44 49 26
-12.4496 -4.36829 -7.02794 76 84 31
-7.31194 -7.84943 -13.5552 76 82 21
-12.8947 -9.13622 -4.06092 57 65 56
-11.8637 6.23964 -2.84026 9 13 19
-0.544993 9.87488 -9.9071 11 11 15
-6.03271 13.257 7.21638 3 2 18
-11.7957 2.61972 2.89045 62 74 38
-1.15791 8.54074 -11.8905 52 61 36
-1.18759 11.2728 -0.846493 8 11 19
4.22944 1.78289 5.81674 62 51 6
6.07303 -0.332893 4.27958 68 49 14
2.60298 5.80017 -10.2514 14 15 13
-3.18233 13.0877 2.46593 7 17 28
1.11819 8.59247 3.94692 20 24 30
7.88949 -8.539 -7.44848 26 43 53
-6.72 12.3474 -3.1045 6 3 19
-11.9786 6.03957 -2.7224 7 10 18
-1.37913 12.2193 8.35922 59 66 16
6.45065 -4.37324 -10.7517 31 47 39
-10.6447 7.97709 -8.68504 10 10 28
-6.78171 12.322 -2.4529 14 15 28
3.22432 2.38527 1.59579 65 53 10
-8.57139 1.34203 11.682 79 92 46
8.69665 -5.61719 -2.08188 41 60 43
-10.6275 7.37959 8.49817 4 2 14
-1.64185 -10.9658 -14.0305 60 69 27
5.75988 -4.65237 -10.7906 28 49 35
2.50283 4.91301 -11.9476 36 39 23
-1.8861 11.9116 9.64651 19 19 31
-5.48723 13.7272 -11.9054 16 14 28
8.6523 -9.62646 -4.8708 36 48 50
-1.94162 11.6102 -4.063 10 20 30
1.07391 8.12766 -6.16629 19 24 28
5.7048 -4.45476 1.22765 32 42 30
3.84359 -10.2592 11.9059 62 75 10
-5.53803 12.5529 -12.0293 11 12 23
-2.14121 -7.42784 11.9536 65 78 32
-12.1296 -0.650932 -8.28989 79 87 48
-9.31517 -5.27415 -11.4881 83 88 27
-6.39361 12.6527 9.1775 9 13 27
-10.8536 7.42759 -4.92913 27 26 37
-7.6719 11.3136 10.537 6 4 8
-0.185695 9.82468 -4.63089 19 21 27
-2.64324 1.74571 -11.0045 70 77 11
2.33516 -6.31393 -13.6806 23 36 26
-7.09395 -7.15917 -13.4733 75 82 7
9.67265 -8.07891 2.03799 33 49 29
0.56664 0.160133 -10.7696 63 76 40
-7.10739 -0.805492 11.7484 76 91 32
-5.53738 -5.91281 11.8249 76 90 32
-11.7457 1.46003 5.8393 65 75 33
9.88389 -10.0188 0.748368 40 57 35
2.27291 3.50458 -8.97581 68 80 43
2.55093 -0.830673 -2.43385 67 80 40
2.34746 3.13516 11.0242 71 83 35
9.71751 -8.14835 5.6882 38 53 38
2.18724 -4.0551 11.3866 69 82 27
0.825602 8.74642 2.18974 12 11 24
-0.293606 13.8817 7.14498 72 87 24
9.18596 -12.3937 -4.2118 23 33 30
5.3462 -2.1564 1.02236 66 75 29
-1.85707 13.918 8.32062 63 75 33
9.78678 -8.59416 2.74715 41 59 34
9.6285 -5.44629 -0.316289 35 42 29
9.70423 -8.32343 2.54617 39 53 31
-12.0228 -1.65037 3.65644 67 76 44
-3.93566 4.76192 -10.9904 73 80 38
-0.075552 11.847 6.63475 72 85 39
8.71632 -8.58841 -4.62106 32 45 42
2.64894 -3.57598 -3.1204 50 62 36
8.97848 -4.51789 7.21532 36 53 36
-4.94894 3.42067 11.5512 73 86 32
-4.20885 -8.99747 12.0636 75 89 37
-8.51982 10.3457 -6.95908 21 27 31
2.29608 -0.329626 -6.88774 33 40 15
-2.12027 11.3431 -10.8364 11 15 23
-3.01914 13.5673 9.04265 22 30 16
-2.58565 -2.90628 -13.5018 76 86 19
-10.6405 7.78317 -0.901016 18 16 27
1.73945 7.50654 2.52401 6 5 20
-12.0802 -1.57125 -0.410788 65 78 31
6.40244 -6.55933 -7.82294 29 48 54
-1.04082 10.7515 1.51577 0 2 15
-9.05829 -2.63891 -11.2797 79 88 36
1.20002 8.31126 2.30342 27 29 42
2.20152 -2.75177 -3.92508 9 10 7
6.82018 -1.00207 3.91969 60 48 7
9.85604 -9.94904 6.90016 41 57 38
-3.84033 3.9139 11.5643 69 81 23
2.58495 2.61232 -1.68546 69 81 49
8.50899 -9.01831 -6.25301 32 43 41
-9.66269 8.55921 -11.0026 18 24 34
-2.46856 12.7856 10.422 10 9 14
9.57314 -4.95175 2.20894 32 45 23
-5.18591 14.4132 8.43301 5 3 17
2.66914 3.35572 1.17215 66 74 52
-3.48405 13.5418 -11.3387 19 19 24
-4.71355 14.5003 -2.32704 8 20 27
0.334669 3.175 11.3757 65 79 23
10.0335 -10.312 1.69673 40 59 37
2.47777 6.12952 -3.69663 8 13 25
-12.4971 -6.93342 -0.562987 67 76 58
-12.6483 -10.9956 2.62061 63 76 66
-11.8453 6.06083 -3.79397 15 14 23
0.374918 8.91543 1.35082 3 8 18
-11.5251 6.58604 -7.49649 5 9 22
-9.4058 9.25698 0.104969 6 5 17
-9.83493 8.25354 10.3 12 10 22
6.97044 -5.62323 -12.1541 42 54 43
10.2571 -10.3881 4.1957 46 63 34
-6.7238 8.34045 -10.8611 66 71 27
-0.985136 15.5341 8.23067 60 70 22
4.55554 1.2442 8.90592 65 48 5
-5.09147 14.4179 0.0237141 9 18 34
-1.02588 4.14355 -11.1045 70 79 30
3.34634 -4.2619 10.4959 46 62 37
-2.33677 15.4095 8.23968 58 76 25
-8.54196 -5.90177 11.9067 83 96 46
-11.0782 6.99697 -2.967 8 9 19
-7.33107 11.7626 -4.72212 18 23 31
3.62018 -0.33182 0.974241 90 100 50
2.60885 4.17839 -0.16773 61 74 42
-2.29734 -1.64228 11.7003 65 80 22
-4.30504 -1.89052 11.6718 70 84 33
-9.91765 8.32696 2.43971 3 6 17
-11.8998 6.04776 -3.02693 5 8 19
7.86655 -8.09465 -4.59185 29 39 42
-5.89922 4.2113 11.4844 76 87 33
2.55669 6.33695 8.96729 7 3 15
-11.952 -7.90168 11.1693 72 81 57
9.10047 -6.53789 -2.96054 26 40 39
7.97294 -8.31617 -5.56324 29 42 46
-12.3621 -9.80258 8.87853 79 93 52
-7.99897 3.78527 -10.7737 78 77 12
-6.48775 5.26498 11.6146 74 87 41
0.903983 -10.1231 -13.9763 60 73 9
4.34925 -5.92496 -12.0324 15 34 32
-10.7168 5.31525 -11.2882 51 50 9
-7.21101 12.0621 -4.27246 27 32 38
-3.53973 12.6005 -11.9813 28 33 33
4.14884 -4.58362 -1.99311 27 42 26
-0.342619 -4.61695 -12.623 64 72 29
-5.54982 14.2172 -5.6503 7 6 22
-8.2402 10.7769 -11.6737 22 23 39
5.86938 -2.7779 3.27912 55 62 47
3.03882 5.92135 6.58935 6 2 17
-3.13046 12.8875 -0.183927 16 19 30
-6.4731 -1.76988 -13.2917 72 78 10
8.9612 -8.37581 10.2646 41 61 37
-12.345 -5.00989 -0.353956 70 81 33
5.20607 -8.63556 -13.7888 29 41 28
9.87854 -5.43229 3.05232 44 51 34
-9.06349 3.14896 11.6792 80 93 45
-10.5413 7.99244 -4.91292 22 20 35
0.208811 -10.1999 -13.984 62 75 33
4.13876 -7.08833 12.0121 32 51 1
-8.20127 10.7909 5.09259 19 22 30
-9.65936 8.90623 -2.03046 10 18 25
-0.967648 3.64182 -11.1023 72 82 35
-5.87123 13.8267 8.92624 4 1 14
-5.92526 13.933 -5.87413 7 5 22
-0.401011 15.0747 6.15167 76 86 52
-0.49715 -4.06518 -11.6041 73 80 39
2.47632 3.25671 10.1688 76 89 42
2.495 1.4156 -4.52091 70 83 37
-0.37402 10.2701 8.74578 48 57 26
8.61056 -5.77671 0.67208 11 36 25
2.1404 7.03178 -5.52538 13 14 18
-11.4321 -4.26632 11.6742 77 91 62
2.8426 -5.6148 -8.116 44 64 70
-3.85439 16.6875 7.49647 59 70 41
-5.62549 13.0715 12.466 29 32 35
-8.94641 9.63836 10.1776 14 11 24
-3.09736 12.8334 -3.05791 11 10 25
-7.27663 11.5501 10.7255 3 2 15
9.27377 -8.41087 9.134 37 55 34
-5.00263 -3.71972 11.808 74 87 49
-5.74989 -6.25816 -13.4956 75 79 22
7.80727 -7.52949 -3.9563 23 34 39
7.68402 -5.96166 11.5637 28 38 15
1.84268 -6.1281 -13.533 20 34 15
-1.73123 0.461636 -12.3668 2 2 5
-9.84841 8.54047 -9.33135 8 22 29
2.77911 -5.61851 -3.67339 17 18 9
-11.5767 6.68966 -10.1778 8 5 25
-5.12914 2.71325 -13.6838 36 28 20
2.78681 -7.0782 -14.2258 32 46 31
-5.87987 0.135847 -13.6268 72 72 24
-10.6798 7.63351 2.13312 18 24 30
1.93225 -2.54721 -6.50387 14 22 17
1.69177 2.57335 -11.1066 60 68 26
-11.7494 2.09738 4.7344 63 73 39
6.26202 -8.27063 -13.7586 42 56 36
-0.0202312 9.86703 9.82626 26 28 33
2.02401 6.83313 -10.1071 12 17 21
-8.54527 6.73488 -10.8169 60 64 11
-9.57646 8.44681 10.9025 1 5 18
8.47591 -8.86153 -6.29722 28 40 40
0.262804 8.77807 -4.83543 3 4 19
1.71106 7.39896 8.27394 9 5 20
1.84078 7.071 -9.29916 8 7 11
-3.91637 16.5993 6.72662 58 73 46
-5.13454 14.4155 7.83159 7 6 21
-9.36464 5.77384 -10.7623 61 70 8
2.62534 4.05707 2.6461 65 75 51
2.92087 5.71801 -8.23618 7 6 8
2.62966 0.0257149 0.26368 67 75 43
4.15918 -5.30794 -8.63641 15 37 27
2.51296 -4.89513 -7.55459 48 58 33
10.0508 -10.988 5.33441 48 65 34
-6.64555 12.4599 0.44327 8 9 21
-9.66131 8.86131 -1.40179 18 22 30
-6.60533 9.10992 -11.0762 57 62 15
2.57662 -5.43654 -12.2064 14 26 17
-9.08219 9.6602 -6.92905 6 2 20
6.41703 -7.02963 -7.33725 26 48 57
-10.5646 4.52403 -10.5999 60 56 9
0.286025 9.29751 3.42611 9 8 19
3.78143 -5.9645 -6.17718 24 43 40
-3.97544 16.5797 6.34925 60 76 47
-7.88037 11.1193 -5.87153 7 5 20
-11.0867 3.52777 -10.5629 62 64 11
1.12304 8.49784 2.53517 28 26 38
3.53979 1.99277 2.24308 67 47 6
-12.415 -5.74 -1.24349 66 77 19
5.07287 -6.22724 -12.8373 19 34 29
2.83401 5.8398 -5.35727 6 3 12
-10.562 7.69944 7.55677 19 20 24
6.71129 -4.93813 -10.6096 21 33 30
9.28851 -6.93437 -3.03259 30 42 47
-1.69794 11.8244 10.3876 10 9 25
10.0104 -12.46 1.56536 33 44 24
-4.21444 14.2998 -4.42814 11 14 25
-6.81495 -7.06292 -13.4983 75 83 10
0.178892 9.82378 2.82871 12 20 27
-9.31983 -5.5422 -12.7895 79 88 33
-5.78786 13.8259 8.42596 7 2 17
-9.56819 9.02808 -0.534567 20 21 30
-1.20695 16.5809 6.82594 62 74 45
-12.3327 -3.18575 -8.35242 80 87 40
-0.964727 11.2026 8.9114 49 59 40
-2.72102 12.1436 12.4952 18 21 23
-1.9805 11.9078 1.07812 12 16 23
-0.0778236 9.30566 -7.87691 19 26 30
0.969978 7.17844 -11.8714 17 21 20
9.62766 -8.2051 2.84131 37 49 33
10.0053 -10.0518 -2.28962 37 50 48
-6.06771 12.6527 -2.55469 5 4 21
2.49986 5.97998 -5.10835 7 5 15
2.29664 -2.23388 -6.99412 8 9 0
-6.63399 12.0845 12.4671 21 26 28
-4.84925 15.3584 6.25454 11 6 16
-5.45465 14.1539 3.50624 6 6 27
3.91311 -5.00039 -9.48039 42 54 31
0.131866 8.91706 -6.53456 2 3 13
-1.86716 3.99351 11.466 65 78 38
8.39167 -7.75505 10.8494 37 52 43
-3.62244 11.1431 -11.8728 45 56 32
-12.1157 -1.07402 -1.2678 67 78 38
-10.6804 7.71016 -7.79217 4 5 15
-6.10543 13.1147 5.97126 4 3 17
-5.58488 14.039 -1.01678 4 3 23
-2.02463 11.9471 -4.96863 11 17 26
-4.14438 -2.61416 11.7614 71 83 41
0.129733 -4.79964 11.7196 60 72 30
-2.24769 12.4118 -3.09855 24 25 27
-2.54574 -7.92733 -13.6125 72 81 22
-9.27792 2.25979 11.6333 79 94 37
-12.3615 -2.80517 -5.99267 76 83 36
-1.81236 16.3685 4.99364 59 68 55
-12.846 -10.6426 -1.22007 68 82 70
8.03355 -4.93414 5.50533 29 38 16
-5.75777 -9.13866 -13.6858 74 83 7
-3.40249 14.0416 10.2202 7 3 20
-3.56202 -9.46181 12.1295 71 84 38
-1.64531 16.5337 8.08585 63 74 47
2.3541 -4.05955 -9.7922 79 96 58
3.45231 2.34169 8.31278 68 58 5
-13.0158 -9.39473 -6.19689 63 74 51
5.78172 -6.33614 -7.74981 36 58 66
-0.735536 -9.76968 -13.9245 71 82 5
0.386397 -1.33542 11.5408 64 78 11
-3.29007 13.2999 -8.51876 31 38 36
-4.26629 -9.3183 -13.7596 70 80 35
-9.06712 9.60213 8.85394 19 17 27
-10.3076 -1.54054 -10.5159 78 76 9
0.576781 -5.75941 -13.5338 56 65 18
6.46472 -5.63821 0.641273 24 49 38
-1.61915 1.57123 11.5416 65 78 45
3.95793 -5.99919 -5.90479 28 37 40
-2.82979 -2.90366 -13.4953 76 87 19
-7.32861 11.6808 9.53238 3 5 16
-6.07143 13.1988 6.18169 1 4 18
6.66055 -5.31959 10.1304 19 34 15
-12.4144 -3.46825 -4.9709 73 83 33
-12.7742 -11.5062 1.4057 52 62 46
-6.30939 1.33158 -14.2903 49 49 21
6.03679 -5.71964 0.174285 13 31 25
6.73218 -7.22295 -5.23087 28 39 43
5.99659 -0.195709 3.98899 67 52 13
-3.76915 10.9169 -11.761 50 62 27
-10.4082 -7.44247 -10.4315 83 83 8
-0.774469 10.279 1.06935 9 14 27
-5.01134 14.3716 -8.72775 19 32 32
-1.43486 11.7066 8.92392 46 55 39
-6.94664 -7.43681 -13.5751 76 82 28
1.23103 7.85122 7.02891 18 32 37
-12.4521 -4.99228 -10.1308 79 82 52
-9.20939 -5.0913 -11.8077 85 92 47
-4.88423 2.69624 -12.4007 41 38 26
-1.24736 12.4094 8.32614 58 66 26
-12.751 -7.80503 -3.71124 69 79 43
2.72513 2.65885 9.42797 67 74 20
-9.28955 9.01318 10.2974 24 20 30
-4.09482 14.4334 12.1835 24 27 34
1.25566 7.21079 -10.9262 9 8 11
-12.3285 5.66331 7.31177 28 26 35
-2.82166 12.0395 -11.9755 24 30 29
-1.11595 11.2303 -1.35831 5 4 15
-10.1935 6.7749 12.5618 16 11 26
-5.71316 11.3088 -11.797 46 51 26
2.95372 1.61712 0.723406 76 84 34
-8.25718 3.09644 11.6441 78 91 42
-12.4573 -4.88752 -3.62041 70 79 33
-11.9566 1.09331 -7.97967 76 84 46
-5.30823 14.465 4.79502 22 22 35
8.17154 -7.93183 -9.16896 23 36 33
-12.6342 -6.12922 -7.8512 78 86 41
-4.77678 14.5999 11.7413 5 6 18
1.55096 7.3592 7.01871 5 4 23
-10.1515 8.23752 -2.21738 6 5 18
-5.61046 14.1978 5.85112 1 3 18
-12.5044 -9.55822 5.70859 76 87 75
4.31674 -4.22979 -1.36256 45 60 38
-2.98644 13.6574 11.4949 38 47 52
-10.2169 8.24468 -2.43605 16 17 27
3.33176 5.58852 10.4434 32 39 32
7.35544 -5.5759 -8.9621 27 47 45
1.65008 7.28767 10.3839 21 25 21
8.66447 -8.25246 10.9965 44 62 35
-8.19917 -6.18465 11.8966 83 95 48
-5.87549 -9.88809 -13.7528 71 81 16
-9.32833 8.54311 10.2057 4 2 20
-2.8296 -11.3071 -13.9893 53 59 5
-9.36584 9.26781 1.78216 12 13 20
-7.37825 11.2982 0.846151 5 7 18
-8.45934 10.6156 -5.97914 32 36 41
2.48625 6.35707 7.47041 4 10 25
10.0315 -8.57417 5.64971 42 63 36
-7.05267 -6.77297 11.9271 79 90 58
1.01294 8.05567 -8.23874 26 30 25
-6.74007 3.5843 11.6357 75 88 34
-5.36204 7.26079 -10.9547 73 80 39
-3.45582 13.5519 -10.7676 11 11 22
-3.53149 15.7721 4.98676 62 68 50
3.73973 -3.76099 9.15826 32 44 15
2.95459 5.76841 -7.55279 7 5 9
5.58677 -7.09904 -14.0588 41 55 33
-1.10697 11.1471 10.6043 16 22 29
-4.84635 14.4457 -6.79884 12 20 30
-0.251851 -7.86131 -14.0665 67 79 21
8.24787 -5.63846 0.889805 9 35 16
-7.61591 0.850708 -12.3009 44 42 17
8.16429 -5.05852 8.06764 27 44 29
4.66392 -6.04671 -4.61276 26 39 46
-5.64729 2.11645 -14.1368 34 28 24
8.8889 -5.46649 -2.27348 43 62 46
-9.04537 -3.86717 -11.4011 86 93 25
-12.0017 -5.03162 7.96918 70 81 29
3.669 -11.5046 -13.9982 46 56 20
1.35521 -5.53218 -12.6286 18 32 11
-2.07975 12.3169 10.458 14 16 22
8.55578 -8.35002 11.1262 42 54 31
8.25881 -8.73455 11.3694 26 45 26
-4.36501 15.8771 7.92077 57 69 54
2.34574 -2.13168 -7.47938 49 62 24
-11.3755 6.81446 7.9403 15 19 25
-5.00533 7.11188 -10.9384 70 78 31
-0.163481 -4.19654 -10.7603 74 84 36
1.79904 -5.68741 -12.5216 8 17 15
-7.90022 11.0649 -4.80363 1 4 19
-12.3682 -3.06947 -4.54492 72 83 35
0.845873 8.69425 10.7688 17 15 28
-11.0229 7.12921 9.57156 5 6 13
6.05971 -4.74057 3.23088 26 42 34
-4.6532 14.4363 -8.05929 25 29 32
-12.0935 -8.43557 10.6174 72 84 43
6.76028 -5.91245 -8.58535 31 51 58
-11.3995 6.37363 10.9998 22 21 22
-7.3255 11.4438 4.58968 13 15 23
-5.30565 3.37172 -11.0154 72 78 29
-6.07423 12.9321 11.884 6 5 16
-11.939 -0.12215 3.61588 65 76 39
-3.62731 -9.60687 -13.6822 71 82 9
-6.10543 13.1169 5.47295 4 4 17
8.36698 -7.6396 11.3155 39 58 41
-6.05786 13.3049 5.37338 9 7 23
0.883957 -11.0861 -14.0717 48 59 20
1.32289 7.73981 2.93187 6 9 27
5.75021 -4.34672 5.39794 25 31 18
2.54502 1.71706 -3.6818 71 83 38
1.26859 -0.128494 11.4345 65 77 7
3.49302 5.221 -0.441346 32 37 42
6.52251 -6.79478 -4.17884 31 41 51
-10.4096 -1.15497 11.6811 82 96 72
2.60354 2.00432 -2.20134 72 82 47
-8.56258 -10.1521 12.3229 87 100 53
1.77236 -1.92099 -10.7093 65 77 34
-3.64697 13.8808 -6.62059 3 3 17
-12.3843 -3.89268 -3.75575 71 80 39
-6.18115 9.89756 -11.1765 52 59 14
