ply
format ascii 1.0
comment Created by Open3D
element vertex 1399
property double x
property double y
property double z
property uchar red
property uchar green
property uchar blue
end_header
-4.73711 -6.73222 -13.5277 73 81 36
-6.53097 12.4587 -10.1009 12 12 30
-1.34377 -8.00785 11.9408 63 75 16
6.2501 -1.69505 2.2405 63 60 13
2.8341 -11.5281 -13.9461 42 51 20
-12.4861 -4.63791 -9.26274 79 87 42
0.735607 -2.18557 11.5812 66 77 7
-11.5753 6.72565 -6.15668 15 13 26
-8.92386 9.75157 -7.16187 6 4 23
-11.9363 0.509729 -10.2901 77 80 47
3.44619 0.88063 0.714205 81 87 51
2.05047 0.911274 -9.90362 69 80 28
-4.04675 14.0465 -7.81465 14 15 27
6.19558 -8.94498 -13.7685 47 59 39
-0.152216 12.7753 8.03906 70 82 41
-4.377 -3.44517 -13.4197 77 83 18
2.80683 4.34976 8.36497 64 77 32
6.66896 -11.395 11.8491 15 27 17
-7.18736 11.7599 11.7316 3 3 15
-7.41203 11.3874 5.25639 3 5 24
-0.954224 2.99205 -11.0889 70 78 30
-7.51317 11.4246 -6.77414 20 29 36
-2.53378 13.0509 8.41573 49 54 19
-1.4123 10.7864 -11.522 28 32 35
-3.34316 13.7897 -2.81167 3 2 15
-1.00648 10.8249 -0.481688 16 18 28
3.28517 5.82091 6.5269 6 5 19
1.23939 7.83481 6.90536 13 29 34
9.52453 -9.22437 7.03805 28 46 29
-5.97743 -3.22278 11.761 76 90 62
7.37939 -6.22553 -2.60474 27 42 33
-9.17639 -1.95333 -10.9788 79 82 33
2.38684 2.92661 -6.50634 72 83 41
-0.125902 2.25064 -10.9987 68 77 22
-6.39741 -1.06947 11.7489 77 90 29
-10.6758 7.79706 -2.44316 24 29 35
-9.74487 -3.34517 11.8047 84 98 44
-3.85892 -1.20931 11.7122 71 82 49
3.51708 1.0574 0.723886 76 82 48
9.82868 -10.9103 -1.28794 43 57 48
-6.41851 12.6146 -7.36401 13 18 30
-5.27983 4.08679 11.4821 71 83 29
3.13936 -2.16203 1.31507 90 104 53
0.0748591 9.47721 10.6416 13 9 20
5.61022 -6.32285 -7.48125 34 47 50
6.79937 -6.10353 -12.92 52 66 53
2.21227 7.26352 9.34405 12 16 19
-11.9365 -6.87602 10.176 70 79 47
-12.1195 3.78873 -6.89209 17 21 23
-6.37306 1.57032 -13.6738 34 30 21
4.74604 -6.01377 10.8981 12 35 16
-0.559131 9.9722 -8.59426 11 12 19
-1.87207 12.8947 4.54267 70 84 53
-9.91646 8.38506 5.7008 6 9 19
6.80297 -4.6544 8.48815 31 47 31
1.36717 2.29764 -11.1311 64 76 21
4.73862 -7.23427 -14.1342 41 55 27
-1.32912 6.38754 11.3317 62 72 41
7.76802 -6.01417 -1.25985 23 46 32
6.49965 -4.68158 2.92465 29 44 28
-7.9019 0.788422 -11.1224 79 82 6
-0.412817 -4.22135 -11.1461 70 79 38
6.23052 -4.9577 -9.18586 26 47 51
-10.1104 -7.58858 -10.5933 85 87 12
-12.1061 -1.5943 1.02638 63 76 28
-6.6401 4.6614 -10.902 75 79 16
-5.14701 14.3773 -3.43853 27 31 33
3.75035 -1.07598 8.75019 67 76 53
-10.6174 7.20437 11.249 7 4 18
-10.3868 -7.48204 12.0143 88 100 61
1.93413 -1.14269 -6.71878 14 23 20
-0.52102 2.96519 -11.0618 68 74 28
-7.00819 12.2619 11.3988 18 18 26
2.88805 6.04588 9.99089 8 4 21
1.27905 7.63313 -6.54141 17 20 24
2.68621 3.37041 3.69086 70 80 54
-11.8456 -1.73567 7.61556 69 78 45
-1.13116 16.6026 6.77828 60 72 40
-6.01639 13.0514 -0.576063 12 19 28
-10.5775 3.9279 -10.5725 65 68 21
-7.82818 11.0939 -4.78794 2 4 20
5.83803 -0.165291 1.18914 67 57 13
-9.61333 8.97229 -11.4736 23 27 44
-10.3566 5.29567 12.3004 43 53 33
-2.12676 16.1824 7.35226 61 74 35
1.87169 -3.30405 -5.92879 25 28 26
-11.4032 6.69377 3.58908 1 0 9
-11.3931 1.7358 11.2505 70 83 51
0.864555 8.7491 2.62192 12 12 26
-0.153399 -0.458258 11.5385 64 76 8
-7.29988 11.6593 12.1067 5 3 16
-3.36554 14.1795 8.86083 11 21 28
1.81242 -0.973733 11.45 64 78 9
-6.14335 12.8767 -3.10607 2 3 21
6.90761 -7.45566 -7.67227 19 39 42
-5.00921 11.3535 11.5318 45 56 33
-2.7791 4.5231 11.5258 67 79 43
6.75972 -1.34172 3.50171 66 55 15
-5.56394 -4.06831 11.7732 73 87 40
-0.464451 -6.03414 11.6855 63 76 28
1.87684 7.03366 -9.62868 7 8 12
-11.8491 1.25619 0.615192 68 76 33
-1.96541 7.02956 -11.0584 64 73 31
-8.37157 -10.8313 12.3228 83 97 55
-10.3237 8.03739 3.12687 15 14 28
6.35863 -1.58812 1.47059 64 55 8
3.13253 -3.84956 10.4631 63 77 40
-12.2337 -7.08999 7.28832 70 81 52
-9.82061 1.0561 11.6793 81 94 60
1.59891 -8.60911 -13.9646 28 40 27
-12.3232 -3.13346 -9.0131 79 88 41
1.68857 -4.6744 -11.7553 51 66 31
5.19888 -6.13818 -3.42487 31 45 44
-9.45257 8.55483 10.572 3 4 17
-11.4928 2.89145 8.43475 62 72 45
2.28425 0.0829296 -7.6792 65 77 39
3.28988 0.10607 8.86225 66 75 19
-8.31303 10.4421 1.98662 16 19 29
-3.59192 13.9482 12.3805 22 30 32
-11.8861 2.2525 -1.28727 66 77 38
-12.1352 -0.523088 -4.49466 72 83 43
-5.13469 14.8804 5.73091 4 3 19
2.69189 4.25395 -2.45405 68 82 41
-1.51485 14.7739 4.74135 65 76 44
4.76756 -0.37792 0.715164 84 83 55
1.76482 -9.67298 11.8902 63 77 9
-9.28804 -4.76872 -11.16 80 87 21
-12.602 4.88763 4.4721 21 13 23
-12.3991 -4.15277 -3.38261 70 80 29
-11.7533 6.40444 -0.25033 19 21 24
-2.04068 12.1943 2.00772 27 32 40
-1.90148 9.44078 -11.9377 54 63 33
2.25281 -2.57299 10.0527 72 88 50
-8.2217 -9.77572 -13.6683 73 78 12
-12.363 -5.12452 -0.776032 69 78 32
-11.9052 2.50381 -7.6026 70 79 53
-1.73194 11.7601 9.98074 9 10 24
9.04785 -12.0567 -4.55787 37 52 50
-11.9412 5.9811 -1.79878 8 7 19
-5.00983 4.20375 -10.9738 73 80 20
-7.00151 12.1926 -3.05849 16 16 29
-8.17965 10.9154 -10.5968 12 13 32
-10.7909 6.59308 12.3592 34 36 37
2.5922 2.38804 -2.20604 71 83 46
-12.3156 4.62084 8.37758 18 19 17
-1.94168 12.1638 11.9372 30 38 40
9.77043 -12.0931 0.0627356 40 62 35
-7.86236 11.1324 -6.37158 10 7 23
-12.9518 -9.04516 -5.91308 70 82 43
-4.50691 14.4128 -4.38012 20 24 34
7.98982 -6.89068 -10.4658 24 41 35
-12.4381 -5.93503 -1.10613 63 74 12
6.47277 -1.45506 1.02868 67 61 12
-12.0259 -3.48398 6.87696 68 76 51
2.6123 -4.62806 11.3833 65 76 10
-8.35505 -9.40591 12.2143 87 98 47
9.38367 -6.09135 -2.68214 18 31 25
2.17201 -3.0035 -9.42978 67 82 44
-12.2474 4.50468 6.7335 30 34 26
6.55974 -1.40485 8.60939 68 59 24
2.78002 -10.0549 11.9037 70 84 30
2.45669 -4.87242 -8.69916 76 86 55
-0.81414 10.5402 11.2175 14 14 26
5.78106 -3.65339 1.53222 63 74 51
-11.5173 2.20429 10.438 66 77 45
-12.2236 -10.1503 11.063 72 84 57
-5.1948 -6.65814 -13.4864 75 82 17
3.3372 4.9244 -0.645184 27 32 32
-12.551 -5.37262 -9.20051 78 85 45
-11.5599 6.75801 -8.89359 17 17 30
1.00046 -5.02634 -12.2528 21 33 10
-8.85943 9.66446 8.54783 6 4 16
0.207889 8.82382 -4.89415 4 7 21
-12.2054 -5.2496 5.77868 68 77 39
2.92895 -0.559395 8.79276 68 77 46
2.74206 3.17387 6.51917 69 72 42
0.0516405 -1.09843 -11.6754 56 65 36
0.294468 9.0188 7.86508 27 18 32
-2.2968 11.9482 -9.56981 22 25 35
2.2535 -3.67729 -6.74096 12 25 22
-6.12272 13.274 -9.30284 29 33 43
-0.708881 1.80443 11.4796 64 77 37
-3.2788 13.2322 -6.25052 14 19 25
-11.499 2.21145 10.6405 66 75 42
-5.92664 13.8732 -4.80582 6 4 20
10.2044 -7.23628 -1.38454 36 44 30
-5.18627 -4.2004 11.805 74 86 47
-9.65936 -5.42314 -10.5435 84 89 16
3.24189 -6.13247 11.6257 6 25 9
-7.19829 1.02412 -13.4217 20 19 16
-1.9254 4.84002 11.4497 64 77 41
2.57683 -2.61027 0.914761 64 74 41
3.19683 -1.83509 1.33365 92 105 65
-11.2408 7.00563 9.57339 18 22 24
-11.5596 6.75466 4.30846 25 29 33
0.36755 -4.97209 11.7066 61 74 29
-7.3568 11.8027 -7.23916 24 28 39
8.8878 -5.50035 10.483 44 56 35
-4.73291 14.4746 3.62264 14 19 30
-11.7002 5.88257 9.91867 13 16 26
6.03274 -4.623 -11.0312 23 40 29
-11.8904 -2.57965 7.824 68 77 44
-7.16487 1.92724 -10.9692 76 75 7
-12.5303 -8.33117 2.40494 72 83 67
-9.653 8.3977 6.16253 7 11 17
-11.6486 6.6353 -3.16747 26 24 31
0.300301 -7.47498 -14.086 67 77 19
-7.26995 11.5935 -1.20772 3 7 18
-1.2259 10.713 12.4757 21 28 32
-12.5559 -11.7343 8.00803 61 70 45
-12.8651 -9.28267 -2.79735 54 65 56
5.9152 -1.99611 1.67254 63 65 20
-3.28052 -1.30307 -13.4625 75 80 15
-5.32234 14.2675 -1.58434 6 3 20
2.62092 -4.23226 -3.59699 19 19 11
-1.59597 11.4564 0.801214 17 16 24
-11.8292 -8.25496 11.6707 74 86 57
-11.9705 6.10962 -10.4089 17 23 32
4.81789 -6.15987 11.0014 12 32 19
-2.19486 12.5079 10.1586 28 28 33
-8.14214 10.785 2.11972 15 14 26
2.29185 7.14161 9.44278 25 31 27
-11.4945 1.42691 11.0983 69 79 41
-1.9857 -9.57204 -13.9201 70 80 29
-0.0392914 9.39376 -5.62436 22 27 24
-5.46459 13.2049 -12.1241 12 14 25
3.84967 1.95792 5.41616 63 45 3
-3.44989 13.5893 12.441 25 33 34
-4.38619 14.4778 3.03734 6 8 25
2.28591 6.9497 2.19078 20 23 34
0.225704 10.1766 5.19639 41 48 52
2.19292 6.71504 -9.53972 22 25 27
8.50943 -6.84211 11.0106 43 59 31
10.4165 -6.55437 -0.426882 48 50 39
-6.78184 12.4757 -4.97774 14 12 25
-11.9731 5.99224 -1.38723 4 12 22
0.552181 3.16665 -11.1458 68 78 42
-1.91065 16.1086 4.86492 54 65 45
2.28975 3.39449 -7.79788 69 81 39
-10.165 8.10642 1.2184 2 2 10
-10.9288 7.41795 -8.32088 29 33 34
-9.05126 -3.27862 -11.4462 79 88 33
-9.258 8.63005 10.1864 5 3 17
-11.9018 -4.68033 9.47189 68 78 22
0.0813761 8.92183 -7.64905 7 6 17
8.96475 -4.3618 5.55183 64 76 54
9.66908 -11.6291 -1.2591 46 63 54
-6.60697 1.42257 -13.8721 34 32 18
-7.06571 12.0719 0.890667 22 26 36
-4.30466 2.18118 -13.8998 28 24 17
-13.098 -9.78615 -7.69279 69 80 47
1.85814 -2.96528 -5.39888 17 27 18
-6.95357 12.07 -11.9628 18 13 29
-11.183 6.26414 12.2614 39 39 43
-4.60026 14.4052 -5.57046 21 22 30
-12.5855 4.68135 2.56439 23 27 25
-12.2676 -4.90285 3.42207 66 77 36
2.8542 4.29959 10.7874 69 80 23
-8.2425 10.5429 0.199926 8 10 19
-11.9959 -3.04037 6.45122 67 78 28
-12.2222 -9.08022 10.3061 71 84 54
-6.99524 12.3658 6.70869 24 28 32
-8.61083 9.93428 10.0326 6 5 19
-6.8317 12.3637 -6.7702 16 15 31
2.8868 -5.73261 -5.31175 32 40 30
-8.50208 9.95225 4.70337 3 8 18
-7.61161 11.389 11.7635 3 2 10
3.39011 5.66354 7.76634 23 25 18
-11.5896 0.797143 9.57334 70 78 48
-2.55598 -6.4448 -13.6937 77 83 33
-3.47302 14.7027 4.86064 56 65 38
3.19808 1.88439 9.38783 68 71 11
-1.18129 13.0349 8.34272 58 69 24
5.67403 -6.19881 -5.29468 36 53 55
3.53077 5.4128 3.20482 34 37 42
8.90378 -5.12556 8.21091 25 42 22
-7.3084 -9.31201 12.0903 86 96 40
6.39413 -5.65858 -12.7024 33 47 31
-12.3949 -3.1286 -6.55708 78 86 36
-11.9178 0.319876 3.20904 64 75 38
4.54635 -0.291599 0.742935 83 86 53
-6.26921 -5.29382 11.6074 79 92 48
-0.556749 -3.04423 11.6377 61 75 9
-4.52709 -2.05972 11.6691 71 86 28
4.89316 -0.563904 0.709656 81 81 52
-3.56492 13.778 -7.21192 12 14 23
-2.24087 11.7491 -9.6224 13 21 29
-8.59799 9.95341 -3.79906 5 9 22
-8.74875 9.8386 0.155996 1 2 14
3.63068 -9.6673 11.7753 62 75 21
-9.53898 -8.4063 -12.2526 78 86 22
-6.81076 -10.1097 12.2728 89 101 52
-9.27938 8.64491 10.3322 4 3 17
-0.84097 7.8925 -11.8446 53 62 33
9.75335 -6.74761 7.80616 49 59 36
-6.06467 2.11963 -11.3681 82 84 13
2.63718 -2.94667 -1.62663 64 80 52
-8.50089 9.92896 7.21459 1 3 16
-3.75882 -5.66483 11.9239 70 82 39
2.23252 7.04194 1.89521 19 25 36
-12.6531 -9.79766 1.16772 65 75 66
-0.58114 13.6308 4.81354 76 87 51
2.71297 3.11497 1.65522 72 80 54
5.33579 -5.57789 -11.3522 15 31 24
-9.90103 -2.62827 -10.454 78 76 7
8.77846 -5.34175 -1.17912 48 72 40
2.3134 -4.19355 -9.03766 63 77 45
6.08613 -0.47038 2.61367 65 48 5
-9.67284 -8.32405 -12.6493 77 86 19
9.17004 -11.8645 -4.19087 41 54 52
-0.315788 2.24612 11.4364 61 74 23
0.0939884 -0.938854 11.5782 67 78 16
-4.38931 12.7819 -12.1424 12 15 28
-12.0291 -4.86756 7.69594 70 81 33
-12.5705 -9.46877 3.10576 74 86 76
8.46601 -10.8764 -5.87057 35 46 48
7.16366 -4.95776 -9.30453 28 46 44
5.71216 -9.28494 11.9589 20 38 4
-10.2551 -5.83037 11.9205 84 98 64
-2.40293 -5.76405 11.8008 64 77 33
-1.31828 -10.0303 11.9986 58 70 18
-0.293967 9.99142 -3.48666 8 8 22
5.14268 -6.13054 -4.08904 33 45 42
-3.96191 5.18777 -11.0019 72 79 35
-5.9847 13.476 6.3629 15 14 30
6.4166 -6.98712 -4.66049 33 41 46
9.93299 -7.99649 -1.1393 17 34 25
-2.41606 -4.98999 -13.5498 74 82 37
6.59151 -11.0496 11.8711 16 28 11
4.34284 -6.0735 -7.09675 29 46 47
-11.7134 2.14328 5.49356 64 74 40
-12.0837 -4.78872 7.14163 67 78 28
-6.03765 13.625 -4.13539 13 17 28
8.75036 -6.18535 11.3299 44 60 31
-11.08 7.13172 3.72222 1 2 11
10.2929 -6.24101 2.6221 43 53 33
3.10422 -10.7308 -13.9774 30 43 27
6.85918 -0.958721 5.95317 59 50 7
-12.597 -8.0017 -2.08212 68 81 30
7.09863 -7.20069 -4.43217 34 45 48
8.38689 -9.21658 -7.59652 33 43 49
6.6731 -0.95063 2.78439 58 44 9
-10.3851 8.02491 -10.7198 4 6 22
-2.65979 12.6193 -5.94821 2 11 16
-12.7208 -8.44946 -2.10923 65 75 53
4.74899 -2.11621 8.60335 63 75 42
6.21629 -4.70731 5.59801 21 32 27
-12.3812 -3.85868 -3.75613 71 80 39
-12.0975 -0.656822 -1.82803 67 78 39
2.24874 5.74911 12.3322 16 25 19
-4.13589 14.5296 10.1007 35 39 39
4.41819 -0.120178 0.758053 79 85 64
-0.933327 16.5641 7.02088 58 69 46
-3.43327 3.1427 -10.9656 72 79 37
-5.16656 2.58182 -11.346 64 69 27
2.64787 -5.81394 -4.47509 19 32 24
-8.1197 4.13768 -10.7939 76 78 9
10.3071 -6.25393 5.22591 39 52 35
2.47203 4.07059 -4.71693 65 77 35
-12.2197 -4.8694 2.07995 68 77 23
3.32672 4.85874 2.23578 33 37 39
-12.2224 -1.78215 -5.51841 74 82 36
2.52502 1.72388 -3.86394 73 86 37
0.682469 -5.01309 -12.3387 26 31 11
-6.43892 4.61443 -10.9125 75 79 16
-1.04275 10.6912 -3.84423 14 21 30
-0.740715 8.45251 12.1505 9 15 9
4.14753 1.74742 9.02049 62 51 1
7.92861 -8.43729 -7.89521 22 44 51
-12.426 -4.42102 -7.4847 76 86 28
-6.1504 12.8408 -9.55154 16 20 33
-7.28199 11.3797 12.4227 31 34 37
2.70103 6.08405 4.96065 6 1 12
-10.1628 5.8361 12.4319 19 25 30
9.91954 -9.63228 0.180748 43 60 37
-10.0679 -10.9877 -12.1598 78 90 18
7.74087 -7.62839 -4.06348 25 38 41
-11.8798 4.64282 11.5908 59 66 33
-12.3579 -7.52356 5.46741 75 85 62
-12.4265 -11.1971 8.81463 81 90 65
3.05834 4.96421 -8.75802 28 33 27
-11.5638 6.74216 4.55346 23 29 35
-11.9388 6.13061 -8.97735 14 18 31
-1.42209 13.4355 8.30759 63 73 7
-9.79446 5.49092 11.8639 44 60 24
2.36463 0.610456 -5.98491 64 78 41
-4.04128 15.9957 8.43031 45 57 51
-7.76657 11.2689 11.0287 8 7 16
-3.18148 12.9916 -7.46181 10 24 29
-12.6212 -11.7633 7.55887 59 65 36
-11.9121 3.5084 -6.50032 29 38 33
-10.1027 -6.68271 11.9737 87 100 60
5.24152 0.28758 1.08452 67 53 8
7.29129 -5.01171 5.99221 33 53 32
-6.82589 12.37 1.06738 12 12 27
9.09591 -6.80685 9.96768 40 55 35
-12.3787 -7.22024 5.01329 73 83 58
3.23664 4.71607 3.3158 43 52 33
1.51825 -10.7241 11.9243 67 79 8
3.23878 5.62069 -5.06048 7 10 17
-3.41473 -2.86848 11.7431 70 83 43
2.97821 4.76978 -9.90832 33 38 24
2.24644 -5.14704 -3.95511 25 30 31
2.62708 4.17966 -2.78456 64 77 36
-9.45977 9.46788 -9.25331 12 7 27
5.64138 -4.97245 -9.20072 27 49 38
-0.289581 6.44075 11.3737 57 68 20
1.53993 7.18427 -8.67339 6 5 10
-9.47543 -9.03531 12.1723 89 103 46
-6.28146 12.8547 6.3354 3 3 15
-11.2351 -5.12067 -10.4533 83 83 14
-6.30011 -2.38874 11.7461 76 88 63
-2.28401 7.48921 11.3637 64 76 36
-5.66941 14.1123 -5.1195 4 4 22
4.5918 0.00474358 0.764626 79 79 53
2.19594 -1.73819 -8.55961 72 85 42
-0.711411 -10.1235 12.0396 62 75 24
4.8244 -4.33921 9.06375 42 49 31
1.83874 -1.1378 -5.12144 16 25 21
2.81777 5.78796 -9.15527 8 6 12
-7.52561 0.946579 -12.0276 47 47 14
1.25983 8.28489 5.65364 16 24 31
5.82328 -5.74385 -0.20533 28 44 38
0.659287 8.75772 -1.66916 3 2 16
-0.0179501 9.96522 1.767 6 5 22
-9.88672 -1.9258 11.7361 82 96 69
-5.7535 -4.62478 11.6445 74 88 34
-7.97499 10.9098 10.113 16 13 18
2.76238 4.35631 6.71752 67 83 41
-8.00283 11.011 5.1193 10 9 26
-1.06838 10.457 -5.93485 11 18 27
-11.8821 -1.86328 6.15543 67 76 42
-3.39484 -5.42381 11.8857 70 83 34
2.20972 -1.19356 -8.15302 68 80 34
-0.555525 -0.18136 11.5569 63 76 20
-0.114452 11.9116 6.72344 73 86 32
-2.56547 16.1525 8.32654 61 72 34
-4.50374 6.55065 11.4221 75 87 33
-2.20676 10.3811 -12.0302 42 49 28
2.23948 6.93919 -1.31315 23 26 35
2.3784 -0.278115 -7.00342 41 47 23
-12.6291 -10.63 2.2827 65 78 69
-3.16488 13.2241 0.254167 16 29 34
2.93879 4.44678 -3.10301 55 69 35
-0.394388 13.7092 6.42208 74 87 34
-6.41192 12.8048 6.70475 2 3 15
-9.10985 9.5098 1.94133 9 6 19
5.88976 -3.65272 6.5897 54 66 37
5.51326 -9.36726 -13.9648 40 54 34
1.94159 -10.0158 -14.036 30 44 30
6.62789 -5.64864 0.947081 22 46 35
-6.33511 12.8301 4.60434 3 8 16
-9.30873 -5.46252 -12.8705 81 88 32
-0.208935 13.3252 7.70404 75 87 32
5.45379 -4.37033 8.73573 27 41 2
-11.863 1.05641 -10.2562 74 79 49
-2.20412 -6.61403 11.8645 64 79 24
-12.1779 -9.56982 10.9822 75 84 55
-1.97356 -5.94663 -13.7347 73 83 35
2.33496 0.303822 9.50719 64 78 22
-6.98962 2.27946 11.6783 76 87 50
2.19781 -2.99751 -9.20343 67 84 43
0.382737 -8.32748 -14.0855 59 67 9
2.23624 -0.222639 -5.27263 35 42 21
-11.8176 -1.01406 7.46674 66 77 30
-2.92217 12.7097 -0.945205 5 8 21
-10.9173 7.19102 8.46458 7 2 14
5.84709 -3.88769 2.47318 52 67 43
6.11849 -1.8167 1.77383 61 60 13
0.880905 8.82269 4.29035 17 21 23
3.34082 4.91497 -3.99326 37 44 32
5.965 -6.53378 11.1955 14 28 11
3.38472 2.42661 2.93864 65 56 5
1.24702 8.20831 7.83702 26 32 37
1.5842 2.37671 11.3246 66 78 16
2.36356 -3.56529 11.1652 72 83 38
-12.6182 -6.35094 -4.72947 75 82 38
-2.21109 10.1165 11.852 45 53 23
-2.39347 12.8613 11.981 17 17 26
1.80782 -2.0563 -10.7082 67 79 32
8.17045 -7.81061 -10.8253 39 51 38
-4.94767 12.459 -11.9499 14 24 15
-12.631 4.12214 -10.3745 23 17 25
-2.93512 12.707 -0.726166 8 12 23
-12.0739 0.197253 -5.48577 73 84 31
-8.55517 9.99949 -10.0117 14 20 34
-12.7657 -7.05498 -5.57009 73 83 53
-3.25717 13.4105 3.41529 23 26 30
9.71463 -9.77952 6.72714 38 54 37
-12.0456 5.70413 -3.30932 1 2 10
-6.16945 13.6763 -6.37713 7 7 22
7.81436 -6.12764 11.6072 23 34 12
3.14174 -2.11405 8.84938 67 79 53
-5.39601 14.3621 4.73018 21 20 32
-12.9549 -9.30533 -5.15653 69 79 68
-8.27715 -6.40029 -13.4822 71 80 25
-8.81039 5.21536 11.5719 75 87 47
8.89837 -5.02827 7.8321 30 45 25
2.4979 2.46996 -3.89001 71 84 47
-9.91865 -4.88231 -10.4433 85 82 8
10.3118 -6.54958 2.85918 45 57 41
-10.3618 -9.5288 -10.8901 82 88 14
5.22195 -7.70414 11.843 25 40 30
2.33822 6.45771 -6.71094 17 20 25
2.24203 -1.9531 -8.23885 69 82 36
-4.60533 2.67859 -12.321 41 45 26
2.97943 5.9638 4.69228 1 1 12
-10.9139 7.30711 -6.2276 18 23 31
4.91908 -6.12714 -3.9896 31 43 47
-0.00517082 9.80984 10.0477 26 27 30
-12.7667 -9.50069 -1.34925 62 74 55
9.96947 -4.71387 5.52537 54 59 36
8.67669 -11.8153 10.4723 46 56 25
-0.767361 0.784388 11.5519 63 75 40
-5.29787 10.9186 -11.2119 54 62 11
8.72981 -5.55905 -1.96185 43 62 44
4.37 -6.07822 -6.82071 26 39 38
-0.540392 7.44884 11.7484 47 57 1
-5.21483 14.4205 -4.18715 19 23 33
-8.98767 9.75707 -8.69356 8 11 27
-3.33511 4.1337 11.4869 69 82 28
-2.05074 12.0678 3.82342 56 66 49
4.48332 1.42426 3.00463 65 54 7
-6.2522 5.59185 -10.8983 75 77 9
-5.22674 14.3284 7.62265 7 4 19
9.63086 -7.22537 4.08671 37 49 28
2.53422 1.30414 -2.7089 71 83 45
-10.8498 1.866 -10.5502 79 77 47
-4.57157 16.0441 6.37681 52 62 41
-8.03257 0.513271 -11.5531 45 44 4
0.58485 -5.20993 -12.8465 23 29 11
-10.2942 7.94431 9.76866 20 25 29
-7.12847 11.9531 1.69179 19 21 30
8.05565 -8.47241 11.6249 40 57 30
5.82329 -5.80867 -8.14914 25 49 50
0.155247 9.18855 12.3388 18 22 31
-11.9396 -0.0236292 -0.350317 68 78 27
-6.88144 3.47792 -10.8917 75 79 18
-0.341566 10.0827 -0.455626 10 16 29
-1.30313 -9.11779 -13.8543 72 83 38
2.49848 6.34714 5.74478 29 30 41
-7.36358 11.4926 -3.98719 11 14 26
2.55853 3.72112 -2.63781 65 77 51
-1.33905 11.1714 -6.41202 20 25 22
0.939293 8.63876 10.1489 20 22 31
2.07286 7.17787 11.813 24 28 31
-3.33901 7.33724 -10.9728 69 79 33
-12.1312 3.79414 -7.34612 20 22 28
-11.9276 -7.77424 11.2913 70 82 57
10.0212 -9.15377 -1.39401 28 42 29
-0.764376 10.1292 -8.60748 8 12 20
-4.16599 14.1676 -5.53353 17 23 29
-10.8265 7.51045 -2.11906 26 32 38
-10.4025 8.16858 -8.39703 3 4 21
5.1202 0.03438 0.846237 62 56 11
-12.2481 -4.5596 3.73343 66 78 34
5.32867 -4.91391 9.99417 25 42 25
-2.99677 7.55247 -11.0088 67 75 42
-3.55341 -4.04301 11.7868 69 84 23
-11.3415 7.0314 2.53733 12 11 21
2.72401 6.13492 10.5839 8 3 19
-12.5285 -8.813 4.02141 73 83 67
-0.00193214 9.43161 -4.21593 19 20 25
2.61237 1.83214 -0.111629 71 81 51
1.22391 -4.82956 -12.0237 23 32 14
-7.26666 -12.3182 12.3911 34 40 8
-3.04726 1.14204 -13.5543 19 13 3
5.14941 -8.30168 -13.8694 33 46 24
1.39927 7.487 10.7089 10 7 21
0.563602 8.93132 12.3546 18 20 22
-0.968376 -3.28615 11.6926 63 76 23
0.979116 -0.463513 11.4725 66 76 13
-0.191921 8.5433 12.4236 10 7 14
5.81633 -3.74259 2.77092 56 70 49
-12.7985 -8.40518 -3.48684 66 77 58
3.28777 5.59519 -4.35185 15 18 22
-10.9844 7.15226 -4.89997 18 19 28
-10.6865 7.83461 -7.40295 23 24 30
-3.22428 5.69814 11.4728 67 81 40
-1.86231 -4.41695 11.7718 65 78 44
-11.5696 -8.0716 11.9196 79 93 68
-1.4442 -3.07258 -13.6542 68 76 45
-11.8715 6.07867 -5.02344 10 11 24
-10.6587 2.59358 11.5784 78 93 47
9.85246 -5.33606 1.46942 41 47 29
-5.51878 14.0438 -3.57658 11 9 24
8.17077 -6.33312 -2.92466 29 47 46
-5.06477 15.0108 5.6788 4 2 16
7.83352 -4.82787 6.20413 25 28 25
4.72254 -6.24244 11.6125 36 53 28
-10.7965 3.81014 -10.5623 65 67 15
-8.41683 -1.82113 -13.4154 60 66 34
-6.60516 -10.2282 12.3007 86 97 53
0.525728 -3.34918 11.6302 65 76 8
-12.0873 -0.725334 -1.28495 67 78 36
-11.6808 6.19064 7.61925 7 3 17
-5.83699 13.6147 1.28867 12 13 27
-12.6253 -10.5267 2.39106 66 78 70
-0.602093 8.8281 12.4107 9 10 15
-6.57675 8.99815 -11.0156 59 65 19
8.13648 -9.85437 -10.1379 38 51 37
-8.94734 9.68311 -1.29837 7 3 11
3.44332 4.92424 8.53869 50 57 34
1.01072 -0.628717 11.4779 64 76 11
-12.2218 -6.94993 5.45092 70 82 42
-12.7684 4.75994 -1.45629 16 20 21
-12.5003 -4.61995 -5.49706 73 82 41
-6.22174 13.3129 -6.87019 20 25 37
-8.91085 9.64923 5.9645 2 1 13
-11.7712 2.35245 2.48023 63 73 43
-13.071 -10.8025 -4.68078 58 70 60
9.42693 -5.93172 -2.63075 24 35 28
-5.13409 11.2914 11.5621 39 49 31
-12.3172 4.48018 3.36771 29 33 29
-11.8599 -2.00927 6.54139 68 76 43
3.42164 -1.76204 1.28738 92 105 72
-11.9792 -4.76536 8.8953 70 79 30
0.268503 9.10722 12.045 20 23 33
-8.35851 10.5462 -1.79498 17 19 28
10.1217 -11.4775 5.04191 49 64 36
-11.9528 -0.617267 2.11436 68 80 26
-11.4723 3.34045 9.74773 63 70 28
1.92128 -1.79613 -10.5776 67 78 40
4.29532 -6.03997 -5.43869 17 40 41
-5.95928 13.4322 -2.08296 13 20 23
5.0652 -11.2638 -13.9079 40 48 25
1.51875 7.55156 -0.276514 1 3 24
-3.28913 13.0183 3.70241 32 42 39
-11.817 -4.94571 -10.2237 80 81 5
4.05492 -7.6988 11.942 17 32 12
-1.99509 -3.13411 -13.6057 75 79 33
5.16473 -2.73443 4.53061 22 21 22
4.59105 -6.09437 -5.89802 21 39 38
-0.487108 10.1686 -4.59628 11 13 19
3.32335 4.80806 3.20353 38 45 35
0.149231 -5.06875 11.7144 60 73 30
-3.33506 13.4522 -7.48017 27 27 37
-10.7541 7.51057 2.68634 15 21 32
-12.2274 -2.26163 -9.16624 79 88 30
-2.07523 11.7133 -5.67264 8 18 26
2.63296 6.13914 8.28289 7 3 19
-12.2776 -3.32962 -1.02868 66 77 36
9.85706 -5.23832 2.26221 43 46 27
8.11756 -10.0424 -10.2539 37 50 36
-7.38095 11.8562 -11.0995 29 35 44
2.64647 2.79305 0.342831 67 78 45
-10.5226 2.58148 -10.5761 76 77 34
8.1526 -7.00797 -8.96121 40 49 47
2.32437 6.42516 4.9402 9 3 22
2.74673 -6.29373 -13.6967 22 41 33
0.325268 8.74732 -5.06016 6 6 19
-0.371168 -8.29189 11.9074 62 75 20
-0.533539 10.1719 2.30175 9 11 25
4.57547 1.07789 1.98595 61 43 4
6.71125 -4.98933 5.15328 14 28 24
-12.0378 0.307287 -6.33286 75 84 37
10.0063 -11.5148 5.94966 54 70 43
-11.617 3.22441 6.39467 61 71 42
-7.18974 -5.45671 -13.4815 73 79 30
-11.1684 -10.2423 12.1775 83 96 55
2.90706 -5.21012 -11.2577 37 51 32
-4.74581 15.2953 6.68122 8 5 19
6.85354 -1.01676 6.1339 57 48 6
-1.59255 9.10556 -11.9364 55 65 33
5.11387 -6.10477 -4.35167 29 43 39
0.81089 8.58432 8.38554 5 2 15
-4.93902 14.6225 10.7401 30 35 31
-0.0562954 9.50897 -7.45753 22 28 24
-3.86249 10.1625 -11.2023 55 64 23
-12.4659 -10.7148 8.24785 77 92 58
2.29563 -1.69 10.1822 74 88 50
3.74933 -1.21711 8.74954 67 76 54
7.72716 -8.31247 -7.90133 18 39 45
-9.43764 -5.93317 -11.2648 82 87 19
-5.10715 3.32476 -11.0156 72 79 26
-2.22247 12.4637 4.17919 54 66 37
-11.1556 -3.58583 -10.4591 81 80 10
-9.47656 9.19845 -0.551928 19 20 27
-8.65893 9.9543 -6.09371 6 13 27
-11.7314 6.54079 -3.54494 30 30 35
-7.53221 1.01826 -11.3444 81 84 15
-12.1894 4.94911 11.0753 49 56 27
8.50813 -9.34375 -6.70536 32 46 45
-11.7954 -2.89475 9.6424 67 77 36
-0.00737762 -8.58455 11.9121 64 77 11
-12.2276 4.49918 6.4707 30 34 26
10.195 -6.18657 3.50043 32 42 26
-8.05544 11.0362 -6.02561 13 8 26
5.27332 -4.96611 -10.8499 37 46 25
-8.14947 10.9782 -7.45587 14 14 28
-11.4559 -5.22957 -10.416 85 87 19
-12.6154 -10.2196 3.64765 72 85 70
-9.15922 -2.62174 -12.8338 69 76 46
-3.69315 2.16969 -11.3219 56 52 9
-9.87736 5.40428 11.9216 47 63 28
10.2425 -11.7685 4.51344 31 48 30
-9.64094 -6.07377 -10.7834 81 87 18
-8.55732 8.80611 -11.949 14 10 17
6.61484 -6.35898 -8.26278 21 48 58
-0.482704 10.2134 -1.13734 10 9 17
0.185059 9.60656 3.3847 6 5 17
-10.6101 -10.4904 -10.889 85 87 12
2.54673 -0.400163 -3.00525 64 75 35
1.29882 7.96158 7.92566 15 27 33
-1.07951 10.6259 -6.76946 10 11 20
-4.60485 1.80626 11.6346 73 85 44
-0.490545 14.7223 6.9455 75 86 34
-1.73737 -8.51159 -13.6731 72 82 22
-10.1191 8.18469 3.81533 12 8 23
-12.6476 5.47971 -0.600704 8 7 17
-9.32801 9.18784 9.49596 25 27 27
9.89276 -10.5933 -1.96025 37 52 43
5.35285 0.577156 5.22125 63 47 3
-0.341007 14.2636 6.24712 82 94 43
-12.9927 4.64593 -11.0091 26 30 37
-3.30327 16.3746 7.39991 60 73 28
5.46067 0.385319 8.40332 60 44 6
-7.09095 12.3037 5.27743 13 15 28
1.30331 7.42751 -4.48603 3 3 19
-10.6184 7.20465 11.7597 11 7 19
5.94928 -9.37946 12.0061 27 38 12
-2.77605 12.6971 -5.9674 1 11 17
2.07956 4.83289 12.0297 54 65 10
0.137564 9.64699 2.34455 14 18 28
3.87124 -2.87495 1.08825 82 94 50
-8.05678 8.6283 -11.6542 26 18 26
-4.47417 14.482 -0.589244 8 5 23
-11.8205 2.36319 0.738478 65 75 37
-6.43846 12.5544 -3.33381 2 3 19
3.98036 -2.67286 8.73942 63 78 52
-11.4761 6.67938 -7.74409 8 8 26
-11.9111 -5.893 10.0304 68 77 31
1.06509 8.28329 11.0627 31 39 36
-7.53385 -7.95556 12.0596 84 97 56
9.37189 -11.545 -3.20415 36 52 52
1.97892 7.18853 -0.733675 0 0 6
-0.457254 14.376 6.74531 72 84 31
0.320345 -0.571766 11.5235 63 75 5
9.92897 -6.96843 4.01993 41 53 32
-3.93716 15.1022 5.02978 72 81 43
9.9284 -8.96811 3.71962 35 53 29
-7.20198 11.8651 6.93514 19 18 25
-12.6016 5.54789 -9.59478 7 7 23
0.251259 8.70771 -9.3542 14 11 20
-11.8461 2.62867 0.147603 65 75 39
-0.605071 11.7718 8.45234 52 59 18
4.48779 0.863771 0.978441 66 60 8
2.34973 4.02167 11.3119 56 69 17
-0.430146 -3.39559 -10.9925 74 85 35
1.65529 7.26211 -6.8542 5 4 15
-6.16087 12.9487 10.5331 3 2 19
-7.47744 11.4575 9.49146 6 6 16
4.83186 -6.07747 -12.6073 27 39 24
2.16343 3.94338 -9.61576 60 71 27
-7.77631 11.2275 11.2382 12 14 15
-12.1827 -1.88371 -0.871027 67 76 51
-11.188 -9.40224 -10.494 81 82 6
-11.9582 -10.3132 11.6213 70 84 43
-9.84756 8.5973 -9.40917 6 19 26
-1.97587 11.6924 -5.01982 7 14 23
8.55398 -10.3685 -5.71695 33 47 52
5.13497 0.808079 8.56342 59 51 1
-12.3526 4.35758 0.456264 30 38 24
-3.00995 -0.816559 11.6837 68 81 39
9.94565 -8.16381 -0.872997 24 43 28
-6.13484 12.9469 10.9285 2 2 11
-4.64656 14.3104 -9.58208 18 25 36
-9.87286 7.7347 12.3427 43 45 43
-1.6411 -7.35431 11.9369 63 75 32
-8.37456 -3.25309 11.7705 80 94 50
1.41412 7.46598 6.59824 12 12 25
-10.0847 8.30001 -4.74077 2 0 15
-6.53843 6.00804 -10.8656 73 80 11
-11.6133 -4.06403 11.4276 73 84 47
-3.23279 13.1109 -1.97378 12 17 27
9.59571 -9.97464 8.14713 40 54 36
4.66094 -5.13073 -9.21951 27 42 31
-4.37764 16.2801 7.11026 55 67 43
7.36842 -7.47503 -8.12993 19 42 49
-12.8113 -11.5456 1.23335 57 66 50
6.90409 -4.81436 2.9054 27 41 21
-10.9312 7.14955 -1.14734 3 11 16
3.24135 -2.0674 1.30093 91 104 52
-2.88456 -6.91311 11.948 66 78 35
-0.0689716 5.09537 11.3208 62 74 34
-4.74816 2.60617 -11.2833 64 74 39
-12.1829 4.1088 -1.15212 42 51 30
-1.79944 11.8655 12.1673 17 15 27
-9.37045 -7.09664 -12.334 82 87 24
-0.698343 10.4412 11.7337 10 7 23
-12.3682 -3.97552 -2.70538 68 79 27
4.16771 -8.89983 11.7123 53 66 18
3.13647 -0.834658 8.76027 66 78 53
-11.8348 3.17261 -2.54367 64 74 50
-8.84921 9.70345 3.50251 0 0 8
-11.813 -7.95677 11.6581 74 86 58
3.94476 -3.88789 0.2423 53 65 40
1.61579 7.50715 12.4017 28 30 28
6.33941 -12.0573 11.7121 29 48 22
3.58888 -2.01887 1.22658 91 103 56
-9.51416 -0.873611 11.7244 80 94 62
-7.3515 5.36727 -10.8007 73 79 23
-3.72881 13.9957 -0.414549 0 0 15
3.41058 5.42358 9.5979 36 43 37
-5.82038 -5.72855 11.7684 76 90 37
-10.7212 7.29082 9.29928 5 3 13
1.91492 -2.80511 -5.14817 16 25 19
-0.276381 12.9576 5.12353 82 95 50
0.266539 -3.37924 11.6549 63 75 6
0.0309258 9.58884 9.98425 25 32 38
-8.32794 -8.99552 12.0787 85 98 34
-12.4716 -7.4925 2.16969 70 81 59
3.0458 4.73709 -7.99058 56 63 41
-2.54194 8.23069 11.3465 65 76 44
-11.5264 2.46367 10.084 67 76 35
-5.80326 13.8717 3.83393 6 7 24
-10.9752 7.24056 3.78818 2 2 12
2.46489 -4.32009 -10.4429 28 40 21
-9.63776 0.562145 -10.6828 79 78 12
0.066452 9.00412 -3.79515 22 33 38
4.14779 -4.86971 -2.09113 18 34 25
-6.12683 13.0563 -3.54957 15 17 30
9.99575 -9.87722 -0.316385 34 51 30
0.051693 9.30908 -3.21232 16 21 29
-9.1657 -4.99052 11.8458 83 96 42
-1.20963 4.36786 -11.0841 68 78 25
-4.14945 7.58632 11.4569 69 83 22
-3.96869 -1.78619 -13.4109 77 83 6
-1.96441 12.457 8.80816 55 66 37
-12.123 4.24458 2.9313 43 51 29
6.5556 -0.672054 7.98877 58 41 5
-9.81026 8.40638 1.08963 8 11 22
8.85501 -9.48087 10.902 50 64 35
7.74641 -7.12346 -11.1916 21 34 29
-3.01338 12.747 0.345251 8 16 28
-1.36393 11.0759 -9.46988 27 32 35
-8.23101 10.8593 9.39102 25 27 28
2.89381 4.45637 9.02197 64 75 28
6.94137 -6.49978 11.3019 25 40 21
3.57389 -7.81 11.966 39 52 31
-0.732059 10.259 -2.98478 3 10 18
1.97573 7.21655 -2.03053 3 2 12
-10.6882 7.33505 9.69574 4 4 15
2.83468 6.12912 8.57713 5 4 16
-2.83101 12.6873 -4.26556 5 6 17
2.8867 4.4811 -1.7348 56 71 45
5.2791 -3.75657 1.19027 68 79 53
6.16491 -1.81481 3.7405 54 51 13
-2.13206 -1.17328 11.5999 65 78 28
-4.89709 3.95177 11.5119 71 83 28
1.36499 -2.66553 11.5793 64 79 14
-12.1105 -2.74874 4.01106 68 75 43
-9.20818 6.41365 11.9057 32 37 27
-11.8456 3.4057 -8.48982 32 34 38
-11.4598 6.75251 -9.94976 13 6 24
-11.9612 4.08163 4.08632 38 46 24
1.9536 -5.20208 -6.62439 13 22 21
-11.662 -12.0465 11.9357 44 45 23
-11.0622 -8.4268 -10.4305 80 81 12
-4.20962 14.3424 -0.0363445 8 6 21
-8.29075 10.4605 0.850752 4 4 14
3.3349 4.88868 -1.63877 29 35 30
2.12856 7.01318 10.2108 5 3 16
2.67802 4.17589 10.6843 72 85 23
-12.2911 -2.12013 -7.53654 77 86 43
-0.771767 11.7389 8.61423 51 58 25
-2.32198 12.7743 9.90995 11 15 30
2.10963 -1.2434 -9.34813 70 83 37
-12.3228 -5.14714 1.38109 71 82 41
3.17017 5.9267 5.69278 4 1 20
-8.48411 10.2343 5.7414 6 8 15
-8.61629 9.95151 -6.55892 6 14 29
3.04351 -5.64936 -3.34457 44 53 30
-6.2952 -10.466 12.3024 84 96 48
-8.95762 8.01342 12.5782 21 23 29
2.4601 -4.96343 -8.59758 69 78 54
2.59424 6.24064 4.03867 18 13 30
2.31002 -1.68829 -3.74635 15 18 15
2.55842 6.12478 -1.08129 10 14 26
2.81412 5.84931 -5.37676 6 3 13
4.94343 0.906408 2.25309 62 50 6
3.70563 -4.00661 9.66152 55 68 27
-12.2206 -1.42683 -9.17117 79 87 40
-8.19886 10.6565 10.1505 13 11 18
3.38336 5.42379 -3.68532 33 36 32
-3.73656 14.5004 8.89726 14 17 24
1.45423 7.49485 4.75421 13 13 28
1.97275 -4.68825 -6.24239 24 28 24
4.19893 -0.0265484 0.780571 80 87 59
-3.64251 0.595439 -14.3019 54 56 9
-12.6486 -10.66 3.51904 73 85 76
1.81339 4.41553 -11.7857 52 59 18
3.10673 4.55535 3.74974 55 68 42
7.05158 -6.10249 -0.717914 26 46 36
9.72865 -11.259 -1.93888 37 53 48
1.20941 8.24751 5.38452 1 0 14
0.416834 -0.590288 -10.7353 67 77 30
2.16536 -3.29703 -9.46459 65 82 46
7.92266 -5.89305 -0.922728 28 55 38
-0.44448 10.1614 -0.385942 6 13 26
-4.09938 13.9392 -11.4335 23 26 28
0.295376 9.44818 5.19204 12 18 27
-9.38122 9.08644 3.25235 5 4 12
-12.0697 -0.98496 1.10376 64 74 32
-6.67657 -3.0768 -13.3499 73 81 13
-11.9227 -0.644728 4.64191 66 75 41
-11.8647 -0.805492 6.15287 65 75 39
-12.6408 4.41825 -5.92932 12 14 19
-6.58399 -2.85853 11.7105 76 90 63
7.36375 -4.74768 7.54261 41 58 45
7.61435 -8.36657 -6.46221 29 44 49
-9.95448 1.82116 11.6135 80 93 59
10.1971 -6.31622 -2.20907 39 47 33
-6.0711 12.7909 -2.83311 6 6 22
2.12187 7.25809 4.00512 8 8 21
2.62145 -2.33209 -2.04662 72 82 40
1.25734 7.52548 -4.39951 10 8 23
-4.48674 9.96353 11.4078 67 76 47
-11.6478 0.890776 8.86886 70 76 56
-11.4713 0.698251 11.3101 69 81 54
2.9917 6.0513 8.7538 11 13 20
9.71925 -5.1422 1.48555 36 42 26
-12.9706 -11.6457 -2.59913 44 51 40
-12.475 -9.39682 5.87328 75 86 76
-0.9855 13.5487 8.31206 61 73 11
-1.74018 -3.16908 -13.6527 72 78 40
0.249599 -4.41127 -10.6895 67 78 42
6.81608 -5.33843 1.89824 42 50 26
2.36627 0.321194 9.79303 76 86 35
2.09436 2.44108 -10.3653 71 82 36
-5.00243 -1.9528 -13.4557 75 81 13
-5.27376 -2.18663 -13.4674 75 79 27
-4.25894 12.231 11.8277 23 32 22
-10.9042 7.35148 -11.275 23 28 42
-9.10955 1.66508 11.6709 80 93 50
4.02598 -5.2167 -13.6208 44 58 33
-8.46539 10.4391 -4.23595 25 28 35
-6.69824 12.2711 -11.914 18 13 27
2.43436 2.40466 -5.04218 70 84 45
-6.04617 1.89906 -13.0346 29 29 31
8.28185 -8.92912 -8.50296 33 46 54
3.16151 -3.60117 9.53245 66 77 40
-0.274343 10.1876 4.30259 6 7 19
10.0993 -9.52012 -1.11888 45 63 37
-5.52513 11.8703 12.3949 6 7 20
-6.0848 13.4123 -3.92046 19 30 35
-3.8377 -11.5897 12.1062 59 70 34
-11.802 3.32561 -0.646547 61 72 40
0.279587 9.81571 5.66834 38 41 44
4.16584 -6.03044 -6.90205 24 38 37
-9.35144 -6.22618 -13.0104 80 84 48
2.19273 2.76523 -9.90989 72 82 34
5.03768 -4.77732 0.627974 29 39 26
7.79646 -5.91461 -9.15122 31 46 55
2.33237 6.71915 -0.69982 1 0 10
6.2207 -5.16941 9.76829 34 45 33
-12.2108 -3.82966 2.83589 66 75 37
-8.3066 10.4804 1.51482 20 22 31
6.38337 -5.2822 9.88181 22 35 21
5.38135 -4.16839 4.12348 17 22 8
-3.19342 13.5981 0.290391 17 21 23
5.81516 -3.03818 2.98247 64 74 58
-9.95678 7.39524 -11.774 5 8 12
1.81959 7.38004 2.09955 5 1 23
-3.39373 13.4531 4.16525 51 63 39
2.59208 3.61301 -1.6637 69 81 57
-2.99176 12.4586 12.4493 26 27 33
1.97679 -2.30253 -4.71285 23 26 23
-7.76366 7.84741 11.677 50 58 23
-1.41003 11.2198 -7.40987 22 27 23
2.86057 4.9628 -11.4384 30 31 23
4.34292 -4.25111 0.54166 66 77 37
-9.33781 8.62405 9.94289 6 2 22
-9.9074 6.63324 12.5455 32 26 37
-3.31692 13.7393 -2.17773 0 2 15
0.88192 8.63956 8.09579 15 16 24
-10.0784 5.66212 12.2875 24 32 22
2.20408 -1.92565 -8.60768 69 82 44
-11.9726 0.838459 -8.40196 78 86 45
-5.32457 11.4196 -11.5765 48 55 18
6.7248 -6.04762 -2.10523 31 52 34
5.90538 -4.96549 -9.16016 43 66 59
-6.65345 4.19315 -10.8404 79 77 5
1.95591 7.03542 -9.07627 12 12 17
7.64899 -5.47445 1.80347 31 51 38
-12.0478 -2.00269 3.59084 66 75 46
3.28377 -3.60613 -0.831621 72 82 35
-0.630865 16.0841 6.4324 72 86 31
1.59987 7.39689 7.38151 6 5 20
3.10359 4.80742 -7.45503 50 60 40
-2.56571 15.83 7.20354 60 73 35
-9.08967 -4.04025 -11.5042 86 93 27
-12.3714 -10.0976 9.21992 76 87 42
2.62334 -1.43498 -0.471376 71 82 47
1.92598 4.57509 -11.8816 53 60 17
2.11154 -1.08155 -9.52562 74 87 40
-13.1393 -11.4625 -7.21297 55 64 42
-6.66351 12.4301 -8.95932 13 12 31
-11.8389 6.27105 -3.4146 13 15 24
-3.69413 15.7792 5.01354 61 68 48
-11.8951 -2.07002 5.97567 67 76 35
-11.8662 3.25425 -2.76866 64 74 47
5.1867 -6.36403 -12.1949 35 50 35
-1.03261 16.5926 6.20125 57 71 44
-9.52608 8.90019 2.6271 15 17 22
-6.54008 8.3091 -10.844 67 73 24
-6.23455 12.7318 -4.99727 18 23 29
-12.1196 5.84062 3.12937 11 5 19
-12.6203 -10.1696 1.5845 65 78 63
10.0082 -9.01772 4.65088 42 57 36
-11.0263 2.76101 -10.5476 75 77 34
-4.67041 13.7846 -12.1029 34 35 39
7.18087 -5.09388 3.41819 25 45 33
-8.71377 -10.5209 12.3192 85 97 55
-11.9602 1.03308 -2.07898 68 79 40
5.31608 -5.29264 10.4503 26 38 26
-12.3415 -5.47403 0.628385 67 77 37
0.0101233 1.66889 -10.9959 72 82 31
-12.6463 5.05741 4.78011 27 25 27
-12.3204 -6.54387 3.58236 69 80 60
-12.6468 -6.24895 -8.44408 78 87 39
-6.03632 13.551 -9.04001 18 20 34
-8.39055 10.4664 -1.43225 19 23 29
0.0951004 9.35107 11.1081 22 25 34
6.8004 -6.10496 -1.22597 40 62 42
-12.5488 4.28499 -6.20278 15 17 23
-3.69797 13.765 -7.84084 3 3 13
-1.84224 10.9748 -11.8675 20 21 23
2.24969 6.52915 -5.10411 18 21 28
2.32541 -1.67592 -7.72775 65 77 32
-4.01244 2.54077 -11.2154 71 77 13
2.38811 -3.17728 -3.78473 5 9 5
-6.04667 12.8502 -1.30659 6 8 24
-2.81081 0.171483 11.6088 67 80 28
2.16456 2.22794 -9.52598 58 65 25
-4.38391 14.3845 0.71645 32 36 37
-5.0042 2.55371 -11.5011 53 57 30
-12.7029 -9.22959 -0.968119 64 76 55
-8.68682 7.59033 -11.4223 27 22 13
-12.5928 -6.42336 -2.81356 69 81 35
-1.2015 3.16318 11.4402 63 77 23
-12.5632 5.49984 0.0818672 10 8 22
-11.8525 2.78804 0.842805 63 75 34
2.72734 2.5347 0.654888 76 83 45
1.17658 7.8108 10.5989 16 15 30
5.89158 -4.77076 9.71055 36 50 32
-11.6679 6.64755 -2.75644 27 28 35
-2.99361 16.0634 4.98612 59 72 40
-12.052 5.80882 -2.98951 0 1 12
-0.902771 10.6415 11.9566 11 16 27
-3.07071 1.21404 -13.3867 21 15 4
-8.80216 8.95963 12.4749 22 24 33
0.098814 10.5594 5.70658 59 72 58
-4.12383 -9.75344 -13.7314 72 82 7
-2.22381 13.1623 8.28677 59 63 21
5.63334 -7.73995 -14.0525 38 51 27
-12.0827 -1.76348 0.343967 63 73 37
4.56372 -0.528751 8.80805 59 66 10
-0.523682 8.46285 12.2973 8 9 8
-3.59847 12.4711 -12.1074 25 31 31
-6.77605 -8.51069 -13.6302 75 81 15
-2.09819 11.8437 -2.04144 12 20 28
-6.98079 12.2586 -4.34198 21 23 35
-3.28016 8.45602 11.3867 66 80 47
7.74799 -8.4585 -6.55536 24 40 45
5.95402 -1.94719 2.26303 69 73 38
-10.5634 0.907617 11.6494 80 94 66
-5.62497 5.20611 11.5083 71 83 30
-11.1602 -3.47573 11.777 81 95 69
-4.72784 14.4721 -3.3115 19 25 32
5.26884 0.513489 3.13981 62 44 6
-10.9063 -3.02892 11.7494 82 96 66
5.90078 -6.40007 -7.75183 35 58 67
-8.52089 10.0662 -0.593539 0 8 16
-5.31217 3.28085 -11.0277 72 79 26
9.50858 -12.3839 8.41571 52 65 38
-8.46782 9.97025 1.87641 5 9 21
3.29082 5.83262 6.98377 9 6 20
-1.66843 11.795 9.50454 13 13 29
-10.636 -9.30804 12.1862 87 101 72
-5.91566 13.7164 -10.907 13 13 29
1.02022 5.87426 12.1195 43 52 18
-12.675 -6.87922 -4.37132 70 83 39
9.97834 -9.60558 -2.43675 35 48 48
-12.3319 -3.73702 -3.01 70 81 25
2.14531 -0.476431 -8.87471 68 83 41
4.93542 -3.99257 4.22442 11 21 23
-12.3295 -4.22173 -0.867528 65 75 29
-3.06855 -10.9905 12.1983 60 74 38
-8.87925 9.67139 6.12081 3 2 15
8.97709 -6.99484 9.79548 41 55 36
-5.65256 13.5672 1.96661 27 28 15
-10.5613 6.73095 -11.6118 9 5 16
-7.31582 11.3942 -1.02452 8 14 23
-0.824394 16.0033 8.22442 54 69 36
-10.9585 -7.95344 -10.3949 81 80 9
-4.95112 -10.1444 -13.7175 72 80 2
0.781623 -6.6183 -14.1126 59 67 25
-12.0157 -3.84607 7.63712 70 80 42
1.79888 7.28834 -1.49828 0 1 14
-6.33912 12.7548 4.0337 21 24 17
-3.47849 13.7879 2.61283 4 1 16
-4.19819 15.6577 5.12921 58 65 27
-12.6335 -5.99224 -5.25355 72 83 36
0.548904 8.48162 -9.0883 11 11 18
-12.3369 -6.67624 3.40656 71 81 65
-11.9321 -9.12349 11.5241 71 82 47
0.866058 -0.263235 -10.7562 69 80 52
-12.4493 -5.91557 -10.2614 77 81 34
-5.421 14.2713 9.1922 6 1 13
-2.4906 10.056 -11.9202 49 58 34
-11.1723 7.08179 6.92351 8 5 21
-10.2713 1.69551 11.6099 80 93 65
-7.16125 -1.181 11.7532 79 91 35
1.02347 8.37371 11.1916 32 39 36
-4.86333 -11.514 12.1367 73 84 34
3.04529 -5.69731 -8.06096 47 66 71
-3.3787 16.3189 5.67639 58 72 47
5.85146 -5.73303 -11.4235 4 25 22
-7.55173 11.128 -0.417463 2 0 14
5.87602 -2.71317 7.56203 65 78 50
-7.12555 11.9458 0.699879 22 25 36
-1.28334 11.4043 9.38692 19 21 24
-12.6703 5.40713 -6.27279 19 18 30
-9.91812 5.57492 12.0826 32 46 22
-4.31745 15.8092 5.25548 54 62 33
-9.07787 -2.21457 -11.1267 79 86 31
-12.0722 5.88025 -5.65678 12 12 23
9.32879 -5.32623 -2.20984 30 40 30
-5.37404 -0.193544 -13.4313 68 71 5
8.83022 -11.4181 10.5893 42 57 24
-12.8618 -8.35284 -6.20022 73 82 55
-12.1985 -1.9517 -5.53502 74 82 34
2.42525 -1.60978 -7.19689 26 25 3
-8.95379 9.57994 11.8231 19 15 31
-2.14443 8.59992 11.3387 60 73 36
3.3846 4.93015 1.51269 32 32 31
-12.37 -7.3517 3.17224 69 81 52
2.14299 -1.07594 -8.98314 70 84 35
-2.11428 -6.28104 -13.7506 73 83 21
-12.6064 -10.8476 4.83517 76 88 77
-8.82101 8.46389 12.5202 26 32 29
-12.3618 -3.24189 -4.20024 70 82 31
4.63687 -0.214785 0.736347 82 85 54
5.99668 -5.79637 10.4121 21 34 28
1.66922 7.43451 8.45505 6 5 20
-4.46584 14.0703 -11.5717 31 35 33
10.0074 -10.5965 1.6564 42 60 38
-3.0834 13.4777 10.0737 25 34 37
9.93392 -5.8666 2.99634 35 43 29
-0.230991 13.6743 7.87907 70 85 36
-4.38514 2.63473 -12.4118 39 41 24
-10.3333 -11.7417 12.5869 60 66 34
7.03786 -6.04859 -12.5543 39 47 39
-5.47265 14.172 -7.20879 4 7 21
-11.4427 3.48292 10.6338 65 73 25
-2.74505 13.1591 8.96731 52 62 37
-12.2923 -6.07808 4.39926 69 79 50
3.50695 5.42129 9.05083 44 48 44
9.95912 -12.3627 1.94485 42 53 24
2.03192 3.23084 -10.6307 68 80 32
-10.8845 7.56401 -7.17728 30 29 41
-11.8367 2.85171 -1.7522 66 77 45
0.817331 4.71469 -11.5045 57 63 32
5.88309 -0.033083 3.67923 61 46 5
-11.6694 -2.85882 10.8944 69 77 29
4.03214 -7.58251 11.9678 14 30 14
-11.7122 1.67309 6.85344 70 80 50
9.44395 -10.6275 10.3222 49 66 27
-7.13119 11.8448 11.5345 4 5 12
2.40305 -2.59212 -7.30487 36 44 14
-0.512436 14.8944 7.29435 76 91 28
2.19965 -2.75528 -8.95042 67 81 47
-7.65616 11.2511 8.63065 7 2 11
-0.066926 9.52566 -5.55209 20 24 21
-4.76535 14.3089 -10.0485 18 24 34
6.48727 -0.729502 6.64534 62 41 1
-2.17095 -3.22112 11.7445 65 78 44
4.91782 -3.53875 8.64075 59 71 41
-5.79481 11.6728 12.4516 7 6 23
-7.71187 11.2252 -6.69289 11 15 29
-12.4984 -6.73138 -10.169 74 80 21
-5.11946 14.4582 8.13943 6 6 22
-12.2669 -6.65148 6.40161 72 82 57
9.18888 -6.29952 10.5673 42 58 36
-9.27464 9.31339 9.85724 23 22 31
-0.344837 -0.180641 -10.8142 41 42 33
0.421684 8.86077 6.47093 9 11 25
0.530272 8.63786 -7.07143 3 7 11
-11.9568 -4.11552 8.4917 67 76 38
-7.35523 11.3698 -3.14006 6 9 22
9.92441 -7.87471 -1.6569 22 38 27
2.51272 6.40924 6.90785 4 2 20
-10.3316 -3.60522 -10.5025 82 80 8
8.98712 -4.32511 5.76206 75 88 75
-11.4198 6.31619 11.3297 17 13 19
8.07833 -4.74432 10.319 26 46 24
-12.5067 4.8565 5.84526 22 27 22
-10.4725 7.26441 11.957 9 5 21
-3.42322 15.7432 4.96866 62 72 43
7.44636 -5.45118 11.423 26 45 20
-12.6609 -10.6504 1.63699 56 63 53
-1.92116 9.71062 11.8516 41 50 20
-9.26226 9.04446 10.8799 26 26 33
-4.34098 7.29651 -10.9415 69 78 33
-11.5234 6.75817 0.238504 19 20 26
2.17292 6.30632 -9.13469 18 27 26
-12.4256 5.57807 2.59868 18 16 25
0.572531 -3.76319 -10.6147 68 80 44
5.69742 -2.38438 4.51398 42 46 57
9.03411 -7.52229 7.65223 33 47 32
-2.1235 12.5714 11.7924 31 42 39
-3.03322 6.30076 -11.0003 68 77 28
-6.60493 12.5731 -11.6399 15 14 29
-10.0848 -0.318228 11.709 81 94 71
-4.89587 -2.23902 11.7085 71 86 39
2.21267 7.03202 1.08847 17 25 34
3.33142 -2.09923 8.80625 67 79 54
-1.31992 10.7937 -10.2776 29 36 35
-7.50672 11.3735 -5.33479 13 18 34
6.9138 -7.14541 -4.44786 36 47 51
-12.2438 -3.02058 -0.547861 66 76 38
6.44087 -5.8392 -8.5096 33 55 59
-12.6108 -9.98848 1.92523 68 80 71
-5.40643 14.2715 -6.4424 2 7 19
-12.5412 -10.7288 7.06579 75 89 66
-12.5688 4.37015 -4.82858 13 19 17
2.24207 -2.99314 -8.19967 63 75 34
-2.11659 12.0162 -3.74099 16 22 32
4.47561 -5.96368 -2.48063 22 39 31
0.171267 8.90391 -7.11043 6 5 15
-9.91213 8.33902 2.17233 6 8 18
-1.90741 -1.42762 -13.8554 58 65 27
8.21913 -7.84512 -8.8972 26 44 44
-12.3062 -5.88129 1.93077 69 80 51
2.48757 2.59256 -4.53008 70 84 48
3.36183 4.96007 -0.516768 27 31 34
-6.84642 12.3321 2.44037 7 8 21
4.10329 -5.09843 -9.85856 29 47 28
-1.73096 8.42266 -11.6248 54 64 31
-0.179167 10.7531 8.41392 56 66 33
-7.12337 -2.35923 11.7863 81 94 45
0.246906 9.94179 5.13734 36 40 46
-7.31213 12.0003 -11.1263 23 26 42
0.812241 8.70131 9.71128 13 14 23
6.31548 -4.71574 4.81006 23 37 36
0.0211143 9.90963 1.22843 2 10 20
-0.635654 6.77404 -11.5294 54 64 24
-12.8173 -8.29022 -4.37088 70 79 45
-8.10579 -10.2662 12.332 86 100 63
10.1576 -9.74823 3.90569 44 61 38
-4.42904 15.4683 7.5657 42 42 32
2.0795 6.33767 -11.2927 18 25 28
-8.47981 -11.5894 12.3993 79 85 43
-3.10749 -8.52214 12.0364 67 81 28
-1.57274 7.10314 -11.1696 60 69 25
-11.9346 2.01325 -3.41087 69 80 31
-12.8637 -8.88076 -3.13286 58 67 57
-12.1189 -5.783 7.49414 68 80 37
10.2569 -6.57305 4.23428 46 56 41
0.116337 3.25906 11.4079 65 78 30
-7.38503 -7.69271 12.0345 83 97 55
4.51147 -7.23661 12.0561 20 33 2
-11.4236 1.98113 11.1964 68 81 47
7.33434 -7.49471 11.7222 32 48 34
-11.8434 -3.39641 9.48633 68 78 35
-12.7474 -8.06451 -2.60543 65 75 56
-1.80333 3.78561 11.4555 65 78 38
9.9259 -5.86179 1.79786 40 50 36
4.73602 -6.10075 -3.07152 37 44 26
-8.23695 10.8912 -6.02166 21 22 35
-6.40973 12.689 -7.78821 12 18 28
-3.92494 -0.582682 11.6825 69 82 32
-2.50406 4.64286 11.5024 66 78 37
-9.32445 -7.12856 -12.1305 82 88 25
8.81971 -6.11561 -2.71743 19 35 32
8.37859 -5.47676 11.4408 31 48 26
-2.42808 12.5373 12.4171 27 31 32
2.01436 0.642828 -10.2929 68 80 29
-11.1085 6.16693 -11.5867 9 8 17
-12.0744 -8.81367 10.9469 73 83 57
-8.48186 9.96563 -2.66697 7 12 22
6.14367 -0.514565 2.17602 61 43 5
9.64311 -8.47236 0.0387812 32 47 24
3.14097 5.01734 -9.71885 31 37 25
-12.7475 -7.59101 -5.81672 71 82 46
3.39274 5.4264 -3.53795 33 36 32
-9.92807 4.16174 11.5856 82 94 46
-7.14024 11.9756 3.4012 18 22 30
2.54417 -1.54473 -3.37585 29 34 15
-6.20416 13.2486 -6.28373 18 21 34
-11.4384 -12.0354 12.2213 31 31 15
-9.39687 6.24623 12.0104 23 28 23
-9.78545 8.40301 3.61634 0 2 16
0.258849 -6.11462 -13.9076 61 70 14
-4.46358 14.9999 8.20702 15 16 30
-5.00995 14.178 -11.458 61 60 58
-7.50809 11.4431 -7.2762 17 25 32
5.18146 -4.2562 5.0831 23 26 24
-4.28341 14.4326 3.13845 3 4 24
-12.5392 -11.3018 7.38043 73 87 72
-7.36108 -3.55396 11.7779 78 91 57
-7.75757 -4.82173 -13.337 71 80 6
-2.79344 12.5402 -9.94832 17 16 19
-0.38693 14.9582 6.11137 76 86 54
-10.0244 8.37746 -6.44596 10 6 24
5.09563 -7.4335 -14.06 31 49 17
-9.93226 0.998646 11.6776 81 95 62
-10.1561 8.18109 0.354467 5 2 18
-9.70592 8.51965 0.968048 8 12 22
9.74618 -6.10474 8.25248 35 48 33
8.53668 -9.44978 -6.07825 32 46 50
2.04644 0.0638771 -9.87062 70 82 35
-1.21511 10.4578 -9.90071 13 23 27
1.22281 6.24333 -12.0552 52 60 17
-9.57166 8.63885 8.47532 6 4 19
-12.0437 -0.960487 1.42897 65 75 32
0.558197 5.5273 11.4116 55 65 7
0.400766 -10.2764 -13.9197 59 71 15
1.31882 -3.35206 -10.7059 69 78 43
-1.31656 -10.7654 12.0312 60 72 35
-9.7248 0.860349 11.6929 81 94 59
-5.25017 1.02222 11.6455 74 87 35
-10.8868 7.12897 -2.73664 12 15 25
-3.81517 7.42762 -10.96 69 77 35
-8.06365 2.54089 -10.856 79 81 11
6.30967 -6.96488 -4.87937 35 42 48
-8.53317 9.95677 2.49916 4 1 12
3.65267 2.18235 4.11445 66 50 6
3.36561 -2.08809 1.26925 91 104 53
-7.03515 12.1358 0.209097 21 25 36
-12.7302 -8.05106 -4.15882 71 81 29
-4.16008 -3.30576 11.7441 70 83 33
-5.1632 14.2688 -8.16361 18 25 31
-10.3263 -1.17334 -10.5473 79 78 14
-13.1525 4.70208 -10.4284 45 44 48
-3.65389 1.52058 -14.0808 32 26 21
-6.62378 12.417 -5.62748 9 11 12
-3.13155 13.2097 1.45431 9 17 24
9.47183 -12.4943 -3.25335 20 26 24
-9.9024 5.99862 12.35 15 22 24
-12.0686 -3.39678 6.06044 68 77 47
-12.8139 -7.60719 -8.81265 79 88 43
-12.2085 -3.7759 2.16823 65 76 19
0.133659 9.24697 12.1009 19 28 34
-12.0598 -0.239137 -2.80831 70 80 41
-8.4348 -4.19839 -13.4597 67 73 26
-0.804251 -10.3407 12.044 61 75 32
2.62312 3.49692 4.6964 66 75 53
-1.22588 10.8565 -8.02957 26 32 29
7.12183 -7.67371 -6.0502 30 43 46
-4.51685 15.1804 7.90326 7 11 21
0.118466 -4.28269 -10.6402 68 78 41
1.81157 7.23281 -5.8471 4 3 16
-7.87771 4.3203 -10.8156 77 77 15
3.32737 -4.66552 -10.5818 22 35 14
2.87083 6.0878 5.46154 5 5 12
-11.9891 3.51842 -9.85847 30 33 30
-12.8118 -11.3092 -0.512318 68 81 68
-5.55354 -9.68951 12.1993 82 95 42
-12.0556 -0.820859 0.737797 63 74 29
-3.08445 12.9431 0.780462 17 18 29
-11.6416 0.946288 8.64722 70 78 53
4.49295 -8.67686 -13.8176 46 58 25
5.97726 -0.0407104 7.18051 64 53 7
-9.42578 9.32895 -5.47936 2 0 9
-11.7268 3.5968 3.30597 59 69 37
-12.6919 5.32481 -7.93682 28 32 33
-8.22659 9.15967 12.5785 28 34 32
-8.53156 2.36632 11.6846 79 91 46
-3.47882 16.3764 5.43373 59 71 53
-12.0303 0.0866184 -7.28616 76 86 43
-9.94403 -0.783922 -10.7761 83 87 10
-12.9035 -11.0241 -1.98312 65 78 63
-12.7183 -6.77352 -6.67509 78 86 35
9.34597 -5.78895 8.43558 40 49 36
2.08732 -3.05692 -10.3453 64 77 49
5.89403 -4.51069 1.5798 41 51 39
-11.9005 -1.40701 5.92719 68 78 35
-7.96614 3.15429 11.6392 78 91 42
-5.62472 -0.507636 -13.4257 71 75 0
-9.47732 -8.13329 -13.3046 73 77 29
2.84137 6.06467 8.241 7 2 17
-7.40185 -2.11673 11.7935 81 95 38
-11.3321 1.00646 -10.5078 79 80 50
-12.7493 -11.015 1.04225 63 77 65
5.85577 -6.64008 -6.46009 35 44 45
2.20601 -2.82379 -9.08524 68 83 45
1.65739 7.56788 2.56135 11 10 25
3.77761 -0.579782 8.76857 63 75 28
-10.6751 7.44574 5.31307 4 10 18
3.54771 -5.98053 -3.55656 52 66 32
-0.0115057 9.70897 -2.48805 9 11 21
-0.862461 -6.75276 -13.9477 73 79 21
0.58639 8.85828 11.9314 11 11 27
-2.05608 11.3382 -10.6178 13 16 22
-9.63405 8.87336 -11.1165 30 38 48
-12.6566 -6.40221 -7.86757 79 86 44
-2.13055 -2.60383 -13.5196 75 81 20
