ply
format ascii 1.0
comment Created by Open3D
element vertex 1386
property double x
property double y
property double z
property uchar red
property uchar green
property uchar blue
end_header
8.28232 -0.667794 -6.36122 64 69 79
-1.34972 11.818 -6.68472 43 26 27
-0.223836 -4.92878 -12.8087 56 66 72
5.67236 -5.2271 -9.58615 9 23 11
-0.616992 10.0615 -12.9471 29 20 20
1.14043 3.27043 -12.3831 53 64 73
0.506075 2.41425 -12.0776 55 65 74
1.10724 7.07568 -12.6709 39 34 38
3.10459 -3.39884 -12.7136 57 58 66
0.34274 -0.0387297 -12.3618 58 66 70
-1.17565 0.824156 -15.1267 70 41 6
-1.59961 12.5412 3.04842 43 28 28
7.13961 -0.06071 -6.36184 51 59 71
7.5344 -1.15918 -6.27025 56 65 74
7.16604 -4.18982 -6.34605 55 58 67
-1.51076 14.0244 5.27348 74 83 92
2.02917 0.91869 -12.2728 53 64 73
0.884718 7.66989 -6.37947 34 20 22
7.54048 -4.56005 -6.43785 57 55 63
-4.74143 9.83086 -12.211 48 56 65
-2.19041 16.0461 5.24999 74 83 90
-0.905138 10.0028 -13.5473 44 46 53
4.1381 -4.35469 -11.2218 25 24 11
4.09954 -0.77124 -11.3666 57 57 63
0.337154 -2.50055 -12.389 53 62 65
6.77344 -2.37838 -6.41995 55 63 73
-2.58533 14.0431 -3.8816 33 18 17
-3.16609 15.9485 5.24379 68 76 85
0.561797 8.54982 -6.87387 42 29 31
0.597524 8.97919 -0.701904 35 23 25
4.52659 1.2147 -13.2956 40 25 24
-4.12214 11.2146 -12.7094 49 57 60
10.6529 -8.09474 2.772 51 39 35
7.27914 2.76623 -6.77639 78 44 25
8.62429 1.22685 -7.73959 70 47 25
8.15388 1.7472 -7.56163 78 43 2
3.72158 2.767 -6.49135 56 26 7
0.397624 15.2219 6.90002 59 77 83
-3.83336 8.78688 -11.9324 59 70 80
-3.5077 0.624676 -15.1677 60 37 8
-3.50129 -3.63313 -15.6526 53 66 72
-4.31539 11.0995 -12.7286 50 57 61
-0.150121 1.28107 -12.6283 53 55 59
-5.4389 2.70312 -13.2126 76 40 4
1.13342 6.59574 -11.5502 30 19 20
-6.21684 1.97416 -14.0871 57 46 27
-0.565232 9.86958 -8.82709 34 23 23
2.4652 4.82361 -9.90922 36 26 27
-0.0780468 10.0575 4.52135 40 25 25
-2.13509 14.0702 5.29607 73 76 89
-0.397859 5.30556 -11.9944 48 61 70
-2.8381 0.491856 -15.144 78 45 4
0.00839424 9.29599 -5.07156 34 20 21
-1.93354 14.0617 5.31744 77 80 92
5.85065 0.948739 -7.74485 59 45 31
0.865604 7.90545 -2.11636 52 54 63
10.4179 -5.70506 -5.39733 60 57 57
5.96288 7.95444 -1.70195 68 41 5
-2.14542 12.9249 -9.16981 38 27 28
8.54115 2.80761 -6.93148 75 39 0
7.78917 -0.456454 -6.21551 54 66 73
-1.61397 12.5657 2.86035 44 29 31
2.78292 8.16089 -1.47767 60 40 5
7.31657 0.0590038 -6.3624 54 59 68
-2.05271 12.2807 -8.41423 31 17 18
7.90196 1.22791 -7.84195 75 50 37
5.11966 -2.03815 -6.35956 54 64 76
7.72362 -4.86463 -10.553 46 42 35
0.818152 -3.74226 -12.4467 53 59 63
-0.715236 12.7551 5.12636 75 81 91
2.25876 2.34036 -12.9024 53 57 65
-2.89918 14.3205 -7.22282 32 10 9
-4.96582 11.9266 -13.3601 56 59 64
-3.58703 16.4237 5.47877 54 65 70
-4.10295 2.57167 -13.3755 63 39 12
-6.39361 9.34623 -13.0578 51 58 63
-1.39091 11.601 -11.5367 35 25 23
5.03217 -2.00353 -6.35869 53 64 75
-1.74619 12.4336 -2.67841 34 17 17
4.66142 1.0062 -9.77406 30 9 11
7.1039 5.39994 -4.20537 81 41 0
1.21887 6.20969 -13.4617 41 45 50
0.152818 1.48265 -12.3391 54 64 70
10.3359 -5.68373 -5.37624 63 60 61
1.19829 7.51542 -6.22426 39 25 25
-2.48783 3.63298 -12.2233 61 55 55
-0.441588 13.2285 5.06888 75 78 90
-0.0709543 -1.03384 -15.7475 57 58 59
8.662 -5.53766 -6.7993 37 32 29
-0.372529 13.1611 5.06297 75 78 90
4.29785 -2.24981 -6.75328 57 62 71
9.5938 1.94441 -7.50221 70 51 27
-0.439579 13.104 5.0687 76 79 91
3.80056 2.54103 -6.72699 45 23 15
-0.945204 11.5018 -0.050108 46 28 33
-2.46288 0.810415 -15.0549 60 40 8
-0.0579247 8.74363 -9.06473 34 25 25
-5.30186 11.1953 -13.2975 55 60 62
-1.05144 10.784 -13.2878 44 36 37
-0.152799 10.1551 4.22733 35 24 24
3.91898 3.24888 -5.73312 82 46 9
4.62795 0.909298 -10.6221 34 17 21
3.87682 2.12503 -8.71448 35 15 19
4.9546 2.79169 -6.24114 72 37 5
-0.645581 12.6875 5.12062 75 80 91
7.42363 -0.627243 -6.23728 54 70 85
8.76575 4.23847 -5.63993 72 41 9
-3.23817 1.22231 -14.5482 66 35 5
-3.67507 10.0682 -12.1097 54 55 60
4.00063 -0.187333 -12.4916 56 57 62
5.47112 -1.08638 -6.35478 58 63 72
-4.7945 7.65878 -11.9039 53 70 81
-0.724928 -2.76715 -12.9316 54 62 71
-3.68988 -2.41225 -15.3077 57 72 81
2.26595 -4.56292 -12.6981 23 25 13
6.98089 2.85429 -6.68647 75 44 23
6.5435 -5.1192 -10.2958 16 32 18
-0.2249 9.1402 -12.4504 36 19 20
2.49257 4.90766 -7.27353 40 28 30
2.06396 4.68764 -13.5002 51 57 60
0.489087 7.77993 -10.5666 36 29 30
5.24409 -1.99333 -6.31758 55 65 77
4.07085 3.66545 -5.21689 77 42 0
3.82725 1.93761 -13.6736 46 46 51
-6.21173 2.66238 -13.423 59 43 21
-0.0238709 9.9908 4.66633 34 25 25
6.66976 -3.49402 -6.37952 55 63 73
-0.952321 5.85069 -12.0653 46 58 65
-0.874306 13.9109 5.13459 65 74 83
1.74748 5.74313 -11.9736 33 24 24
4.70809 4.53916 -4.78914 68 36 9
-0.843808 -4.2188 -13.0294 53 65 74
3.85359 7.51862 -2.37324 59 42 23
-2.57205 13.7831 -5.18619 35 18 21
0.439059 12.9248 5.37128 63 75 83
-2.00145 14.0653 5.31339 76 79 91
-0.874595 11.0825 4.42909 36 29 35
-4.07541 5.74865 -11.7576 49 64 74
-2.68048 14.9144 5.25079 65 71 81
8.14315 -0.260397 -6.27276 47 54 59
-1.05195 16.077 5.23384 66 78 87
-4.56251 5.75317 -11.6692 53 68 80
0.402584 16.313 5.83996 63 73 77
-0.203061 2.33696 -12.9199 55 56 59
-0.862823 10.329 -13.4683 43 42 42
4.09043 -4.26702 -9.02794 53 59 68
-1.25861 14.8692 5.23489 72 81 85
-0.264136 3.16286 -12.6362 58 61 67
8.85269 4.27444 -5.55286 69 41 7
6.71023 -5.16589 -7.5178 36 42 47
0.454569 14.516 5.35912 65 81 86
6.65039 4.14577 -5.49483 70 35 0
0.325377 8.47064 -12.4066 47 40 44
-4.29594 -0.00423431 -15.9168 70 39 9
-4.7869 5.8926 -11.6909 47 64 76
-0.87003 -4.25028 -13.157 57 67 76
-3.28051 3.07031 -12.9068 50 45 31
-2.32471 -1.19354 -16 59 46 45
4.11789 2.1339 -11.3547 39 27 28
1.53468 6.0133 -13.3541 40 43 47
2.10096 8.12324 -1.43083 61 41 23
7.70508 1.57849 -7.68469 77 43 6
6.67419 3.57086 -5.85773 79 44 5
-6.77829 8.27796 -12.6987 46 54 60
0.158267 12.8881 5.09363 67 77 84
1.24241 6.63446 -12.2813 36 30 28
2.0318 5.12686 -10.2165 33 16 17
5.6114 1.89154 -7.24255 75 45 7
8.48206 -5.49906 -8.94995 27 22 13
1.93301 5.83339 -7.25694 33 18 20
-7.19046 5.83011 -11.9564 47 61 69
-3.71875 11.5442 -12.8386 44 58 63
-0.367157 12.4791 5.09091 75 78 89
-2.13113 -0.614976 -16.2108 74 41 14
-2.45656 9.40593 -12.3787 56 62 69
-3.41352 10.3818 -12.2543 53 57 62
8.2671 -5.50264 -9.26199 22 12 2
-2.49338 13.936 -0.961565 43 16 17
-0.222818 10.2092 3.01466 40 24 30
-0.185738 8.81392 -9.74194 35 29 29
-4.07125 1.65526 -14.3298 53 38 15
4.10253 -3.47942 -8.1243 39 25 36
1.28385 5.82141 -13.4909 47 51 60
-2.61295 13.9244 -2.09566 33 17 16
2.99162 4.27128 -5.24378 57 37 15
-7.53899 4.4195 -12.0561 52 61 63
0.5215 14.0325 5.91492 58 73 76
0.163646 7.01266 -13.3901 53 60 68
-0.691595 -0.580569 -16.2199 72 37 8
-0.839138 11.94 5.12508 56 64 75
0.601456 7.66226 -10.1344 35 22 27
8.60594 0.97917 -7.48657 65 50 40
0.10212 12.5147 5.07768 66 71 76
1.60577 -2.44563 -12.4936 58 64 71
6.02314 5.7737 -4.08609 66 41 16
-0.436696 12.5467 5.09742 75 79 90
3.50684 2.69862 -12.782 34 15 16
0.256009 8.42045 -10.1178 33 19 23
4.76491 3.55605 -5.71748 68 38 0
5.19569 -5.09065 -11.337 10 22 7
10.7281 -8.11591 2.03771 52 36 35
8.48286 3.87586 -5.91526 76 43 7
4.54636 1.20678 -13.0035 36 18 18
0.56197 7.68419 -10.4721 35 26 28
-5.95749 11.2346 -13.4122 51 59 63
-4.87878 10.5442 -12.6948 50 57 64
-1.25354 11.3664 -6.37252 39 21 21
6.74948 -5.01917 -6.60356 50 56 67
8.82637 -5.67198 -6.90924 29 23 13
-3.6006 -1.67631 -15.3827 52 68 74
-0.863335 10.6925 -8.36999 42 33 32
8.30514 -5.4111 -8.89745 25 22 13
4.07301 -1.86701 -9.69986 37 34 38
4.39887 1.10766 -9.17311 30 7 9
3.54328 6.31489 -3.20378 66 38 10
0.218622 8.98618 -4.103 38 25 28
-2.73484 16.7725 5.14925 69 75 78
4.17408 2.18099 -6.83163 41 25 19
1.51989 -3.76197 -12.2634 50 60 69
2.67127 3.35393 -13.6249 50 57 58
4.61306 1.01751 -13.4138 51 39 39
0.193762 7.80432 -12.3019 36 37 42
5.74146 -0.815216 -6.31393 61 68 74
4.63921 1.0828 -12.2667 30 12 11
-1.58577 11.0085 -13.4779 52 51 57
-0.354421 10.287 -4.65696 41 29 31
-3.73583 4.85944 -12.0408 51 60 63
-0.673856 10.3888 -9.65787 42 31 32
-4.96606 -3.37847 -15.4181 48 65 72
-1.49954 11.9628 -13.1364 46 25 27
-0.996866 6.56113 -12.2646 49 61 72
-2.46654 13.7246 3.52349 52 50 55
7.48429 4.02512 -5.70514 84 54 25
2.59284 3.89867 -11.7089 30 14 16
1.64735 -3.27558 -12.3128 54 65 72
9.22935 -3.39122 -5.9419 64 66 70
-4.45306 3.01479 -13.036 59 38 12
-0.673145 -0.373377 -12.998 56 58 64
7.99595 2.78292 -6.87844 79 40 4
2.26174 4.91212 -9.18641 33 21 24
7.27798 -3.27894 -6.33106 53 63 73
-3.43709 -3.1109 -15.5623 49 65 71
-1.86987 1.8145 -14.0969 69 44 14
0.0320749 12.9497 5.05382 76 78 91
3.78834 2.93969 -6.02385 80 40 2
-4.34423 2.9594 -13.0872 57 39 16
3.11561 2.23065 -13.638 51 59 62
3.99212 3.99195 -4.984 81 50 6
-0.0323396 -0.984097 -15.6629 57 57 58
0.512348 8.21958 -9.17378 33 21 22
-2.57884 14.0489 -4.6153 39 22 20
8.25507 4.1322 -5.63041 73 44 6
-0.268023 -0.326704 -12.3231 58 61 68
3.8518 2.25508 -13.2079 35 25 26
1.35683 6.92228 -6.84155 38 24 26
3.38737 -1.577 -12.4688 59 69 76
1.3097 6.69446 -8.96424 34 25 23
-1.31856 11.6178 -11.2415 46 35 34
2.93841 7.28141 -2.37369 64 44 16
4.07125 -3.96017 -9.80937 30 18 24
-1.03043 3.27931 -12.568 51 64 69
6.25148 -0.00976229 -6.37103 52 58 68
-3.06263 11.1314 -12.8547 48 60 63
5.55523 -3.02749 -6.52105 59 67 76
7.60413 1.2334 -7.81216 72 46 25
6.78542 3.90942 -5.70416 67 38 0
0.393941 15.1036 6.9386 62 78 85
-3.00903 10.3715 -12.3238 52 60 67
1.28263 6.49654 -11.9737 39 32 29
6.30083 -5.32946 -9.59703 18 30 17
3.95316 -3.2556 -12.362 57 60 62
-1.5059 11.4542 -13.3883 48 48 48
-3.47026 -2.32615 -15.3919 55 68 79
-2.79094 9.18165 -12.1685 58 65 70
5.90008 3.79186 -5.76031 66 38 3
2.6128 -3.28204 -12.6284 52 57 65
-0.193681 8.9803 -11.5216 29 23 25
-7.04963 3.18872 -12.8379 56 42 19
-6.92122 6.34205 -11.9848 51 65 73
2.06453 5.89042 -5.84002 44 29 34
-1.65709 4.02328 -12.0682 54 64 69
1.46493 6.60485 -5.86228 40 30 35
-5.17031 12.0108 -13.4281 55 60 66
6.54522 -5.12064 -6.9483 58 62 75
-3.74425 -0.28886 -16.0963 66 40 2
-5.11524 -2.28572 -15.4088 52 62 68
2.47709 3.50526 -13.6163 51 57 60
3.88322 2.23262 -13.0083 35 22 24
-0.489676 10.4203 -6.3397 44 27 32
1.10458 6.78726 -12.9957 42 39 43
-0.0573535 6.54955 -12.9031 51 56 65
0.586743 7.72765 -8.90008 36 23 27
-2.93088 7.56632 -11.905 53 62 69
-3.65863 8.49959 -11.97 57 63 72
5.55144 -2.93129 -6.5196 58 65 75
-8.62147 3.81271 -12.0855 44 61 65
-2.48415 7.49603 -11.8948 51 59 63
-5.93538 -3.36779 -15.5454 50 68 74
4.10943 -2.85683 -11.7455 56 59 63
3.07737 3.53383 -11.8229 33 26 27
-0.387914 -3.26373 -12.4509 56 66 76
6.30248 -5.1023 -10.776 30 25 13
0.343037 7.49919 -13.3269 49 50 54
-1.87887 14.818 5.35041 75 80 89
10.9668 -8.16194 1.73682 49 37 39
-0.823104 -2.89364 -13.5278 59 68 76
-0.0397892 5.60143 -12.3789 52 62 69
-5.62937 3.22294 -12.7779 59 40 13
2.58722 8.48161 -1.24526 64 40 1
-0.506363 12.6143 5.10425 77 81 91
-0.230677 8.84975 -9.1276 30 18 20
3.26138 1.97883 -13.6339 53 62 63
-1.58094 12.3458 1.85063 40 25 26
2.6398 4.66962 -10.0377 41 34 34
2.08908 6.86918 -2.60281 69 51 47
1.87992 0.681282 -12.1381 52 66 73
1.42118 6.82715 -6.27227 35 20 19
3.95402 2.25725 -6.83483 42 25 22
-0.831689 -2.84999 -13.6422 61 70 78
-5.80974 9.51868 -12.703 49 57 63
-0.769689 5.59609 -11.9516 52 65 73
-3.04989 -0.0724587 -15.603 75 42 8
-2.20666 12.3896 -8.93252 31 15 14
-5.81348 -3.23531 -15.4839 51 68 75
-0.394929 9.62608 -9.84745 38 31 31
5.5381 -5.14494 -9.89641 44 17 8
1.05184 -1.57977 -12.053 53 72 83
-1.45941 11.7121 -13.2766 47 36 35
10.6655 -7.17273 4.44071 38 42 37
1.85972 6.05183 -8.86589 40 30 28
6.80493 -5.24644 -9.27974 27 27 18
7.52894 3.94151 -5.72393 87 54 25
-1.72778 -2.6017 -15.438 52 65 70
-8.53075 3.89547 -12.0659 50 62 71
-0.579804 -0.808711 -16.2135 56 44 36
1.38779 6.39224 -8.68004 37 20 21
-1.13501 2.39356 -13.6073 68 44 19
7.1435 4.38893 -5.37761 68 36 9
-1.45937 11.5685 -8.48574 41 29 30
-0.323034 9.01171 -9.28921 33 18 20
-0.829351 -3.28255 -14.7407 56 65 73
4.5592 -4.83693 -9.86666 25 18 7
6.7339 -5.256 -9.17709 33 34 25
-4.29031 3.18666 -12.7531 63 39 13
10.4056 -6.29489 -7.26986 37 41 36
4.16722 -2.71081 -11.3944 53 56 60
9.8891 -6.1162 -7.18232 28 21 10
11.1599 -7.65447 4.5837 44 48 37
3.56272 2.70436 -6.94282 37 21 21
0.124572 9.95829 4.86121 35 29 32
-2.11845 16.1032 5.24544 74 83 91
-2.07617 12.4056 -11.0838 32 13 14
5.0303 6.55825 -3.1341 70 40 10
4.09112 -2.90904 -11.8361 56 59 64
-2.81772 9.00062 -12.1549 57 61 65
-0.100954 16.8183 5.37317 58 59 62
1.42299 6.69457 -6.08335 36 21 24
-0.722384 10.1777 -12.1164 31 16 17
-0.141464 -0.186766 -12.3481 58 61 68
-5.38165 -2.2022 -15.407 53 61 68
3.93844 7.61777 -2.2715 60 42 22
1.63102 -0.156335 -12.1058 58 69 76
0.00870848 -3.522 -12.2931 56 60 70
-5.42183 3.86512 -12.1335 55 54 61
-5.91329 9.53838 -12.8016 49 58 63
-0.876602 -3.78214 -13.4997 59 68 76
0.249686 9.2086 1.24135 42 26 27
-1.78109 3.78839 -12.1357 51 63 71
-3.5293 -0.215062 -15.948 60 36 0
2.52314 4.80737 -10.318 36 28 28
-2.54134 14.0222 3.59481 55 52 58
-3.70482 -0.691219 -16.1856 60 41 27
4.2703 -1.83167 -6.65369 60 65 73
4.84793 -5.0147 -6.95079 57 58 64
1.86621 6.11035 -5.97413 37 26 32
-0.241108 0.0108881 -14.2465 61 62 64
1.23818 3.26671 -12.4671 55 62 71
-4.02254 10.3615 -12.2696 49 55 57
4.97057 2.47106 -6.69152 71 40 3
-2.38739 16.3024 5.18549 78 82 88
8.65905 4.68553 -4.92338 69 39 6
-2.75913 14.2376 -5.20702 31 12 15
4.24024 1.49922 -11.8824 29 11 12
-1.51391 0.549304 -15.3544 68 40 6
-0.268982 10.4482 0.27807 47 31 30
-0.345301 10.5909 -2.13298 45 30 33
8.39048 -4.31841 -6.39311 56 65 66
-0.804852 -4.18893 -14.4048 58 68 72
-1.48759 12.2342 5.11088 75 75 88
-0.935159 9.48065 -13.5436 51 52 58
1.90449 5.68997 -10.8037 34 24 25
4.51019 -4.35666 -9.79218 37 32 28
0.732431 7.15835 -13.4739 39 40 45
5.05732 -3.80809 -6.2968 49 63 76
0.433742 -3.658 -12.3424 52 57 62
8.43377 3.69057 -6.12959 71 39 8
-4.36441 2.55516 -13.4807 63 39 8
6.99857 3.79365 -5.76776 75 41 12
-4.70849 12.074 -13.2796 55 60 65
-0.242422 9.99358 2.83803 38 17 20
0.296609 8.30332 -12.5748 57 57 62
-1.20711 11.5422 -5.52536 36 22 27
3.90331 2.08882 -8.89174 34 15 18
8.67943 -5.31227 -8.6373 34 39 27
2.20596 7.1874 -2.26885 58 41 32
9.07791 1.98326 -7.40016 81 43 2
0.348488 7.68933 -11.6487 34 21 22
3.12876 4.6321 -4.41045 79 43 0
-1.66122 14.7286 5.30357 72 79 86
-0.15847 9.35201 -12.9491 36 26 25
9.35545 1.72589 -7.61723 73 45 14
-1.14752 3.50992 -12.3323 54 62 71
-0.673287 10.7631 -6.61688 42 29 30
-1.41919 11.5764 -9.27052 43 32 33
-0.709496 16.163 5.20597 66 84 91
-0.97789 4.22957 -12.0676 53 63 66
-5.10491 5.23327 -11.6322 48 63 75
-3.90763 2.2582 -13.7549 62 42 14
3.38112 3.02662 -13.1957 38 31 32
0.623387 8.60669 -5.25118 42 32 31
3.12954 1.81406 -13.5608 55 61 64
0.476896 9.91104 5.13992 44 42 43
-3.68353 0.279817 -15.567 65 38 6
4.18697 -3.25799 -11.209 48 45 50
-2.62099 13.5525 -6.08928 30 11 11
0.927426 8.76582 -1.04094 38 21 28
5.26622 4.44526 -4.87766 77 42 0
-2.36027 10.5047 -13.1212 54 60 64
-0.952289 8.46449 -13.2796 55 56 61
5.94493 -4.11696 -6.50906 53 61 70
0.404409 1.14135 -12.1046 56 65 73
-2.00916 12.8806 -6.56676 40 29 28
0.407357 8.89369 -3.28919 41 29 32
-0.953615 -2.57587 -15.0769 53 62 71
4.82319 0.688045 -10.4655 44 33 41
-4.16014 -0.0227966 -15.9287 70 37 6
5.99532 1.08779 -7.74822 64 43 19
0.27966 12.5873 5.18722 63 75 84
5.86787 3.57237 -5.80895 75 42 3
0.243279 8.52651 -11.6007 41 38 38
6.91309 -3.17648 -6.49615 57 66 76
5.73382 -5.13849 -8.98228 24 16 1
0.0973268 12.8862 5.06557 69 79 88
1.10373 6.34761 -13.4685 38 43 47
0.31858 7.56765 -12.7502 45 45 48
2.78387 4.44125 -6.49312 40 26 28
-3.6269 2.92454 -13.0403 59 45 24
1.75271 1.51642 -12.2961 54 63 69
5.75731 0.318634 -7.23617 49 47 58
-4.00948 8.66187 -11.8752 56 69 79
-0.369199 12.9126 5.06653 77 78 90
4.69125 -4.85779 -9.68391 22 18 6
-3.97904 10.1074 -12.1582 52 55 57
-0.645879 12.8118 5.11363 77 82 93
-5.80319 11.3075 -13.4349 53 61 64
6.99214 -2.08222 -6.14685 60 69 81
4.08722 -1.9828 -9.78091 40 41 46
-0.566192 16.5776 5.1544 69 75 81
-2.39014 3.71996 -12.1494 57 59 62
0.920568 8.423 -2.6363 43 32 36
-0.582485 16.7381 5.16375 66 68 74
-0.350694 15.0802 5.12698 72 77 86
-4.27326 4.29713 -11.9805 45 59 67
8.76425 1.23467 -7.72103 72 47 29
3.16493 1.85952 -13.5883 54 62 64
2.60863 3.89599 -10.4897 33 20 19
-3.88282 11.8461 -12.992 48 59 66
-6.18645 8.54735 -12.4311 45 57 63
-4.70765 2.10555 -13.9967 57 38 9
-5.71276 9.58009 -12.6614 49 58 63
-0.578713 13.301 5.07944 73 81 91
-0.268909 10.2211 -1.78884 36 22 24
-5.26284 10.6063 -12.9541 53 59 60
4.58168 1.01412 -10.5353 34 15 18
-1.54328 -0.265926 -16.0588 72 39 1
-1.94511 11.483 -13.4698 50 57 63
-0.922141 16.125 5.23083 65 81 89
-4.10885 2.48979 -13.4807 63 40 11
-0.278807 10.5426 -0.662741 45 33 37
1.24765 8.29492 -1.46189 37 21 25
8.23042 2.11448 -7.26959 81 44 7
-0.264724 0.474924 -15.3569 78 37 11
4.35077 1.24671 -11.2012 27 5 7
0.415187 5.2662 -12.571 54 64 72
1.77184 5.85228 -12.1959 34 28 28
6.44813 1.0217 -7.78217 63 45 22
4.30496 2.14357 -6.82619 50 32 21
-1.18169 16.916 5.17375 71 74 83
8.68383 4.23848 -5.66468 72 41 7
-7.61766 4.95627 -11.9155 48 62 70
3.48909 7.70766 -1.85419 69 40 5
3.02891 0.899464 -12.9865 56 60 67
5.51697 -5.08842 -11.3473 11 14 8
3.53426 2.2136 -6.9678 40 18 19
5.25088 1.54923 -7.20825 79 47 3
-1.742 -2.03141 -15.5111 52 65 67
-0.886272 -4.20228 -13.7125 61 70 80
5.10507 -3.01279 -6.48455 54 65 75
-0.309783 16.2319 5.15425 73 77 83
-1.50798 11.7637 -13.305 49 39 39
1.23343 1.7287 -12.2202 54 66 71
-2.53361 7.04108 -11.7992 45 66 76
9.58391 -6.03007 -7.90344 35 33 27
6.17132 5.99671 -3.90885 64 38 13
10.7394 -6.19854 -5.913 43 39 29
2.49834 4.19331 -12.5871 29 19 16
-0.0826769 9.71726 -6.29059 38 29 27
7.38826 0.159759 -6.37625 54 59 67
4.13098 1.78843 -7.61089 32 12 12
-2.5754 4.01044 -11.8895 50 67 78
5.7548 -2.53368 -6.47868 54 61 70
6.81472 5.26645 -4.28219 75 38 2
-5.22624 -3.64582 -15.5688 50 63 72
-0.646929 4.47323 -11.9555 49 64 70
-0.298512 12.536 5.07833 76 78 90
-0.123119 7.29739 -13.3015 53 58 63
8.30962 -1.88214 -6.32156 64 65 71
2.15488 4.96233 -10.2717 32 17 19
2.66066 4.64647 -4.74716 65 29 2
7.74414 4.59133 -5.11366 78 39 0
8.33069 -5.17737 -8.46357 34 41 32
-4.48572 11.2057 -12.8504 52 57 62
-3.83353 8.8568 -11.9258 59 71 82
-2.41938 7.77759 -12.029 50 58 65
6.82937 -5.06047 -10.5098 18 31 18
0.98774 6.51319 -13.472 38 42 49
-4.46544 0.533512 -15.401 72 40 3
-0.71824 13.4984 5.09137 71 81 91
6.42445 3.5191 -5.88469 77 41 0
-1.60027 12.4032 3.12336 39 21 21
-3.21651 5.32223 -11.992 52 61 70
3.78657 2.22641 -13.4271 40 33 34
1.55893 6.30054 -9.82324 34 21 24
-1.44646 14.58 5.26628 71 79 86
-0.179188 10.1974 4.03221 37 28 27
-0.833466 -3.56522 -13.0726 55 64 73
0.466879 0.631011 -12.2409 59 65 71
-4.27698 11.2123 -12.7641 50 57 61
-0.37953 8.92575 -10.0107 35 26 28
-3.9425 0.434222 -15.4743 70 38 6
-4.54352 9.41883 -11.9679 49 60 67
-1.01708 -0.607523 -16.2216 69 44 14
-2.69251 14.2296 -6.24727 34 11 10
4.29169 -4.15791 -8.11188 49 57 63
-1.5091 -2.29065 -15.4588 50 65 72
3.99216 3.64105 -5.22663 79 42 0
-5.87114 -3.29888 -15.5175 51 68 74
0.512875 8.47687 -8.66267 43 28 31
5.66323 -2.44992 -6.47812 55 62 73
-4.2703 10.8212 -12.5642 51 57 62
-4.29811 6.43418 -11.9921 53 62 67
5.41495 1.60647 -7.20995 78 47 2
6.71978 -2.72132 -6.50492 59 66 74
-3.48653 16.2622 5.38001 64 72 81
6.76593 -4.52181 -6.4711 50 63 75
-0.365627 9.02429 -9.76252 33 24 25
-3.26815 10.5606 -12.3517 50 58 63
6.91382 -5.19516 -8.87203 39 28 17
-0.482225 14.7898 5.14579 73 80 85
6.62577 -5.12899 -7.60118 32 40 46
8.63711 0.0181575 -6.3261 55 62 71
-5.71231 -3.38672 -15.5576 52 67 74
0.40346 7.49174 -12.571 42 39 43
-1.066 13.4059 5.14546 72 80 93
7.77938 -0.223683 -6.17779 58 66 77
1.29004 7.32538 -7.09703 43 27 30
-6.57139 6.44783 -12.0032 45 57 68
-5.71111 8.29542 -12.1641 49 63 70
-1.29733 7.64442 -12.3993 52 64 78
4.23172 -3.65499 -8.03464 44 44 51
7.49759 2.66932 -6.88647 78 44 9
-3.53308 -1.70418 -15.3741 52 67 74
0.933377 4.12662 -12.4403 50 63 75
-4.06898 -0.842385 -16.1558 55 49 35
-0.630754 -4.7094 -12.7869 55 63 71
2.65992 4.20961 -7.23568 34 18 21
1.71493 5.38969 -12.7577 33 20 20
-1.30113 -2.84735 -15.295 58 69 78
-4.91118 3.5864 -12.418 66 43 26
-0.474253 10.463 -5.47791 37 23 25
0.622056 4.58974 -12.3806 53 66 77
2.50491 4.96102 -4.45227 43 25 17
-5.01065 1.28756 -14.789 60 40 15
-3.55367 10.1728 -12.1592 52 54 60
-1.02263 -2.75707 -15.0377 56 65 74
0.804198 7.78579 -5.91557 35 20 21
10.8133 -8.18314 -0.0437412 46 26 29
10.4668 -6.2916 -7.13996 39 42 35
3.74758 2.78916 -6.3788 63 29 4
0.223991 7.71928 -12.2253 28 28 33
0.577806 7.61043 -10.6167 36 27 28
-3.53301 11.8932 -13.1131 46 58 66
-0.579767 0.121552 -15.6793 74 42 3
-5.31337 10.6882 -13.0256 53 58 60
2.72771 4.53757 -5.12549 50 29 8
-0.243822 1.60673 -14.356 64 47 26
2.88952 -4.30458 -12.5939 26 23 8
6.35688 -3.09345 -6.51428 60 67 74
6.20801 -5.03737 -6.88442 57 61 65
3.50023 2.93301 -8.45928 38 23 26
2.78821 3.63522 -7.16401 36 18 19
-6.49173 5.87849 -11.9962 47 57 65
-3.28091 5.58554 -11.8721 54 66 77
-3.88739 11.6132 -12.8645 46 58 62
4.22992 1.83533 -8.91954 38 22 21
-5.26735 10.8021 -13.0637 52 57 59
-2.57521 14.232 1.0996 31 15 17
-0.922326 11.2624 3.48869 35 25 26
-0.825202 -4.03518 -14.0214 62 69 77
9.63113 3.421 -6.45168 79 43 3
2.29794 7.23771 -2.21293 61 36 23
-0.642372 -4.59984 -13.1575 64 72 82
-4.16118 9.93606 -12.1418 55 57 60
-4.79917 0.468523 -15.49 67 38 0
-0.971012 -2.05172 -15.4 56 71 79
3.62014 2.36529 -8.38273 32 11 15
6.88277 3.57859 -5.8467 80 43 14
3.90131 5.52778 -3.61619 73 38 5
-2.65301 9.59173 -12.2305 56 69 75
2.43082 5.47972 -4.08906 46 27 23
2.76961 -0.533719 -12.5309 54 67 71
4.30227 8.85055 -1.17349 67 37 2
2.37826 -4.5304 -12.7068 23 23 11
6.09216 2.10402 -7.27049 73 41 3
8.3233 -1.97291 -6.31292 64 65 72
-0.227381 9.28656 -13.479 37 37 42
0.568558 9.73301 5.62235 50 46 48
-6.44852 7.84484 -12.2394 45 58 65
3.61716 5.2508 -4.05519 72 38 4
-0.410243 14.718 5.12374 71 79 84
-3.58814 8.701 -11.9925 60 66 75
2.49798 5.56419 -3.83871 59 31 16
-2.394 -0.777395 -16.226 66 43 26
-1.03255 14.196 5.1995 67 74 83
-4.1336 0.247789 -15.6685 68 37 5
0.170317 4.41706 -12.0818 55 67 76
-0.808023 -4.06429 -12.8651 55 66 75
7.52397 -5.18419 -8.9589 36 26 21
-2.04379 12.3955 -7.75107 30 17 20
0.493729 7.12054 -13.4902 48 55 63
-0.741647 10.3313 -10.8668 41 24 27
0.0653749 4.97538 -12.1548 53 63 74
-0.480718 14.7279 5.14321 72 79 85
-1.75188 10.0917 -13.4151 50 65 74
-0.899695 11.3357 1.73267 36 20 20
6.12966 -5.07107 -7.07461 59 66 68
9.59002 -6.03001 -7.38272 34 24 14
0.752666 7.44309 -10.6074 35 26 28
5.49777 -2.69912 -6.51282 55 61 71
-0.93751 -1.33074 -12.983 52 57 63
-0.253332 2.56994 -13.1905 58 60 58
-1.05152 3.19534 -12.6779 50 64 69
-2.21406 -0.113832 -15.8403 68 39 7
-0.576555 12.9298 5.09566 76 81 92
0.655361 8.49061 -6.07129 43 32 33
4.08072 -1.15911 -11.7305 57 61 64
5.54639 4.31426 -4.91443 79 42 0
4.04401 -3.23846 -11.911 54 60 63
-0.621899 8.69817 -13.4995 51 53 56
-0.995492 13.3373 5.13662 73 81 94
-1.38541 11.881 -5.3919 37 21 26
-0.891638 11.1161 4.21 36 24 29
9.79083 3.49963 -6.12382 83 43 2
-0.980689 6.66261 -12.2889 50 63 74
-1.01158 11.2807 -3.01311 34 19 19
-4.81996 11.3825 -13.094 54 59 60
-0.808132 -0.0713968 -15.8524 70 39 3
7.10323 -0.159529 -6.35214 59 64 73
0.676426 4.36913 -12.3268 52 66 77
-3.77389 6.02371 -11.8684 48 61 70
-6.78932 8.14544 -12.6105 46 54 61
0.60415 7.616 -10.4903 35 24 28
5.59163 -0.282502 -6.32079 52 59 69
2.94621 -0.333788 -12.5944 58 66 72
4.29464 -2.6636 -8.12185 48 55 58
3.38884 3.2459 -7.03605 43 26 28
-4.15139 11.5711 -12.8813 50 56 61
8.14604 -5.0637 -6.55761 49 54 61
3.18891 3.28639 -6.15838 40 15 10
-0.925057 13.2688 5.12779 74 82 94
-2.26286 4.67125 -11.7643 52 63 75
-4.0407 0.916736 -15.0569 65 38 7
-5.95921 11.5557 -13.3751 56 55 55
-2.48824 10.9275 -13.2363 53 59 66
0.0406594 12.5746 5.04541 65 74 84
8.9832 1.45949 -7.74419 75 41 18
1.81144 6.13674 -5.50188 40 22 23
1.06389 7.54043 -7.19607 44 29 29
9.57963 -5.41704 -4.91607 65 71 77
0.0501094 9.61998 -4.55677 44 28 29
10.5774 -5.9109 -6.0245 41 40 32
-0.413383 14.8418 5.12935 72 78 85
-7.7741 3.79288 -12.2329 52 59 60
0.400678 12.347 5.28113 66 80 90
-1.27604 0.306312 -15.5481 71 41 8
-1.05433 9.64686 -13.5407 49 53 59
7.53657 3.73254 -5.79805 86 47 19
-0.0641098 1.04279 -14.5539 57 53 39
7.54771 4.58244 -5.09562 77 40 1
0.152718 13.0765 5.10381 70 77 85
-1.49355 11.8803 -13.2083 46 27 29
4.75387 0.878391 -12.9695 46 33 34
-3.23203 16.5085 5.23268 69 72 79
0.160834 12.5801 5.11197 63 74 82
-1.22673 7.68297 -12.4567 51 63 79
8.88187 -2.30975 -6.02137 62 63 69
1.51099 6.176 -12.6906 32 27 28
3.08736 8.91422 -0.755999 64 36 5
-2.30131 12.9063 -9.91679 36 19 19
7.76948 -0.0868535 -6.19132 56 63 70
-3.70218 2.20756 -13.8029 62 41 7
1.80022 5.3245 -11.8309 35 24 25
2.84741 3.68995 -10.4433 34 20 22
8.15672 -3.80184 -6.38577 59 63 74
9.71134 -5.76746 -6.18031 43 40 31
-2.21806 -2.93333 -15.4615 58 65 78
3.44733 6.26595 -3.1885 66 37 8
0.127302 -3.34015 -12.2931 54 60 68
-2.27954 -2.80805 -15.443 56 65 78
8.11254 5.09747 -4.69274 70 44 7
4.02492 1.44837 -13.7207 53 53 54
-5.88423 1.79964 -14.1338 56 40 14
10.7516 -7.88712 3.19312 43 39 38
7.07786 -1.82794 -6.12752 57 66 78
3.83853 -3.49314 -12.6077 53 56 56
-5.63696 7.99858 -12.0953 49 61 68
-0.942296 -1.98985 -13.0999 62 71 79
0.259948 5.60204 -12.5786 52 61 67
-1.22962 0.696945 -15.2509 70 41 6
-0.299711 -3.25126 -12.38 55 64 72
2.61466 4.47385 -10.3925 38 22 25
4.07608 1.86585 -7.13776 37 15 13
-1.01069 7.5119 -12.5243 51 64 73
4.38492 2.23022 -6.78757 58 37 20
-4.95169 4.85209 -11.6809 45 64 74
-3.13872 6.37471 -11.9441 54 61 69
2.02991 5.40023 -6.89953 30 14 17
2.2937 5.71612 -4.07442 46 28 32
-1.29975 1.32576 -14.5911 65 40 10
-5.29782 0.949261 -14.9944 60 43 14
-1.70231 7.38381 -12.0911 52 70 81
7.62678 -5.15666 -8.25102 33 33 30
-5.89771 10.8292 -13.3925 55 62 68
8.01533 -3.20765 -6.15607 58 70 81
-0.924861 16.2539 5.2361 67 82 91
8.6105 -4.57863 -6.36377 62 62 64
2.78358 3.62182 -7.3711 36 17 18
-0.679965 9.78424 -13.5251 45 44 50
4.39478 7.36849 -2.43023 63 41 17
-5.10985 10.1229 -12.5687 50 58 64
-4.38117 -3.37273 -15.4361 55 69 75
-0.198994 -1.10044 -12.2222 55 59 67
-0.925251 13.3925 5.12128 73 82 94
8.03924 1.64388 -7.67105 76 43 3
5.72995 -5.27183 -9.50038 19 30 20
4.85289 0.789887 -12.0611 38 24 26
0.22292 8.78333 -6.69488 38 27 29
-0.591382 -0.500923 -16.1697 71 36 9
4.2205 -4.98628 -10.4193 23 28 12
2.47176 4.08724 -11.8801 31 16 16
1.88406 4.57555 -13.5389 52 57 61
-6.97782 6.2695 -11.9815 51 66 72
0.744056 7.76026 -6.37886 32 17 19
-1.18831 2.65172 -13.3567 58 50 38
0.0995126 12.762 5.06638 67 77 86
1.349 6.35644 -10.0024 35 23 25
-1.54438 -1.63032 -15.595 56 59 69
-1.10897 11.5889 -3.74295 48 26 29
6.87837 -1.9181 -6.09303 59 69 81
3.81817 2.17795 -8.37479 32 11 15
0.251351 13.5914 5.23123 65 77 85
4.04747 2.02929 -8.77472 37 18 20
-0.640551 15.9079 5.18652 68 81 88
-0.165826 1.85829 -13.8725 58 55 46
4.27416 1.42559 -13.4266 38 23 24
-0.255563 9.21097 -11.6335 33 24 27
5.02252 -5.08342 -11.3985 10 24 7
8.78832 4.4628 -5.31509 67 41 6
7.63219 1.63001 -7.59229 78 42 4
0.0571957 10.5453 4.9109 55 56 65
-6.86712 7.95936 -12.545 45 55 62
-3.89335 9.78185 -12.0552 53 55 61
1.4946 8.56738 -1.0513 34 23 26
3.11955 3.39992 -13.3427 46 46 48
-3.20688 15.5538 5.28803 68 78 92
-1.30796 11.3675 -6.55121 30 15 15
-3.31454 1.24916 -14.5661 63 34 4
-1.40525 10.7579 -13.4854 49 45 54
0.6283 3.66104 -12.1018 53 69 79
1.20696 7.54549 -3.95541 42 28 30
4.65308 -4.94072 -9.8573 25 18 8
-0.73899 -2.44715 -12.7329 57 64 73
-1.18471 10.4764 -13.5431 46 48 52
2.27642 -2.54292 -12.5307 59 63 69
-1.45478 10.9833 -13.4368 52 43 50
6.34512 -4.89474 -6.72941 52 59 64
5.50755 -4.01545 -6.39845 53 62 74
-0.163566 -1.02712 -15.8541 61 56 53
4.66702 -2.37313 -6.4862 57 64 73
10.606 -8.12594 1.13272 45 29 31
-2.84611 9.34376 -12.1338 55 68 74
0.103207 12.4523 5.07804 59 71 80
1.60698 0.696987 -11.9736 54 70 78
7.97131 3.7705 -5.79895 80 44 6
6.98978 2.39241 -7.0087 70 34 17
3.98052 -3.07252 -12.3548 58 60 65
6.46239 -5.08293 -7.51854 28 46 53
6.78422 -5.15837 -7.71568 35 40 50
4.25851 1.50511 -8.67938 35 13 17
8.23989 4.54365 -5.27748 68 38 0
7.45184 1.29254 -7.81141 72 44 16
6.54653 -5.09638 -10.5475 11 31 16
6.42096 2.44519 -6.89182 76 42 0
-1.44391 5.90806 -12.0924 50 58 62
8.34094 0.282708 -6.42933 56 59 66
10.6402 -8.10511 2.65876 52 39 35
2.20237 7.35864 -1.75936 69 38 16
2.76393 3.78655 -10.0553 31 15 16
-3.49701 10.7449 -12.3797 47 57 61
10.6107 -8.11296 1.99766 52 35 34
7.87987 0.992714 -7.62604 67 53 47
4.39128 -4.19873 -6.70631 54 59 64
-1.19921 7.58532 -12.446 51 64 79
10.7147 -8.10517 2.36167 45 38 37
-3.2598 1.90803 -13.9649 60 37 8
-0.277399 10.2728 1.06296 42 21 25
3.73875 2.24971 -6.86481 40 22 26
-1.5975 7.67535 -12.202 52 66 73
4.98559 4.28808 -4.87164 78 40 0
-1.28311 11.215 -12.4208 33 17 18
-4.19543 6.59755 -12.0463 51 60 66
-4.41041 11.5911 -12.9942 52 56 61
1.46553 4.17169 -13.2304 55 60 66
9.02516 2.29613 -7.26517 78 45 7
0.299448 8.80155 -5.5893 35 24 25
6.82116 -5.14918 -7.84853 33 34 31
3.02425 -4.0032 -12.4875 28 25 18
0.405841 15.9968 5.856 62 71 78
-0.0314088 -3.72266 -12.3002 54 60 69
6.34187 -4.98323 -8.09746 27 38 38
-1.81573 16.7536 5.15174 73 84 88
3.51493 -2.48949 -12.7026 60 64 69
-1.62932 16.3223 5.26023 74 85 95
-0.838318 10.6563 -12.18 43 35 35
8.46307 -4.4251 -6.39332 59 65 66
-6.66924 6.3719 -12.0065 46 58 67
7.73903 -0.941447 -6.28687 56 64 71
4.48568 -4.30341 -9.61037 39 35 35
-4.12128 8.56424 -11.8475 54 70 80
7.39419 3.45563 -6.07735 76 40 17
6.00506 -1.98293 -6.21424 55 70 80
-2.95653 3.14596 -12.6991 59 40 17
5.16167 -5.17177 -10.5848 36 25 14
0.956981 6.596 -13.4665 36 42 46
6.44815 3.70301 -5.84213 72 41 1
0.496922 13.6163 5.72012 62 74 81
6.63695 -4.46408 -6.52516 51 60 73
0.295062 8.78841 -5.73375 36 25 26
0.193745 -2.87102 -12.3346 54 61 65
1.3205 -4.18776 -12.2245 46 57 65
-0.205709 9.64754 -13.1073 48 43 42
-0.0980601 -1.24382 -15.3131 57 57 60
3.19408 -3.00428 -12.7259 57 64 74
5.77414 -2.33307 -6.43241 57 67 76
4.65738 -4.79524 -8.60824 48 52 55
2.91697 3.90272 -5.63488 40 21 20
0.650601 8.40759 -7.67868 42 28 30
4.46518 2.31761 -6.75226 67 43 21
-0.191489 -1.24492 -15.7265 57 58 61
10.5057 -8.1148 2.50859 50 37 34
-0.574898 9.92601 -11.2281 33 21 22
-0.637071 15.7844 5.17889 72 80 89
2.74878 -4.19254 -12.4726 25 22 9
7.8183 -0.96842 -6.30482 57 63 69
2.53812 3.98075 -13.2638 33 25 28
1.1178 -1.24042 -12.014 50 67 77
-1.08245 13.4704 5.14559 72 80 93
-3.94572 5.5287 -11.7953 52 70 79
-1.66476 16.0777 5.269 70 78 88
4.58255 6.27487 -3.19521 78 50 22
-5.42143 8.61626 -12.1719 50 62 70
9.70119 -7.23984 -0.28636 40 14 18
-0.656902 9.86554 -13.5043 43 42 48
6.37497 -0.278744 -6.33556 56 70 75
0.202429 2.2343 -12.1728 52 70 82
5.21424 6.5591 -3.14361 70 41 12
-0.483551 10.2501 -6.0124 42 26 30
0.102868 8.58236 -13.4559 46 50 53
-1.92761 -2.20687 -15.4968 55 60 65
3.70856 3.68582 -5.16192 85 46 4
-2.64865 -1.51853 -15.7445 60 56 63
2.33624 5.66755 -4.03682 49 29 28
0.390121 4.18769 -12.1719 51 65 74
6.91915 3.70561 -5.79522 76 42 11
-0.686195 10.5235 -8.05471 44 33 34
0.486856 7.53716 -11.0756 38 27 30
0.397437 12.5345 5.27725 63 75 84
-1.37453 11.5025 -11.5688 35 23 22
2.47443 7.3397 -2.04764 68 36 12
-1.44942 11.1651 -13.3922 50 38 39
3.41566 2.97548 -10.8137 36 26 26
-4.19176 9.51353 -12.0016 52 57 64
7.53654 1.12902 -7.77475 71 48 33
-4.71779 -3.3079 -15.3429 54 71 78
-2.09242 0.730547 -15.1491 72 42 9
10.8098 -8.19311 -0.414196 44 28 30
-2.63616 7.53052 -11.8913 55 60 65
-7.53946 3.36136 -12.6612 57 44 24
-5.68889 8.65047 -12.2382 49 61 69
10.0618 -6.15625 -7.48926 36 30 20
-3.1018 7.7585 -11.9452 53 62 71
5.0724 -1.13943 -6.33666 54 63 70
-0.864201 -4.29321 -13.688 62 71 85
1.77566 -2.975 -12.4844 56 65 71
2.44102 0.160518 -12.4616 54 67 70
-5.1891 9.41994 -12.2484 46 59 67
0.103903 -4.97144 -12.9204 47 65 71
4.18648 -2.59773 -8.28669 45 41 44
-1.3657 9.70137 -13.4971 49 59 62
-1.17063 1.54434 -14.4066 68 43 13
-1.3295 11.5002 -11.2599 47 33 33
0.315414 16.1558 7.26612 61 77 88
0.282731 7.9694 -11.6416 31 20 22
-2.46372 13.5218 3.74986 59 60 67
-0.992098 -2.82064 -14.9848 56 66 74
-1.61348 12.4596 3.42467 40 24 28
7.47739 -5.16641 -9.18462 30 23 9
7.00473 -5.02943 -10.498 35 35 21
-0.0024848 0.572842 -14.7631 61 48 45
8.44151 -4.04945 -6.38283 59 65 69
5.88382 3.00995 -6.3948 73 36 0
4.35286 -4.75463 -6.89133 52 56 63
3.18658 3.48884 -9.48556 35 22 25
1.30821 3.69797 -12.6449 57 60 67
5.02381 -1.05323 -6.32569 54 63 71
1.81244 6.06288 -10.9693 38 30 34
8.35269 -3.96379 -6.39091 60 65 72
5.09797 -5.07748 -11.4357 12 22 7
3.23308 8.72649 -0.823376 69 36 5
-1.35759 2.02077 -13.9332 55 44 27
2.5288 4.51468 -11.3384 36 25 27
3.97354 2.06635 -13.3414 42 36 36
-1.25793 14.7402 5.23743 74 80 88
2.81765 3.62476 -7.084 36 18 18
2.15573 0.753225 -12.3341 56 63 72
-0.0423703 2.40993 -12.6271 51 55 62
5.2996 1.08394 -7.56492 62 38 11
-3.71346 7.0421 -12.0642 55 68 77
-6.33346 8.44993 -12.4647 45 57 62
-0.019803 -3.32418 -12.3038 53 62 71
4.19158 -2.72764 -8.29906 46 44 48
-0.487733 10.5381 -5.92107 42 26 30
1.24319 6.66643 -9.77416 30 19 19
-0.691147 10.4359 -9.73785 43 33 34
-0.675672 5.31059 -11.8463 53 66 75
4.58297 2.4907 -6.68689 76 47 19
-3.48514 -2.08953 -15.3476 53 69 80
-1.97164 13.0738 -5.88494 40 23 22
-6.49232 7.73932 -12.2035 45 58 65
5.27573 -5.07971 -11.4311 16 21 7
4.49697 2.48612 -6.69041 77 49 24
5.00481 3.06773 -5.86417 79 43 0
5.97094 -0.536498 -6.28225 56 64 74
-7.28184 4.75359 -11.948 45 61 69
-7.26958 4.28887 -12.1106 50 60 65
2.4008 8.22176 -1.41838 65 39 5
7.1319 3.55103 -5.88235 86 46 27
-5.09262 -0.0274749 -15.9742 66 41 7
8.61452 4.4871 -5.38555 69 40 6
0.714306 4.63002 -12.498 52 66 77
4.25584 -4.56134 -10.4655 24 21 11
4.2117 -5.06892 -10.6056 20 25 9
-1.75816 0.406885 -15.4654 70 41 5
-4.97058 10.2122 -12.5384 49 57 64
4.19827 -2.44718 -11.1664 55 58 66
5.6349 3.73184 -5.73303 66 37 0
3.25618 4.03981 -5.21928 77 40 0
2.24119 4.99074 -8.88461 35 24 25
6.71017 -5.15274 -7.61289 32 38 46
5.8638 3.66084 -5.79933 71 40 2
7.75457 -5.20783 -8.93596 29 22 15
-0.342545 14.7713 5.11205 71 78 83
0.51189 6.16517 -13.3282 53 60 66
-5.45687 1.43031 -14.4157 71 45 13
0.564791 -4.9667 -12.9951 26 49 52
-4.83834 -0.154072 -16.0449 73 42 9
4.26804 1.62319 -8.80032 36 14 18
-0.229738 9.58466 -11.1721 45 36 37
0.238389 -3.43495 -12.2922 54 57 66
-5.15883 11.3019 -13.2602 54 60 60
3.7724 8.45645 -1.27701 61 39 11
2.15759 -1.11119 -12.2457 57 67 77
5.80139 5.85396 -3.95422 64 37 11
-3.39052 11.7232 -13.0912 44 57 66
-0.61476 0.170719 -12.7878 56 55 58
-1.88543 16.6962 5.15129 73 85 89
-0.57049 0.405716 -15.4631 72 40 5
0.528751 8.14183 -8.72806 35 23 25
-0.610068 4.55724 -11.9028 51 65 72
3.15185 -3.68398 -12.6165 41 40 42
6.83071 3.82734 -5.74078 70 39 3
4.49814 2.0068 -6.89597 56 34 15
-2.6559 6.30938 -11.8568 56 70 85
8.147 -1.26094 -6.35473 62 63 67
2.97073 -2.08658 -12.625 60 63 69
0.420436 13.0236 5.32317 64 75 83
-0.394947 -2.26763 -12.3797 55 63 72
2.96786 -1.29032 -12.3706 56 70 81
-0.237206 9.29247 -11.0917 34 27 30
-0.334996 13.9798 5.13986 70 79 86
7.13211 -5.25153 -7.33137 39 36 43
2.99265 3.49038 -7.11393 40 22 22
-7.0484 7.49737 -12.3828 43 56 65
2.19675 4.95029 -11.2644 33 23 23
1.85769 -1.11283 -12.1967 56 64 74
-0.823492 -2.97616 -13.6673 59 69 77
-2.06158 -2.66529 -15.4568 54 67 76
0.388796 13.0932 5.2598 65 76 84
-1.41036 11.6177 -11.8696 32 21 20
10.1216 -5.69092 -5.97419 49 48 48
6.11409 5.68584 -4.09248 69 43 18
-0.712504 16.7476 5.15584 69 73 79
5.81852 -2.12411 -6.29487 55 70 79
6.5193 1.88374 -7.38551 78 44 3
4.54144 1.06492 -10.4913 33 14 16
-0.7553 9.44794 -13.5448 52 52 55
3.92311 -4.44579 -12.4531 36 30 14
5.45746 -2.80001 -6.51711 55 62 72
6.92169 5.7839 -4.01748 82 50 16
-0.599779 -0.436816 -12.5678 56 60 64
-6.45716 3.79517 -12.2615 53 57 58
-0.0292401 8.40421 -13.5248 43 51 53
-1.418 4.35421 -11.9293 53 63 70
-1.24739 9.24363 -13.4719 53 56 63
-1.73935 12.6949 -1.82729 41 20 23
-0.830035 15.1937 5.18854 73 79 87
4.80885 -2.68605 -6.48448 56 62 67
0.822736 -0.942919 -12.1574 58 62 73
1.95848 5.11602 -11.3527 30 19 20
5.23117 -1.91145 -6.28983 56 66 78
3.40685 3.06276 -7.59081 32 16 19
-2.68132 13.8576 -6.60724 37 9 10
2.37687 0.146476 -12.4315 54 68 70
-6.23433 3.12131 -13.0201 63 43 16
-1.10727 -0.122757 -15.9048 67 40 7
8.08316 -0.701251 -6.33291 61 68 75
-3.42863 0.727815 -15.0704 58 35 7
7.789 -1.76951 -6.33346 61 61 66
1.91025 5.73875 -10.5099 36 25 28
6.65479 -4.80752 -6.58584 52 56 69
3.65529 2.39324 -12.7476 33 13 15
7.24847 3.11627 -6.63039 72 45 10
-2.99888 11.1146 -12.8941 49 60 68
10.8502 -8.15755 1.69478 53 36 35
1.26034 6.51625 -10.9739 36 23 26
8.29619 -3.23895 -6.18533 59 70 82
0.0242801 9.04508 -6.19537 31 15 19
-3.36362 15.7729 5.32474 62 76 83
5.3059 5.75177 -3.91797 64 34 4
-1.32747 11.5688 -11.3008 46 35 34
5.54638 7.71085 -2.25826 67 41 12
6.4092 -4.91161 -6.722 51 59 66
1.25118 -1.56911 -12.1655 51 68 80
6.04123 3.5386 -5.83233 75 40 1
2.49691 4.85372 -8.17194 40 28 30
-3.22372 7.63495 -11.922 51 65 73
5.30771 3.45169 -5.7761 74 42 11
8.54513 -5.00772 -7.78646 41 32 24
-1.76504 -2.67444 -15.441 53 65 70
-0.904065 11.4383 1.99846 38 26 25
-1.14191 11.6072 -4.57126 53 50 54
5.02046 4.46716 -4.85483 73 38 2
-0.2121 0.606858 -13.8133 58 63 63
2.44802 4.13964 -12.1576 30 18 16
6.3757 -5.09112 -10.8754 30 22 11
-0.96371 14.5976 5.22348 74 79 87
7.09304 -5.19242 -9.20838 26 22 6
5.98006 6.94743 -2.97767 67 34 3
-0.508986 -3.23026 -12.6394 56 65 77
-4.45797 2.75288 -13.334 58 39 12
-5.37074 11.9072 -13.4384 54 61 65
3.98713 -2.23299 -8.44337 36 21 22
8.49942 -1.30406 -6.35188 64 64 70
-1.70298 12.5257 0.940588 45 20 25
0.470805 13.1438 5.54418 59 72 80
1.00943 7.60682 -7.16549 41 26 27
-3.08073 1.29275 -14.4453 72 39 7
-0.815261 -3.0005 -14.2574 57 65 73
3.88115 4.5271 -4.51315 68 35 2
3.49866 -1.2166 -12.5674 58 65 73
-1.65268 12.0507 -11.2165 41 28 28
3.49781 1.12789 -13.6107 59 63 67
-0.839128 -4.09207 -14.0003 61 69 77
-5.37968 10.6234 -13.0501 54 59 61
-3.30157 -0.761589 -16.1031 66 44 34
-1.72909 10.9215 -13.4642 52 56 62
6.22854 3.28774 -5.97256 77 37 2
-0.708423 9.9631 -9.20125 32 16 17
-2.04256 16.6825 5.1411 74 84 88
4.16997 1.393 -9.77657 28 9 8
4.13119 -2.23746 -10.2611 47 49 55
-4.4963 -2.94816 -15.3284 52 71 82
3.89323 -2.78499 -12.4524 60 62 67
4.89834 -2.77095 -6.4785 53 65 73
-0.815092 -4.34963 -13.4926 60 67 81
3.00653 6.5908 -2.4581 76 41 4
2.43332 7.29152 -2.17485 67 36 17
-0.190503 11.3186 4.97637 57 72 83
-6.09457 9.2382 -12.7784 49 57 63
1.97468 5.31556 -8.47635 32 15 18
3.67023 3.64518 -5.2059 83 44 3
10.8211 -7.65073 3.41142 46 38 41
5.35039 1.27647 -7.30794 80 44 4
-3.03583 2.58206 -13.2933 59 38 17
4.67618 0.65077 -12.9171 48 39 41
8.14961 2.86444 -6.81971 80 42 4
-6.7334 3.37151 -12.6298 60 44 26
5.96412 3.35908 -5.85776 80 41 3
-3.79296 -1.90702 -15.3118 51 73 78
-1.82539 12.8673 -3.80229 30 13 13
5.98607 7.45372 -2.36382 66 44 19
6.70856 4.49967 -5.00691 78 42 4
-1.75055 3.09471 -12.7525 55 55 50
0.24887 13.7151 5.231 67 79 87
-0.0589013 9.60893 -6.6312 39 27 24
4.46997 4.55071 -4.55335 67 35 4
-4.71555 3.1378 -12.9025 57 40 19
-3.8144 9.27005 -11.9142 51 64 73
2.09213 -3.16462 -12.4904 53 60 68
2.01587 4.35719 -13.5519 53 61 61
8.44616 -3.9439 -6.37532 61 63 71
-4.21052 -3.01401 -15.4775 57 66 74
5.47864 0.605423 -7.66043 51 44 52
7.96556 1.63619 -7.66532 77 43 4
-0.219342 9.5825 -11.3649 48 38 40
0.663286 8.10989 -6.42724 35 16 20
7.11066 6.32473 -3.56941 66 40 3
-1.56049 16.3813 5.26382 75 86 96
-1.33936 -0.829483 -16.2735 59 45 35
6.73564 6.43358 -3.4409 71 39 0
4.0944 2.09499 -6.87366 38 19 18
9.58977 -5.77386 -6.30749 45 38 25
0.507994 5.21481 -12.6348 53 63 72
7.99933 3.30391 -6.60846 66 45 23
4.78498 2.09839 -6.87832 72 40 3
-3.39825 16.3002 5.32075 70 75 82
1.39979 2.05362 -12.3068 54 63 71
1.61858 -3.72457 -12.2323 51 61 71
4.11752 9.1478 -0.609362 52 35 10
3.43454 3.23093 -8.58255 43 28 33
4.136 -2.14442 -10.8063 47 54 63
4.45025 -4.63556 -8.59291 45 49 56
-7.66377 4.02823 -12.1699 53 61 65
-0.882429 -0.663122 -16.2504 66 42 21
-4.95134 -0.137091 -16.0466 67 38 3
0.51058 5.09881 -12.5874 54 65 74
-2.19855 10.5109 -13.273 55 61 69
-2.62447 3.2179 -12.6123 71 45 17
-4.67439 6.14483 -11.7529 50 68 77
1.94272 8.63362 -1.03186 60 38 17
-0.267955 13.9748 5.13742 71 78 86
0.561549 4.00207 -12.1776 52 66 73
-1.33852 2.98391 -12.9052 51 55 56
6.10048 -4.8595 -8.46931 29 36 31
-1.82201 6.58509 -12.0812 55 63 71
-2.10946 3.15755 -12.7694 52 50 45
-1.73401 14.8 5.31933 74 80 87
2.44705 4.3079 -13.3073 38 36 38
5.34245 -1.26377 -6.35181 56 61 71
-0.638485 16.2166 5.19333 66 83 89
-2.24007 16.4758 5.16328 76 84 87
-0.786494 -0.839084 -13.0144 56 56 61
-3.16318 -1.79233 -15.4354 55 64 73
-2.20605 -3.57536 -15.6135 50 65 71
1.19151 7.87038 -1.64223 51 59 63
7.87134 -2.02856 -6.32445 63 63 69
1.57306 -1.36325 -12.2373 56 66 76
6.96635 5.74041 -4.02159 83 49 15
3.93866 -2.55184 -12.1588 62 61 68
-3.60945 6.80928 -12.0686 54 62 68
7.47001 -4.98817 -9.9398 20 27 25
6.9939 2.53657 -6.81223 73 37 27
3.87406 2.17083 -6.87602 40 22 25
-3.25224 0.294116 -15.3246 69 37 2
-3.805 1.38979 -14.5797 64 38 5
-2.05503 2.02874 -13.8542 62 42 12
-2.08215 12.4525 -10.4847 34 15 17
6.62611 -5.11603 -7.69555 27 35 41
-1.65574 -1.60337 -15.6213 58 57 68
2.37328 -1.2697 -12.2807 56 68 79
2.46545 4.21071 -11.174 31 18 18
4.01062 -2.3635 -11.6218 55 65 72
-0.176178 0.706295 -13.8769 59 63 65
-0.698848 3.28841 -12.6066 50 63 64
5.23115 -4.86886 -6.68604 55 55 62
-1.22552 -2.21687 -15.4458 57 64 76
-1.21962 6.39947 -12.1953 50 62 70
-1.62778 12.3539 3.65596 34 22 22
-4.03706 3.6666 -12.1993 52 48 40
-0.449492 13.5422 5.08307 68 76 84
-0.0729499 1.01865 -14.238 58 56 58
-4.04934 5.84116 -11.7892 49 62 73
5.94543 3.75339 -5.79381 67 39 3
4.94747 -3.98977 -6.3666 50 61 73
7.16702 6.36863 -3.21298 63 39 9
-5.18101 11.4618 -13.3486 55 60 62
-0.554961 15.5043 5.17001 77 81 91
3.30872 6.64148 -2.50547 78 39 5
-1.81028 12.2578 -4.6353 36 18 17
2.45736 0.932874 -12.4947 54 63 66
-3.24281 15.899 5.26721 67 76 86
1.32841 7.18902 -7.51093 42 30 31
-2.46768 14.0157 -0.345844 36 20 19
-2.19411 14.2979 5.29696 70 74 85
8.59987 -5.16739 -6.48076 52 54 63
-5.59662 6.24764 -11.9587 48 57 63
6.3804 -5.0427 -7.60177 30 45 51
6.23101 -0.655799 -6.33735 53 62 71
-1.92334 13.0835 -3.4907 33 20 21
-5.28453 9.46179 -12.3187 47 59 66
0.88776 7.9196 -4.3417 39 21 20
-3.42227 15.635 5.39603 63 78 78
-3.45242 -2.65204 -15.4076 54 65 75
2.78405 3.66512 -12.47 32 17 21
-5.9806 1.67362 -14.3082 56 42 21
-2.1766 16.3505 5.19284 78 85 88
-0.370461 13.0366 5.06281 77 78 91
5.93132 -5.20688 -8.88876 29 15 10
-2.5869 -1.18173 -16.0051 50 54 57
6.63607 0.715218 -7.52017 56 47 47
4.89174 8.93836 -1.12885 63 36 5
0.811015 6.00515 -13.4424 51 59 69
-2.73991 11.4002 -13.2996 51 59 69
4.11275 7.52504 -2.35161 60 43 21
-4.37072 4.51695 -11.9475 48 60 66
5.65239 -5.03991 -9.01907 25 23 14
-3.43951 -0.464174 -16.0732 68 38 8
7.4114 -0.732757 -6.24067 55 69 82
5.55321 8.20834 -1.47536 65 36 7
4.42588 1.07638 -9.06501 29 6 8
-1.08193 -2.94794 -15.1307 57 68 77
1.98399 4.93753 -12.4293 30 22 25
8.47604 2.89875 -6.82699 76 43 1
8.81387 4.06084 -5.81927 78 39 4
0.227072 8.36758 -13.0304 45 51 55
3.39687 3.12951 -12.7182 40 30 31
-1.61084 12.5202 3.41353 42 26 30
0.505525 14.5093 6.34842 61 74 79
-1.47868 11.2877 -7.67702 32 15 16
6.2916 1.16565 -7.77172 67 43 9
2.56724 4.74152 -8.68783 44 33 34
4.44292 -3.28889 -6.5408 61 64 75
3.91854 -0.273015 -12.7275 57 59 64
1.78418 -3.72298 -12.1852 50 62 70
-3.05264 0.753559 -14.8961 73 41 6
4.17175 -1.77013 -8.01776 45 40 47
-0.322148 1.06669 -14.8661 74 38 8
-0.896446 -3.78515 -13.3753 60 69 78
-4.06799 1.19203 -14.8088 57 37 4
-1.33455 -1.81834 -15.5371 59 67 72
4.52727 1.15328 -11.8469 29 7 9
6.57819 2.24657 -7.20028 71 39 1
-2.05006 12.5191 -11.902 34 14 15
-0.963306 15.0221 5.19696 73 81 87
1.29216 7.41311 -5.29774 39 27 32
3.87463 4.85846 -4.10698 83 46 2
-4.79696 5.49329 -11.6135 48 63 75
5.96256 2.32971 -6.89707 80 45 5
2.81464 0.358992 -12.5625 57 64 68
0.110338 0.371603 -12.469 58 69 77
6.91425 2.53122 -6.81097 73 37 27
6.85415 -5.09026 -10.0472 22 30 18
-0.263388 9.1596 -10.7097 33 18 21
-6.63748 3.18259 -12.8782 64 46 20
6.14793 7.35085 -2.41687 63 40 20
3.76148 1.62388 -13.7705 55 54 62
2.14267 5.60057 -4.69085 38 21 23
-4.66892 12.1318 -13.2739 54 60 65
-0.75629 -3.4162 -12.9918 54 63 72
-2.77536 10.9618 -12.9756 51 61 67
1.37669 -0.742129 -12.0944 54 64 75
-5.9414 10.9833 -13.4147 54 63 68
1.98685 0.140017 -12.2469 54 63 70
4.07876 1.4741 -13.6906 46 45 46
-1.15695 11.7736 -5.24108 45 34 38
-0.794447 10.1194 -8.57026 32 18 16
-2.07843 13.0072 -8.31715 37 22 24
6.58189 -5.14319 -7.36575 36 43 46
0.0681157 9.26765 -3.61215 36 17 19
1.83493 5.14888 -12.4573 33 19 21
0.0179405 3.55268 -12.2044 54 66 74
-0.770313 -0.723846 -16.2595 61 43 29
-0.496977 16.5087 5.15577 69 76 81
-1.79863 12.4671 -4.45563 41 26 24
-0.781988 16.1092 5.21448 65 85 91
-3.10848 9.31085 -12.0287 56 74 82
9.95482 3.63098 -3.24521 69 39 3
-1.89988 16.3332 5.21626 75 85 95
2.46171 4.60286 -12.6754 42 34 37
3.02999 1.09 -13.1249 56 60 66
-6.39384 7.01741 -11.9924 46 59 69
6.18777 7.51231 -2.05111 74 39 0
-4.00243 2.45647 -13.5013 63 43 14
-3.15414 0.343436 -15.2572 72 39 3
3.95981 2.17352 -6.8624 40 21 23
10.7445 -6.86542 -6.62179 37 40 26
-0.712263 16.0396 5.20311 66 82 89
5.78559 4.62931 -4.87924 68 43 0
8.53945 -0.911182 -6.3613 67 68 74
3.07678 -2.18956 -12.6517 61 63 69
0.219659 12.6455 5.14595 65 76 85
-0.916019 4.76392 -11.7895 51 65 75
-1.18654 14.862 5.22746 74 82 88
-3.48808 16.1386 5.38422 61 73 83
-1.39066 11.4667 -10.2939 38 21 23
4.1365 -4.84707 -12.0217 32 21 8
0.848956 7.71973 -7.07411 36 22 22
-0.793603 10.1962 -8.78048 32 18 17
3.96909 1.51482 -13.7482 50 49 52
2.51573 4.87406 -7.44251 40 29 31
1.50532 3.13845 -12.5824 56 60 66
-1.17711 15.7772 5.2123 64 77 85
0.159873 12.7034 5.1042 64 74 82
11.1342 -8.22148 0.0144329 47 32 33
-2.73587 11.0145 -13.07 51 61 67
10.6847 -8.10315 2.5408 36 28 27
1.24478 6.72321 -12.2517 37 32 32
-5.3232 8.54979 -12.1509 52 65 72
-4.73122 6.63495 -11.853 50 68 74
0.506273 14.6307 6.32714 61 73 78
6.46668 2.20553 -7.23282 72 41 1
2.29688 7.41345 -1.67925 71 37 10
0.100611 12.6387 5.07307 62 73 81
-1.38281 0.28758 -15.5669 70 40 8
-0.56645 16.3924 5.16739 68 81 87
-0.663665 9.86981 -9.28405 33 16 17
-4.54591 0.381106 -15.5377 72 39 2
9.17942 -5.49551 -5.82108 50 54 59
-3.12466 11.1471 -12.818 48 59 67
-7.90531 3.78196 -12.2014 54 61 63
-3.29141 0.396123 -15.2676 65 36 3
-0.827233 -0.821483 -16.2583 57 46 37
6.54979 -5.08786 -10.774 16 31 18
9.72015 3.06645 -6.7441 76 50 21
0.882963 -3.07463 -12.3685 55 61 69
2.08122 4.99907 -11.4283 30 21 22
2.02835 -4.6184 -12.6453 25 30 21
-0.644594 10.4205 -7.09069 31 13 15
5.9465 6.42699 -3.33892 77 46 17
8.09761 -5.25788 -8.71275 26 29 21
-1.14871 0.688304 -15.2695 70 41 7
-1.28969 11.3052 -12.0834 39 23 23
-0.0676579 -0.895302 -15.8008 60 56 53
4.93188 -2.094 -6.40794 53 63 75
-0.0690851 -3.80542 -12.3065 51 61 68
-0.609129 10.7063 -6.68027 44 30 32
3.72861 2.32562 -12.9736 33 17 19
0.0521302 6.55368 -13.0613 51 57 66
-0.407356 16.8712 5.25975 62 62 65
7.60717 2.23618 -7.31541 74 43 5
-1.30941 15.1802 5.23232 71 79 83
-1.00514 11.4716 0.386496 34 19 23
-2.72466 14.1721 -6.9049 33 12 10
5.91196 -4.97575 -6.80675 55 58 61
-1.98873 13.1018 -3.49821 32 19 20
2.7185 4.07338 -6.57562 35 15 19
3.76846 1.95624 -7.3383 31 8 11
-0.288816 -1.91282 -12.297 55 62 72
4.60221 1.12054 -13.2011 43 28 27
-0.560547 4.91915 -11.7867 52 66 76
-3.15606 4.97588 -12.0415 51 59 65
-0.566781 12.1142 5.10744 61 70 82
6.5032 2.23989 -7.19682 72 40 1
-4.76538 -2.40404 -15.3841 48 65 68
-0.760794 -2.33809 -14.4759 55 62 69
5.62971 -0.706495 -6.30656 58 67 74
6.37269 6.79299 -3.16281 70 45 18
2.70101 7.78565 -1.54078 69 39 1
6.69959 4.70676 -4.91666 76 46 7
-4.45726 0.633213 -15.316 71 40 4
-2.08993 14.962 5.36574 74 82 96
5.94181 6.51781 -3.27914 75 47 22
4.41135 -4.13705 -9.68739 40 33 38
6.58961 2.59281 -6.79097 77 45 9
-1.96609 16.3978 5.19803 74 84 93
-2.05519 12.7851 -11.1584 39 22 21
