ply
format ascii 1.0
comment Created by Open3D
element vertex 1390
property double x
property double y
property double z
property uchar red
property uchar green
property uchar blue
end_header
-4.24367 14.5914 1.2762 15 14 18
8.1196 -5.15858 -8.43195 33 40 33
-12.6456 -3.33588 -8.20971 53 76 84
-2.90731 14.2455 -7.82028 36 15 17
8.79639 -0.504448 -2.43435 54 61 71
9.10431 2.31157 1.86884 45 46 44
-13.4885 -9.23105 -12.2528 57 75 81
-0.573019 -0.222992 -13.4796 67 70 76
6.29991 -5.06348 -7.36769 56 63 67
-11.365 2.7587 11.4136 11 12 17
11.6415 -12.0223 -1.88704 30 11 15
3.42479 3.82137 -5.20073 79 42 0
1.79436 0.440342 12.5115 37 57 68
3.42076 3.57148 7.80445 27 27 31
-5.47082 7.79406 12.3174 40 62 68
-12.3613 1.37397 6.9031 11 8 14
-4.48792 14.6029 10.7339 21 20 24
-9.63813 6.53876 -13.0426 47 50 54
-9.19429 -0.597609 12.4671 52 73 83
-2.13235 -7.47892 -15.6526 24 32 22
7.47088 6.02035 -2.46809 74 37 7
5.39701 5.29712 -4.17883 76 41 0
8.81317 2.49356 -7.18342 77 41 3
6.83942 -1.965 -6.10389 59 69 81
-1.4071 8.98754 12.4814 36 55 65
4.23078 -1.72495 7.49842 51 67 73
9.21004 -3.52667 -5.96919 64 65 70
-8.47746 7.90733 9.8665 23 24 25
-12.5974 -1.89272 -7.92201 54 73 81
-8.79303 7.12329 0.876117 25 23 30
-6.23231 11.7271 -6.17378 25 25 29
-7.03316 -8.03878 13.5241 50 68 75
10.0717 -6.13305 7.51029 30 45 40
-10.7685 -1.55076 -12.1367 47 68 79
-6.89673 10.7231 1.74758 26 27 30
8.77139 1.8814 -0.0243819 57 56 61
-5.28032 12.9231 -12.2317 24 23 26
-4.457 14.2651 -0.42318 32 35 39
-6.05141 11.6609 7.72795 17 18 22
-0.274182 9.36009 -9.00402 45 29 33
-10.0981 2.93102 -12.637 43 51 59
-13.1092 -5.96489 -4.3213 52 76 87
11.6933 -11.7481 -1.75814 39 30 30
0.868979 -9.13743 -16.8747 31 39 22
-10.8358 0.735597 13.476 48 62 69
-8.32173 -1.75179 -12.1679 54 71 77
0.518175 -9.53522 -16.6586 27 31 19
5.32892 -4.77215 -8.57199 64 48 62
-0.25894 3.10871 -12.6816 57 60 66
-13.0106 -4.92206 -12.128 54 71 74
4.73661 2.70056 5.79677 68 40 0
-12.4615 -2.98398 10.1641 45 62 68
9.01929 -5.95519 -7.6066 24 26 14
-12.8311 -3.40677 -0.145429 50 67 76
8.27287 5.35379 1.85156 67 40 1
8.89375 0.356665 2.31119 57 62 70
-13.0369 -8.06297 10.1923 52 71 80
1.52326 4.30151 -13.3531 55 60 67
-7.13399 7.46226 -12.4319 44 55 65
-11.0859 3.83543 7.32653 29 29 32
4.24852 -0.414081 -8.39487 54 64 74
-4.30436 14.5722 -9.50344 15 18 20
-13.3608 -8.56404 3.94118 44 67 77
2.12465 3.26582 -13.3647 53 58 64
-0.898514 1.71734 -14.2907 67 41 12
-7.81522 8.83939 2.92507 17 18 20
1.43843 6.32681 -6.7926 39 22 23
-0.258781 10.4566 10.6825 40 48 48
-6.74239 10.9661 2.2783 30 31 36
10.1657 -8.23638 12.285 18 35 29
-12.7634 -4.14045 6.39345 45 64 72
-2.57583 12.9726 13.6804 15 16 16
8.39803 -5.56534 -1.17079 30 8 7
0.949216 7.26295 -12.9392 40 39 43
-13.4253 -10.4745 7.90457 53 65 71
-7.70727 8.83453 8.23464 21 20 24
8.0164 -0.351541 6.24202 46 59 66
-10.696 4.15877 2.77749 22 22 25
-6.59262 7.19174 12.8091 40 60 67
0.87253 1.14719 -11.9008 57 72 83
8.8645 -2.03178 4.89621 55 68 77
6.35889 -5.32734 6.79138 48 58 63
2.33657 -3.48311 -12.4439 43 51 56
9.12514 -12.523 12.8676 15 24 23
3.4252 6.34924 2.4272 50 27 0
-1.05296 11.3884 -3.18019 37 17 17
-12.464 -1.92317 3.1378 42 63 72
-0.657715 11.5804 5.0106 55 66 75
7.84512 1.29358 -7.86754 77 48 30
-7.85904 9.4021 -0.997288 32 34 38
-6.67555 -4.29719 13.1402 51 70 75
-7.30513 9.73455 5.40402 14 14 18
-6.14322 8.90671 13.2763 42 60 68
-11.0991 3.29059 -13.2123 46 55 59
-9.10426 7.00399 -3.62465 23 24 26
-12.4008 1.47906 4.07134 17 16 19
9.18752 -6.98088 2.83261 42 27 28
2.09662 5.64319 -5.70728 37 20 25
1.61769 7.01723 4.95557 39 45 49
-12.6037 1.86425 -5.14926 23 25 26
-7.07747 10.304 -10.1116 26 28 30
9.90824 2.79504 -6.00315 60 51 49
-4.2539 3.29071 12.5417 40 61 72
2.8528 0.111216 12.6919 33 57 69
-5.40262 12.7489 -12.0343 23 23 25
-8.30436 8.31016 -3.17582 19 18 21
1.29676 5.72523 -13.4828 48 52 61
8.33121 5.18013 -2.08462 73 39 7
1.67289 6.25083 -5.27483 34 17 20
4.60336 1.63146 13.0618 30 30 33
-11.295 3.40627 10.1086 19 18 23
-14.2263 -11.1798 -7.1365 32 46 52
-1.78059 3.39606 12.4398 37 58 66
11.4517 -9.97261 2.90664 46 42 46
-9.7847 5.84478 12.4654 21 26 29
-8.31851 8.3556 0.993528 28 28 35
8.97307 -0.796007 5.87481 57 67 73
-6.78065 5.13717 -11.9003 47 60 67
9.01219 -7.19891 -0.201833 36 2 8
4.49735 -5.10766 -11.5254 27 28 9
-2.69638 16.2834 5.18412 80 86 92
-12.7319 1.27391 -10.7599 12 14 21
-10.2629 4.53085 9.7598 18 21 22
9.35618 -6.08214 -8.8884 24 13 1
3.07076 3.70739 6.25294 44 24 12
10.0396 3.11827 5.38834 69 52 28
6.15792 7.7628 -0.470056 75 40 7
-1.25245 -0.742501 -16.2731 63 45 31
-0.555337 -1.29707 -15.8883 56 55 60
-8.92342 -8.29976 13.7238 54 72 79
-6.53055 11.29 6.11937 26 29 34
-8.77974 7.26749 -2.2354 23 25 25
2.23598 5.09955 12.0951 32 29 32
-12.9148 -4.61671 -9.69019 55 75 84
-6.6477 11.035 -13.2665 53 56 59
-5.17387 -11.0538 -16.1899 20 27 31
-2.72985 11.9101 -13.4138 53 63 67
-2.24475 4.23847 12.5005 39 61 66
-0.255471 10.0374 3.11991 39 20 25
-0.142591 3.03294 12.2744 33 57 69
-2.48483 -4.56985 -15.5752 46 63 70
1.34764 7.27205 5.37657 35 37 43
10.8763 -11.5363 -9.76235 32 23 14
-4.20001 -2.64476 13.0792 47 67 73
-12.6071 -5.47945 7.30729 43 67 77
8.90535 -2.97175 3.64047 60 61 69
-2.76102 9.40369 12.2959 39 58 66
8.5236 -0.716385 1.54154 57 61 69
-3.45828 14.7656 2.51084 31 27 32
-13.1138 -7.64749 5.79232 45 64 73
-12.7088 -1.64705 -6.42787 51 70 77
10.0606 3.4444 -2.78962 70 41 1
-5.08702 12.8759 -4.73155 25 27 29
4.18476 -2.85831 -9.72287 45 41 49
-13.8033 -8.91948 -6.27319 59 81 84
-9.51063 6.07225 13.3146 16 20 23
4.40404 -4.01939 7.27383 52 69 74
-13.0961 1.17142 -12.0995 16 13 22
-1.08132 -7.59829 -15.825 35 41 30
-10.4367 5.15837 -7.74248 24 25 29
5.27403 3.67773 5.04337 54 30 5
-13.9389 -9.48185 -10.6506 58 80 85
1.02407 7.55483 2.83421 24 25 27
5.03799 1.33695 6.77242 20 20 23
7.3384 -5.15057 -9.33912 25 13 8
-11.5361 2.61561 -7.19936 17 16 21
1.2575 5.0903 13.2021 26 45 55
-9.37901 4.70384 -12.9203 51 54 57
-13.8164 -10.9069 3.35117 31 39 44
-13.6342 -8.1538 -5.78025 59 81 86
-13.3226 0.258635 5.03684 17 21 27
4.22033 -3.55972 12.0935 56 80 87
8.18291 -6.02691 -13.5936 40 47 40
-12.0386 1.97205 12.0357 12 11 18
-9.82038 -5.66629 13.0316 52 73 80
-2.89685 14.4271 -5.62632 34 8 12
0.359245 11.8843 8.05869 60 74 81
-4.40048 14.5219 0.366805 17 18 24
-0.236818 9.96041 0.71067 37 13 15
-1.21529 11.1567 -4.51846 53 55 61
0.335703 -10.5132 -16.7085 31 38 25
7.17734 -11.1905 13.7407 23 36 29
-0.702214 10.1336 -10.6187 35 19 19
5.87228 7.59763 -2.29422 67 48 19
-11.2215 3.8936 -12.0848 20 22 27
-2.39722 10.4139 12.4574 42 60 71
-6.42798 7.74942 -12.1886 45 58 66
-9.596 5.63354 -1.24818 21 22 23
-1.01615 11.3359 -2.40292 35 20 21
-12.7405 -4.58623 3.35876 38 64 74
7.87256 -5.28948 -12.1906 38 29 14
-14.1651 -11.1946 -6.5106 34 45 52
7.61209 5.83028 -3.13539 78 36 1
-7.00848 2.97674 -13.0683 57 41 19
-12.437 -1.81815 4.09917 37 60 69
-12.8684 -3.38715 -2.1352 51 71 78
-10.86 -9.1269 -12.5788 53 69 76
9.04058 -6.58724 2.75294 42 30 29
-0.782063 9.10336 13.1664 28 43 51
8.55352 -6.04381 -1.03413 38 24 22
4.93377 0.990509 8.65643 21 18 25
-7.43907 9.25625 11.8676 19 21 25
8.00437 -1.80171 1.63785 39 27 27
1.39195 6.32886 -11.0593 33 21 25
-1.53762 11.7589 -8.97238 40 26 29
-12.8859 -2.88521 -11.8121 49 69 76
9.89306 3.55516 3.02319 58 43 10
-0.0450573 -6.56741 -15.3463 31 36 26
7.26767 -11.026 -16.1299 29 26 2
7.3816 6.28993 2.2088 58 39 13
3.95616 1.08527 -13.7645 53 59 57
-11.7915 -2.70073 12.8414 50 70 77
-13.3929 0.037776 1.76645 22 27 32
7.02279 6.58892 2.39769 57 32 18
-12.7648 -2.91344 -2.72823 52 72 79
-12.9053 -0.293703 -0.464244 32 49 55
-4.26998 14.6121 6.00309 25 22 28
-10.7299 4.52984 -12.1761 19 24 23
-0.117359 -3.14073 12.9561 43 60 67
-3.73064 14.7516 2.14746 23 22 20
-1.81823 2.92667 12.3557 39 62 70
-1.74999 -1.27458 -15.9181 48 52 56
-8.25471 -0.155062 12.727 50 70 78
4.77306 1.13972 11.2908 23 22 27
5.7279 -5.29089 7.69999 61 79 89
11.018 -8.82617 -5.71719 32 27 13
-13.2572 -5.09239 -11.1095 54 73 80
4.47557 0.0522356 13.5337 39 56 63
-5.15353 12.7032 -4.21523 16 18 21
3.27781 -6.76525 -15.9123 36 42 35
11.5353 -12.2021 -2.26937 19 16 15
-1.95445 12.7031 -5.90555 40 23 23
-14.152 -11.4493 -10.3661 31 47 51
-10.3304 5.15305 -1.69283 31 34 37
-0.693706 3.0243 12.3433 36 56 67
-5.49872 -2.80523 12.7622 47 71 81
-12.7631 -1.36636 -4.18892 55 69 73
-11.4897 2.82134 -4.65052 14 12 17
-0.202871 11.3187 9.04867 45 61 67
-8.8219 7.71436 -9.25608 31 31 33
8.30904 -5.1272 -1.57157 33 9 4
9.03892 2.19187 2.86914 48 51 53
-11.9895 2.49389 5.94143 25 30 32
8.25165 5.3039 -3.21132 68 39 11
-5.1341 12.7854 -0.0711746 27 27 34
-3.8329 -1.77991 12.8809 45 67 74
-9.6794 6.65706 -12.7635 35 37 41
-5.23351 3.36938 -12.5113 73 44 16
-0.528444 10.5722 9.84343 34 39 44
-7.65283 9.66318 -9.91644 28 31 34
-9.01197 -2.33454 12.9232 51 72 80
1.19354 7.42218 -8.21013 42 29 31
8.83053 -9.31023 -14.376 35 40 29
4.31956 -6.55254 11.7265 9 24 14
-13.2764 -6.97887 -4.57187 58 79 88
-12.4438 -3.08983 9.72478 44 61 70
3.86138 -2.97104 9.07415 66 84 92
-12.7598 -1.29948 -10.1418 49 67 76
-4.53222 -3.53618 -15.3609 53 70 78
-6.4407 3.02771 12.5701 40 63 75
-7.36189 -7.85248 -15.8223 50 68 74
-11.5554 3.38172 -10.8143 26 30 31
0.45651 12.6148 5.38751 60 72 80
5.84899 3.15684 -6.03039 76 39 1
-5.98318 -7.41196 -15.6833 49 66 76
2.69648 -7.70893 13.3308 29 44 42
-9.16842 -3.71881 13.2689 52 71 78
11.5203 -10.7656 1.31403 41 41 42
9.48921 2.52618 0.245552 58 52 50
9.33259 -7.25023 1.7287 44 18 20
-13.8025 -10.3157 -12.3161 46 56 60
1.16162 7.49206 10.7967 37 38 40
3.0081 4.57804 11.7798 39 38 41
-1.74588 -9.58051 13.4335 43 61 69
-12.9731 -7.37252 9.0483 47 66 74
-12.3976 -6.44872 12.6261 45 69 79
2.07509 6.18125 2.67938 17 15 22
-6.49351 2.13689 -13.97 59 44 10
3.7998 -3.84943 8.61767 34 41 40
10.7028 -9.8119 -9.79115 30 35 25
11.6719 -11.2952 2.46664 43 39 43
-0.306141 -7.0816 -15.5398 31 39 28
-11.4159 -3.89373 -12.3573 51 70 78
-3.47272 -8.37687 13.3693 47 65 73
10.7749 -12.2846 9.40129 35 37 34
9.13766 -5.81386 -6.70878 32 28 9
9.52366 -6.20735 -9.21981 26 19 3
7.03546 -4.58207 6.32986 46 63 65
-9.46153 -5.87314 -12.3053 50 73 81
3.84787 -6.73356 12.8854 5 23 14
-0.157169 8.92731 -7.63321 49 47 53
6.78148 3.66864 -5.81283 76 42 7
8.62958 1.40565 -3.16883 55 59 63
-12.6801 -1.88805 -0.495123 49 64 69
3.73707 2.94355 11.0209 32 24 30
8.44776 -6.45686 0.620119 32 5 7
-12.5783 -8.39309 13.1929 54 68 74
-9.26962 6.69413 -10.0487 19 19 24
0.429718 13.4373 6.26185 63 80 90
8.46281 -5.98134 -10.4508 31 27 5
7.73363 3.98254 5.578 63 39 6
3.83452 2.31572 6.98376 20 16 19
-0.610138 9.43523 -13.5295 48 48 51
3.72396 2.77099 9.83189 26 23 27
1.65787 -4.70007 -12.5445 35 42 41
-3.756 3.44472 12.3204 40 63 74
0.0384183 -2.701 -12.3919 53 61 68
-10.0576 -1.47617 12.9265 56 71 78
8.72934 1.79329 -2.54104 56 57 61
0.0827141 -11.2691 -17.0213 15 8 4
4.48479 -4.07479 7.80909 55 67 77
4.83384 0.255717 7.72389 36 47 53
0.966507 8.24658 2.00093 37 36 39
-12.7103 -0.67136 -2.74732 44 67 75
-9.45095 6.59695 3.69127 35 34 36
4.39601 -3.02251 -6.60369 59 63 72
-7.14765 10.4898 -11.9595 25 26 28
-12.7827 1.20371 -3.1368 17 13 17
-12.758 -1.23668 -5.15813 53 66 70
8.72085 2.94131 -6.85894 76 41 1
-0.595943 -3.51025 12.7638 40 61 70
-8.1211 8.56145 -11.9886 22 20 27
10.8929 -7.38563 6.35058 25 44 39
-5.67168 12.5056 2.12441 29 31 35
4.68051 0.76885 -8.58627 30 8 11
-13.1309 -10.3494 11.3987 47 64 73
5.63181 -10.0681 13.6951 12 24 13
4.33165 -0.773994 10.2817 59 78 89
-13.7397 -9.45319 -3.80549 58 79 87
3.00127 4.18537 13.3234 32 32 31
-9.4098 -7.33954 -12.5144 57 75 80
-5.02836 8.21373 -12.0621 48 60 70
-13.4298 -10.3606 9.0515 54 71 76
-9.95122 6.00454 -12.2158 28 23 26
-2.06542 15.3751 9.09817 47 68 74
-7.74302 8.56818 10.7377 15 16 20
0.181179 16.7541 7.75896 56 71 76
6.21174 -10.6815 13.7729 17 32 22
10.8422 -11.2183 -10.1075 39 46 33
-13.8056 -9.40707 -9.5982 56 81 90
-7.05281 -5.56305 -15.7442 49 69 76
-9.3085 -4.12899 13.2931 51 73 82
-5.82548 12.4309 -12.9271 34 38 40
7.03886 6.58749 1.43085 70 39 0
-9.49179 6.26722 4.09346 22 20 23
-0.884047 11.2655 1.83078 38 20 20
8.90529 -11.0804 13.3465 32 47 41
5.39084 -9.38339 13.3924 1 13 6
-5.97297 -0.384888 -15.9537 68 44 11
8.92726 -6.0788 2.93605 52 51 56
-3.44966 -9.39385 13.6935 44 66 77
-2.70049 0.0957432 12.4084 44 68 80
-7.73937 -0.140482 12.8563 51 69 77
-12.9537 -3.08346 -9.83413 54 73 80
11.2715 -7.94706 4.61331 38 46 34
-0.0152483 -8.16169 13.4729 38 63 73
-2.79952 15.3699 9.24549 48 60 67
-4.83326 14.091 10.6062 31 34 38
-13.4618 -9.31588 2.7797 38 60 69
8.59606 2.26262 6.68618 60 33 2
-10.1165 5.20415 7.83139 20 25 30
-12.6868 1.94469 -11.9158 24 24 27
5.42752 0.185812 -7.20485 48 48 59
-6.48379 11.3106 7.49987 23 25 30
-1.8674 12.1951 -12.0174 37 20 21
-7.7521 2.31364 12.589 43 66 77
0.909599 7.9587 7.13639 38 38 40
8.99458 -6.37143 9.80747 17 35 26
8.60675 0.767776 -4.18706 58 61 70
5.36864 -10.155 13.6167 5 24 6
6.25778 6.089 -3.80084 67 37 11
9.19352 -3.466 -5.66661 58 61 66
-1.19862 -2.00308 12.6015 38 62 73
-8.47998 7.36293 12.2447 23 27 32
2.47169 -10.1851 13.5049 38 57 65
-3.69568 14.618 -8.79804 28 25 19
10.4026 -11.8838 9.94024 42 61 53
9.70337 3.6541 2.76806 59 38 6
3.94027 -1.18573 -8.85201 34 25 32
-7.55115 9.62873 0.963032 23 29 31
-9.05999 -9.52335 -13.4307 53 69 74
1.46546 7.32829 1.08784 37 35 43
4.6141 5.83341 3.10841 51 32 11
-0.351793 8.90213 -10.1886 32 24 26
-12.743 -9.46612 12.9052 44 66 74
1.40017 -4.86857 12.8248 43 67 78
8.96137 0.0143986 5.55023 55 65 76
-11.9519 2.46488 8.47968 19 18 23
-5.79066 7.36351 -11.9016 43 61 70
-9.16358 -2.9365 -12.1079 52 76 85
1.70781 4.10176 -13.4146 51 61 64
0.304599 4.03806 12.3893 40 55 63
-9.01174 -9.28429 -14.4996 57 74 80
-13.1057 -6.36369 4.76166 43 65 75
2.58672 4.85993 12.6183 28 28 33
-0.47622 5.32251 -11.9408 50 63 73
8.26855 5.07507 0.225797 75 38 3
-1.58535 12.9835 5.19216 68 75 84
8.73881 -5.64461 4.10011 53 58 69
8.55311 4.77062 -2.30659 70 33 2
4.13954 -0.230908 11.7089 50 77 86
-7.24985 4.71129 12.5221 44 63 74
-9.30996 4.91266 13.9383 40 54 58
-8.78575 7.93899 -6.31297 33 35 39
10.6644 -7.35771 -8.11466 35 32 17
0.510767 4.57398 -12.2748 53 67 78
11.5328 -10.7981 1.86255 39 39 40
6.78389 7.01959 2.11558 56 44 24
11.0963 -9.34005 -5.51861 36 31 20
-1.81569 12.8625 -3.79272 30 14 13
3.08027 7.36369 -2.3655 62 47 23
-6.62709 0.194187 -15.6889 59 43 12
10.769 -6.72906 -5.30815 38 35 27
8.64168 -4.46139 4.57712 59 67 77
1.56572 7.01218 4.08543 35 40 44
-12.7401 -3.8403 -0.575819 49 70 81
-13.1685 -7.47073 6.31085 47 68 77
-8.09507 8.43646 -11.2599 24 23 27
-12.0768 -9.42107 13.6792 51 73 83
6.82275 6.92736 -1.28584 73 39 10
3.12783 3.50716 -9.38388 34 21 24
-0.016315 2.2576 -12.5493 48 53 57
-12.6618 -3.60342 -0.968042 48 72 80
-3.66417 -6.95678 13.4706 49 66 72
8.52054 -4.54134 2.19382 37 22 22
2.65281 4.79141 -5.96201 37 26 31
-13.8889 -10.8744 0.0749378 19 31 34
-5.72205e-05 9.44774 -6.05687 37 21 25
11.0225 -11.8081 8.6361 25 39 29
-4.62627 7.69742 12.1608 46 61 70
1.02026 -6.22992 12.9911 42 63 71
-11.5786 2.87555 -11.0544 24 22 25
8.92962 -7.98947 12.8539 0 19 8
1.45288 -8.2858 13.176 41 65 74
0.407472 8.42405 -9.79651 45 32 34
-12.2546 -2.67351 11.6071 41 61 72
-13.6441 -7.326 -8.36248 56 75 81
10.253 -8.10679 -1.29916 37 26 27
-13.5104 -8.50403 0.390709 51 70 77
-13.1205 -5.93552 1.70018 49 67 73
-0.0928326 -0.550907 12.6572 38 59 64
10.0075 -6.43773 -8.57889 28 26 12
-7.97713 -1.31018 -12.8639 52 70 77
-0.911488 11.2223 9.79196 35 40 41
-13.597 -9.22451 1.65851 46 67 75
0.0195465 5.11646 -12.211 52 62 72
11.3531 -11.464 -6.19758 37 39 32
-11.3932 2.97805 -7.9634 28 29 34
-13.2218 -5.25769 -3.72137 54 76 84
11.212 -11.2608 -7.70094 44 39 28
10.4102 -7.45741 -10.2965 25 19 1
-10.0435 5.31897 -3.01985 14 14 20
-0.668555 -4.59616 -12.7991 52 59 67
1.32985 -3.02871 -12.3259 56 67 73
8.7706 0.0539322 -0.317116 58 64 73
-2.64811 13.5901 -4.34237 31 8 9
-0.190132 9.29775 -7.53944 41 34 39
-13.546 0.471758 -9.32188 27 25 31
-13.4437 -9.65929 8.3456 54 75 82
7.41518 6.20721 -0.758907 66 39 11
-7.0433 9.9768 -3.88346 20 20 22
-0.466927 10.3566 -5.44008 33 19 21
7.76474 5.63172 1.33392 64 48 34
-13.5786 -8.9719 0.413221 49 70 78
-9.54279 -7.89643 -12.4974 53 73 83
-7.55528 -10.8675 14.2036 48 61 68
7.12845 -5.86244 -13.1561 21 26 15
-7.27486 3.82425 -12.2547 53 61 66
5.75618 -0.60447 -6.28893 56 66 71
0.50749 14.6333 6.201 62 73 79
0.760913 4.28736 12.5225 38 56 63
-5.23709 13.2695 -11.413 42 40 43
-3.76885 14.6219 -12.6773 42 33 37
-12.7625 -3.88989 3.68669 45 63 71
10.5273 -10.039 -11.9348 40 48 34
-3.64733 -10.7493 13.8018 45 63 71
0.72665 7.5011 -8.96743 34 18 24
-0.0981979 8.87762 -11.2706 39 35 37
-10.0489 -0.775636 -11.8279 44 68 79
-10.3452 5.06436 5.32026 30 34 35
8.56691 1.78105 -1.77086 49 54 62
-12.7535 1.56432 -12.8542 30 34 38
-8.75459 -2.44375 12.9928 50 72 81
0.392387 10.9643 5.21546 63 73 79
10.2805 -9.84249 11.8126 8 30 17
-4.19205 5.22272 -11.9067 53 63 73
-7.68886 9.27767 6.77228 20 21 24
9.66867 3.59379 -6.15769 81 41 0
-11.0567 3.5079 11.1367 18 21 21
9.88758 2.78955 -0.823542 61 51 42
-12.9238 -7.94263 7.89284 49 71 81
6.08657 -5.1913 8.98038 37 55 60
-0.849378 -0.736142 -16.2615 60 43 31
-8.70199 -5.50448 -14.9611 56 73 79
-7.84292 9.00652 4.72148 31 32 35
6.89182 6.685 -2.27623 84 44 10
10.7008 -8.98671 10.7507 16 31 21
-1.31199 7.59189 -12.3774 51 65 78
2.85177 8.11435 0.561867 51 34 2
-0.332256 10.315 1.79633 36 19 27
4.28833 2.60127 -6.49166 67 36 8
-12.8181 1.09891 -5.04976 17 18 23
-12.4249 1.43548 0.915579 17 16 20
11.2852 -8.38344 6.46401 38 49 44
-12.0443 2.3222 -4.42251 19 16 22
-12.8315 -0.412528 -1.23411 41 58 67
-13.4392 0.072135 -7.5835 30 40 45
-4.16365 14.7208 3.62384 26 30 31
-12.89 -0.48761 -10.8079 47 61 72
-5.83657 11.8132 10.539 19 20 23
7.85148 -5.15252 -8.35905 34 40 35
-12.8587 -3.50764 1.35094 45 68 79
-1.52196 -4.95366 13.0391 44 65 73
-11.2107 -9.87746 13.9585 53 74 81
-8.38857 -4.31064 -13.0141 55 71 76
-13.0659 -7.99152 9.62989 49 67 75
-13.3008 -0.00580025 -1.69977 28 43 47
-3.3784 -3.50139 -15.6475 54 66 74
4.81404 3.55129 4.96103 53 28 0
-13.2108 -6.38244 -0.375561 51 74 85
-2.69743 14.6422 9.30609 48 65 71
8.25327 -1.54435 -2.47629 50 51 59
-12.8302 -1.53367 -9.01362 55 69 72
3.79807 -3.71082 -8.20566 35 26 36
-7.93485 8.65155 7.52893 23 26 29
8.88213 -7.32921 -13.7651 36 37 27
-0.247871 9.69976 9.61486 30 34 38
-9.20533 6.75465 11.8687 32 33 36
5.18837 -6.11213 11.6742 20 34 28
3.21507 4.31569 4.48496 56 32 2
0.524876 8.92318 6.1018 34 33 32
-0.223056 -0.241388 -12.3348 58 62 68
5.58005 6.46166 -3.22716 73 45 10
-10.2604 5.15217 -11.0099 22 21 27
9.47069 -7.94284 -13.136 49 52 54
0.510515 8.77321 2.05797 40 21 22
7.97893 -6.63561 11.8468 4 31 20
-3.92225 0.217931 -15.6679 69 39 7
-10.677 4.31235 -6.2168 15 19 22
0.884052 8.11366 13.773 35 35 35
-1.07259 11.855 -0.615923 41 30 30
-8.19228 -3.02416 -13.52 57 73 79
1.04067 2.16145 -12.2372 60 62 67
-12.7726 -0.646207 -5.43376 44 66 75
-3.668 14.8411 -1.55072 37 25 30
-11.3303 -2.49904 12.7281 50 72 83
-12.3811 -1.52136 -12.1754 51 65 71
4.08315 -3.99637 -10.8066 30 24 19
-5.79429 12.3614 8.07746 28 30 33
-12.5511 -1.72339 -5.95852 50 72 80
-4.67532 13.4649 -13.3999 46 48 52
-9.28031 6.69464 10.5722 21 26 30
-3.76101 6.10886 12.1829 39 65 76
-5.75669 12.1072 8.26571 24 22 25
8.47568 1.67029 2.385 52 60 70
-7.54914 9.56891 10.6138 23 23 26
-9.94371 5.54892 -9.84534 23 22 27
-13.2555 -6.37724 -1.58885 48 72 82
3.70257 -0.521934 -12.7041 57 62 67
4.01533 2.05579 -9.20002 31 13 14
-9.2686 6.77463 -1.93652 22 24 29
7.37833 -5.045 -9.79338 8 11 8
-0.440784 3.52424 12.3588 31 54 65
-1.76542 11.9664 13.6566 20 21 24
-4.22671 14.7124 9.16206 27 32 36
7.8291 3.46241 -6.31813 69 40 11
-11.2659 3.82543 -7.79237 23 27 27
-3.78552 9.80954 -12.0418 52 55 61
3.90907 1.97165 -7.7788 33 11 13
9.03638 4.46808 -2.28521 61 42 18
-13.5882 -7.63225 -6.79438 58 76 79
-1.66071 12.2767 3.95833 31 17 17
-5.28235 13.3331 -10.2717 27 29 31
7.78695 0.9939 7.16133 45 55 64
-8.61339 7.72999 4.86444 21 21 25
9.40348 2.49852 -0.75244 60 51 48
9.26541 2.26416 -4.1361 53 52 51
-10.1628 4.18269 -13.1587 50 54 57
8.19399 -1.88426 -1.69949 53 50 52
-5.04864 14.1427 -10.0696 31 32 36
8.02757 -5.43477 -10.2443 28 15 3
-8.06169 3.24679 -12.3612 55 61 58
-1.64888 8.99684 -13.0673 55 59 63
11.4927 -10.0758 1.1603 45 42 44
3.34225 3.49096 7.27028 28 24 29
-13.3788 0.0257773 1.20617 26 30 33
8.17502 -8.46778 13.3409 25 39 27
-7.08588 -4.11601 -15.3741 51 72 79
-13.1127 -5.3138 -4.55439 53 74 83
-5.58148 10.529 13.5613 46 58 66
4.55845 -9.16097 -17.1855 38 47 35
-13.4347 0.762033 4.75893 21 17 18
3.90464 -3.71248 -12.4032 46 46 40
5.27994 -6.5216 -15.4765 26 22 13
3.81846 2.30621 9.55076 26 18 23
-13.0019 -3.20634 -10.284 54 73 78
-13.4726 -9.24058 5.99689 49 74 84
-8.92274 7.06676 -9.88586 21 19 24
-6.23547 6.8014 -12.0078 47 58 69
4.00042 -2.13074 -8.96793 42 16 21
-3.85776 -9.41789 13.6912 45 67 75
3.27156 -7.1319 13.2788 24 42 34
-3.61881 15.8394 5.72863 46 62 70
4.93728 -8.30932 -16.7163 28 31 21
7.8679 1.52184 7.11385 55 40 28
8.21045 0.573135 6.24514 43 60 72
8.31465 -1.09383 6.22451 49 62 69
10.5572 -7.1836 10.5612 23 39 28
-0.904692 11.2101 11.025 39 41 44
3.49268 2.54857 -11.7739 32 19 19
8.19247 -2.05627 -2.41381 48 44 51
1.57094 6.19973 -7.22103 30 13 16
-1.76031 10.7694 -13.4569 47 60 68
5.84557 -6.01059 -14.1557 32 29 11
-10.3153 4.40833 9.50243 13 17 19
0.263914 9.28011 2.19655 50 26 32
2.5891 -11.6146 13.6667 38 50 49
-12.0257 -11.2602 -12.9789 25 31 37
8.86975 -3.19728 -4.14638 57 61 69
-6.04439 11.9966 -3.30496 27 28 31
-3.10207 -4.30872 -15.7175 52 64 69
4.24169 -4.98959 -11.0882 23 18 3
-13.194 -7.22365 0.802527 47 68 75
8.81452 -0.238571 1.55292 58 65 73
5.476 -5.08964 -11.3394 11 9 6
10.6638 -11.0508 -11.119 40 52 35
-13.1456 -8.67849 -12.4159 56 78 86
-10.2654 5.16261 8.31838 24 32 36
1.63048 3.81744 -13.2091 54 60 64
-11.9846 1.94506 10.5173 9 7 13
-12.653 -2.66561 -1.65393 48 68 77
8.71479 -0.536192 4.13585 58 67 78
-5.95646 4.76327 -11.8692 48 66 76
2.95085 3.6311 -7.94389 34 16 17
-8.85786 -8.55865 -13.5614 56 71 78
-2.76329 13.527 13.7428 17 15 17
-12.7469 -1.46301 -1.38603 49 65 69
-10.143 -10.1391 14.0741 54 73 80
-12.4712 2.18853 -5.97451 31 30 33
-2.99663 14.3941 -7.47784 32 11 11
0.199893 8.64462 -9.53736 36 30 30
3.87727 -4.2537 12.9899 56 69 74
8.90202 -2.07105 -6.01343 62 63 71
8.97038 -2.51814 5.89428 57 69 79
-11.1982 3.13132 6.2755 18 20 22
0.166843 -11.5188 -17.1787 17 15 11
-8.26751 -3.1224 -14.0318 58 75 79
-11.5945 3.02253 -13.1343 47 53 58
-1.51053 12.1173 -4.05247 32 17 17
-1.19023 8.90125 -13.3863 56 56 65
-12.0855 2.37273 9.17205 23 23 27
-6.10275 -9.48314 -15.9266 50 64 69
-9.43892 6.77435 -5.49157 29 33 36
-6.85911 10.5385 0.698606 28 25 27
1.22464 7.34322 4.27887 30 34 35
8.03245 2.83908 6.53959 58 39 8
-7.16499 9.96835 -3.34226 19 19 23
-5.39769 13.1669 13.2796 25 31 33
-2.95181 6.384 12.3327 42 57 65
1.98674 7.24761 0.969427 22 18 19
-2.09865 12.3436 -8.49958 31 16 16
-12.9216 -7.78554 10.6822 51 72 81
-0.735695 0.293908 -15.5755 69 40 7
-5.76683 4.20807 -12.0975 46 57 66
6.51127 6.62684 -3.26187 76 44 14
11.4794 -11.3284 6.25937 48 65 59
-3.08714 -2.5237 -15.439 51 62 71
-13.1575 0.880768 -10.0359 14 14 19
-7.80551 8.97775 -10.1958 29 26 29
9.5771 -7.41109 -2.46525 44 29 32
8.72078 -4.9177 -4.66514 55 63 72
4.10345 0.373985 13.7143 35 52 58
9.98404 3.21041 0.20599 72 43 6
7.26316 -3.74786 6.34295 50 64 70
9.7619 3.53427 5.20013 61 40 9
5.82708 -2.54079 -6.47052 55 62 71
6.59397 -1.9615 6.35942 51 63 69
8.31677 -2.37347 -0.0101606 33 14 9
0.308128 9.69229 13.2289 37 42 44
-4.21865 -9.21268 -15.8265 49 60 66
3.88544 3.71336 -5.13669 83 46 1
4.41642 -5.01447 7.3354 49 65 77
8.40811 0.284722 6.17383 51 64 74
-10.6686 4.9464 -7.96385 34 35 38
3.59291 2.96214 -6.19528 59 26 3
-10.508 -4.32677 13.3357 56 74 81
-11.3389 0.18473 -12.2862 45 58 66
-3.53951 3.55881 -12.2221 54 46 35
-3.0525 -4.78128 -15.5565 55 64 72
0.96516 8.38684 13.1911 42 45 46
-12.2157 -1.37662 10.7328 39 60 70
5.05666 0.890304 9.12217 27 27 33
0.470992 7.697 -10.7986 39 32 32
-13.5656 -8.13938 -3.95669 56 76 84
11.371 -8.59036 -1.8527 42 38 39
0.987539 -11.8127 13.6702 21 24 21
-1.07171 -4.33698 12.8809 43 63 71
1.60838 6.27672 -7.7336 36 21 25
-11.5127 2.74546 8.63153 15 14 18
-9.63699 -3.45141 13.1745 50 71 79
-9.84159 5.48217 -10.7962 33 39 44
-13.9182 -9.35608 -8.22152 62 81 87
2.80128 -6.81911 -15.7189 29 33 21
-3.49661 14.7957 3.4195 48 55 60
10.6826 -9.27614 -9.73124 52 55 58
-7.28192 -0.97715 12.9509 50 71 78
1.1668 6.89942 -10.9512 34 23 25
4.20482 -0.892478 -8.38318 48 51 61
8.538 -3.64204 2.20532 35 21 23
-11.7304 2.58393 -9.12248 22 21 24
-7.41958 -4.39757 -15.473 49 68 76
-11.8953 2.59555 -12.3673 16 17 22
-2.71259 13.4984 9.65528 33 39 42
-8.74897 7.85012 -1.70987 28 30 32
-1.22517 10.0837 13.4125 28 44 50
-13.1664 -5.72845 -2.07512 50 71 81
-13.3526 -8.3926 -0.487302 51 73 84
-10.4608 4.50788 11.8631 20 21 24
3.85462 -9.14587 13.269 17 32 22
-5.74123 4.61919 12.2839 41 63 74
0.973977 -2.97484 -12.3447 55 62 72
-10.9109 4.13574 10.8017 24 27 32
4.83068 -11.2444 -17.3026 17 14 9
-7.97399 9.21317 -12.2409 27 25 26
3.66546 -1.42228 -8.48849 41 29 35
8.90144 -3.66244 -5.23724 53 57 65
0.500034 13.517 5.82436 64 77 85
8.71187 0.799829 6.19135 43 49 59
10.1205 -11.4653 -12.4021 23 19 8
2.97899 -0.762779 12.9252 37 60 70
-2.83546 13.5575 -9.07904 39 16 17
4.79968 9.01188 -1.05467 65 35 0
-0.934313 11.7684 13.0104 38 43 45
-1.79488 -11.1161 -16.1474 14 9 13
9.47856 1.27552 -7.51329 60 55 50
-12.5214 -2.25103 1.16653 42 65 77
0.593025 8.70521 6.62036 37 37 39
-8.35507 5.31299 13.6449 43 60 65
-11.0221 1.83939 -12.799 36 50 55
2.74207 -9.44653 -17.1163 35 42 39
-6.08379 -2.78863 12.8508 48 68 77
-10.6609 -7.05723 -12.4351 57 74 82
1.42225 7.81305 0.866556 37 38 40
2.07018 5.70078 -6.61838 36 24 26
-5.71076 12.4441 0.731733 25 27 32
6.39876 4.90602 4.53838 66 39 5
-9.81039 6.38058 -6.64009 33 36 37
-11.3506 2.80443 6.6663 18 16 19
-13.3541 0.58079 2.3774 11 19 24
-2.10205 13.0022 -12.7821 42 24 24
4.16865 -3.19274 -11.3128 51 51 55
-8.15823 2.21414 -12.587 34 41 43
-12.5473 -2.71011 7.67188 45 61 67
-13.1453 -9.41494 9.65394 53 79 90
-5.18391 12.7717 -8.953 21 23 26
-3.64201 8.34446 12.1573 35 59 68
8.79327 -6.70796 -3.4342 52 56 61
7.01512 2.96278 5.92249 54 29 0
7.80617 2.75068 -6.87537 79 42 0
-0.30034 -0.891062 12.7288 41 58 64
-13.0683 -4.81825 -6.46729 53 75 84
-2.46311 13.4664 2.54954 31 17 22
2.77133 -10.6403 13.5211 40 60 65
4.2597 -2.63564 -8.18852 47 52 53
-6.41112 11.402 12.3393 25 31 34
2.7537 4.45106 6.64309 26 24 23
2.8165 -3.79416 -12.4818 34 32 30
-13.5286 -9.55363 -12.4148 60 77 82
-2.62566 13.9834 0.676838 36 19 21
-8.48601 3.30853 -11.9771 49 70 79
-7.05337 9.97076 -1.82102 20 26 27
-8.46341 -4.74635 -13.4729 56 74 82
-2.49922 13.6879 0.78718 37 23 23
-11.1668 3.64953 7.84938 21 23 26
-10.3153 5.27336 -5.66973 28 33 37
8.65317 1.39499 7.23353 49 46 43
5.33658 -8.65255 12.9467 3 16 6
-9.89277 -6.78038 13.3808 55 75 81
-12.8904 -3.99628 -6.16997 53 75 83
-11.9024 2.65361 10.3171 20 23 26
4.5285 -4.96355 9.2057 46 61 66
-1.94923 14.2123 9.17211 43 61 66
-12.9257 -3.62238 -4.19464 53 72 79
-11.2746 -1.19656 -12.0318 50 69 79
-9.05476 0.247643 12.7457 49 66 72
-1.8385 11.5395 13.6145 28 39 48
-12.5974 -9.6903 -12.6576 49 72 79
9.78853 3.66802 -5.02933 63 45 21
2.61758 4.83161 10.1223 23 21 27
-8.61603 -5.09863 -15.3305 54 74 80
8.85476 4.70527 -3.00819 63 38 12
1.36971 6.6678 -6.41159 36 19 20
4.11914 -2.66418 -11.5499 54 59 63
-12.1873 2.29203 -8.57582 15 16 20
5.05831 8.94512 0.106591 52 36 9
-11.6992 -5.31979 -12.2243 50 71 79
-1.55191 1.31326 12.5847 39 60 69
-12.5071 1.94607 -2.78023 20 21 26
10.3 -9.8687 -12.345 27 34 25
-1.68546 6.55446 -12.1285 53 62 71
-4.04419 2.7632 12.6378 41 65 75
-8.9784 7.66897 -12.7093 22 22 24
4.81464 3.77266 4.75964 62 36 0
-1.2713 -8.58811 -15.9712 32 44 36
0.304897 9.08923 -0.517434 31 17 14
-4.22608 14.6514 -0.145578 26 28 34
-12.1672 1.70873 10.9604 8 7 14
-6.76287 -0.241701 -16.0149 58 47 19
-2.72449 8.80739 12.3111 41 55 67
2.54866 4.62811 -9.28002 34 21 24
11.2496 -10.6487 -6.86298 43 47 45
2.48087 4.14101 -13.2704 34 28 31
1.74354 6.12034 -10.867 37 27 31
3.96095 -0.158607 -12.7157 53 55 60
-8.33681 7.97261 12.9912 19 20 22
-0.202286 9.04274 -12.5291 31 18 18
-1.42148 11.9817 3.62239 35 19 20
-8.50003 -11.0863 -16.1732 21 36 41
-6.33986 -0.487406 12.8925 51 69 76
-2.67764 14.0367 -6.80979 36 12 11
-14.1402 -10.5535 -7.78125 36 45 46
-2.26245 13.2065 -0.022604 39 24 27
-6.26012 1.62537 -14.3849 55 45 25
-5.69047 12.6299 6.83094 25 27 29
-3.99852 8.69963 -11.8788 56 70 80
-11.7736 -0.0736465 -12.4223 41 55 61
-6.44776 -3.50231 -15.4991 51 69 75
-0.251871 9.87913 2.21619 34 16 22
8.39556 -4.31301 -2.15506 30 10 12
-1.35059 -10.3285 -16.0135 24 28 20
2.72678 -5.3067 12.7455 38 58 65
8.33281 -6.57207 1.44913 33 10 8
9.13341 4.48537 2.26783 64 40 19
-0.178036 9.82008 10.1229 28 29 34
5.30247 -11.8266 13.6722 22 31 25
-1.22889 4.52134 -11.8497 50 65 72
-12.7288 -2.06747 -3.07888 54 71 77
-2.04433 12.5687 -12.8333 34 19 19
3.82691 2.20643 -12.6826 32 17 20
7.79925 5.63475 -0.381508 66 36 4
9.71952 -7.59097 12.406 9 24 22
4.68877 -8.66844 -17.0349 44 51 39
0.827213 8.42392 6.94659 41 43 46
-1.55781 -5.54628 13.0681 43 64 72
-7.61205 9.64279 1.28799 26 31 34
-0.775047 10.8868 1.22048 35 19 18
8.77762 -2.74137 4.48039 56 68 78
9.43591 -6.76661 11.7567 10 33 22
10.8518 -7.24693 5.09896 30 34 26
-6.86748 10.0827 8.90038 19 21 25
-4.87429 13.6007 5.06367 20 24 25
7.59452 -5.54825 7.47825 31 49 51
-13.3223 -8.37232 4.26641 43 66 76
2.73977 -9.70771 13.4805 10 32 27
-0.0716376 1.07735 -14.2974 57 54 54
-3.62156 14.6727 7.02642 35 46 55
-13.5123 0.432983 -5.11282 27 30 32
-9.42453 6.14426 5.75154 18 18 24
0.958677 8.20106 -2.2469 48 39 47
4.2623 2.14213 -6.83259 46 28 20
-6.09679 12.2978 -12.5362 41 45 46
9.36178 -8.18277 12.9309 25 41 33
-4.02624 -7.95319 -15.7553 50 65 74
-12.3998 -5.77032 10.3972 43 68 79
-13.7424 -11.091 6.77861 29 40 44
8.79059 -4.02299 -3.49559 54 60 68
-13.1141 -9.64509 10.074 45 67 76
3.63873 2.89784 6.42515 28 25 25
-4.82158 13.7189 9.35814 29 31 36
-7.54943 7.36113 -12.8063 47 53 63
-12.347 -3.2095 8.23118 41 64 77
-2.61388 14.091 -5.77695 33 13 14
-7.54658 8.97009 13.7648 37 39 49
-4.5907 14.3556 1.14914 12 12 15
8.93044 1.8113 4.54624 54 56 63
4.64583 0.466956 11.3641 39 52 59
-11.6921 2.56997 -10.7515 26 24 27
4.40878 -4.66682 -7.51938 47 51 57
4.35378 -3.84642 -7.24132 53 54 61
11.2384 -8.8137 -4.74071 36 42 29
0.569366 8.70492 3.58519 34 33 35
-8.17829 -3.03036 -12.9858 55 73 80
-13.1261 -4.88421 -9.26242 54 74 82
-11.0995 3.838 -5.40374 26 29 31
-4.19201 14.7611 11.7496 26 34 38
1.79532 -9.78059 13.4748 41 60 68
3.70583 2.46384 -9.74703 32 12 16
-2.59212 10.1487 12.3705 44 57 68
4.08829 -4.09717 -11.3045 28 23 15
8.22623 -3.37546 1.42615 34 10 6
4.04324 -0.135563 -11.4925 56 58 66
-13.1453 -6.24047 0.49017 47 69 76
-0.220736 10.057 10.3232 35 38 39
8.67244 -2.16518 -4.71623 56 61 71
-10.5636 5.17487 -12.006 31 34 37
4.09268 -9.57633 13.269 13 30 21
8.54156 -5.24103 -6.54284 48 52 59
10.5977 -7.1838 9.72174 21 35 26
7.40259 -5.60184 8.54736 47 46 52
1.86025 3.39619 13.2932 33 50 56
3.35194 8.8941 0.132938 55 35 2
-2.5584 14.176 11.1034 38 42 47
-4.94511 13.3203 10.623 24 35 33
0.280897 3.27568 -12.1266 48 66 70
-1.94672 2.23893 -13.6752 62 44 16
1.03953 3.85357 12.6822 35 55 64
-2.04537 -5.82148 12.9712 44 65 74
-8.63827 -0.43725 -15.1253 54 71 75
3.36758 -9.37403 -16.9746 17 22 8
-13.3681 -6.79667 -3.16632 56 75 82
-11.7106 0.381725 -12.5926 39 52 58
-12.6313 -10.5599 -12.7388 26 37 42
3.65316 3.09728 7.0892 28 31 31
-3.28109 14.3777 -11.4296 30 13 12
-10.2015 5.14287 -10.7222 21 19 27
10.7057 -8.25502 -2.79255 42 31 31
-13.3614 0.76496 -9.53404 14 16 21
-2.69558 13.686 10.0561 32 40 45
2.07032 5.20252 -6.818 30 12 16
-6.38927 -2.4258 -15.3498 49 66 73
1.34105 6.98184 -7.98732 34 22 25
-13.2354 -8.01205 1.83809 45 70 78
11.4717 -10.1376 -1.39751 41 39 40
-13.8772 -10.0261 -6.44994 60 80 87
-1.45912 -7.9804 -15.8667 29 40 30
4.34628 -0.875988 9.44795 58 82 95
5.22535 -1.58496 -6.29122 54 62 73
7.6037 5.84523 -1.15439 77 38 1
-12.5477 -3.19578 2.72374 44 65 77
-11.3707 3.24154 -0.662921 21 18 21
4.61828 -3.18299 6.47772 47 62 68
-10.306 5.34883 -11.9664 25 26 30
-8.09139 1.22098 -12.6065 27 40 46
1.37587 -1.12733 12.7446 39 60 70
7.101 0.785431 -7.49661 59 48 47
-3.29621 14.6529 -6.95456 37 12 10
-12.2943 1.69092 3.65715 20 22 24
9.89467 2.70219 2.89302 64 51 37
-12.1237 -1.92629 12.3086 42 65 73
-1.47611 -1.72237 12.6954 37 61 68
-11.7604 2.52665 -5.02684 14 14 19
-12.8282 -11.4637 13.2388 10 21 28
-9.78106 -0.365961 12.7351 51 66 73
-0.0486069 10.1065 13.0375 31 34 36
-11.0517 -0.423242 -11.975 42 60 72
-9.63212 5.81709 13.7619 33 40 44
-2.50186 13.2531 4.1635 53 53 61
7.39199 -4.60292 -6.46247 54 55 63
6.10661 0.673872 7.08227 35 50 54
-10.916 3.9848 -2.57943 21 22 26
-11.031 3.95556 -11.5032 22 24 29
4.03627 -6.53363 12.5315 4 23 13
-7.08054 -2.64398 12.8376 47 69 77
-7.62404 -5.84542 13.1849 49 71 80
3.92847 -11.2623 -17.5508 23 17 13
-1.28373 3.40807 -12.4068 53 60 68
-3.52531 12.0311 -13.204 46 58 66
9.85605 2.35218 -6.28705 59 53 50
-12.8383 -0.479377 -6.19598 43 63 73
-7.89924 9.22622 -11.7795 27 24 26
-2.62303 13.6532 -3.93758 35 12 14
3.99411 -8.30445 -16.6975 34 41 39
-9.85945 5.89054 -5.47423 24 25 27
8.25433 2.56125 -7.13589 75 38 3
-6.47165 -7.32607 -15.6688 46 70 78
-11.6719 3.32723 -12.5216 24 25 30
-3.40782 -4.29299 13.2024 47 67 72
2.63404 4.87397 8.19367 25 26 28
0.288845 8.94047 3.42082 36 31 31
-13.0081 -7.36162 9.5556 50 67 73
10.6255 -7.83408 3.19132 45 41 40
0.43993 -4.91755 13.0794 42 61 70
-4.39278 14.5192 2.22316 18 14 17
10.6129 -11.6622 -11.4504 28 18 14
5.72792 -9.52045 -16.8561 34 40 29
-5.97482 12.1612 2.02615 33 33 36
-8.64199 -0.998685 -12.0456 49 63 69
2.89503 -11.1748 13.5782 43 56 61
-12.5496 -4.61372 7.29176 45 71 81
-13.188 -5.57953 -0.611692 49 74 84
-2.86581 14.383 0.648298 35 20 21
-7.94522 3.65086 12.6811 47 61 68
1.06706 4.35009 12.7235 34 52 63
9.34838 3.48762 -6.58584 72 42 11
-2.19538 -0.718975 -16.2306 70 42 22
-2.58003 -10.155 -15.8276 47 56 62
6.97656 -5.66685 8.22 55 65 70
-2.40968 4.02179 12.5069 41 61 66
8.06945 5.31262 -4.50779 70 41 11
-12.8604 -4.94308 0.607111 46 69 79
8.02635 -5.0162 -7.88729 33 52 47
-12.9408 -0.221709 4.29956 24 41 45
4.66352 1.34622 9.57022 26 26 30
-11.4707 0.10166 13.4971 47 61 68
-2.93583 13.9875 -9.70392 28 13 14
-5.54453 0.00826645 12.6294 44 67 77
-7.95175 9.1982 -7.8475 29 28 29
-8.06735 8.59219 3.11495 27 30 34
-9.94368 1.95975 -12.2093 47 61 68
9.78067 2.53786 3.76401 56 51 44
-11.471 3.69152 -8.27078 32 38 39
8.25577 5.17425 -1.40617 70 37 6
4.12579 -1.14108 -11.4048 57 61 64
-5.18952 -9.53067 13.7162 48 68 78
6.73742 7.13849 -2.14382 67 41 6
11.3027 -9.17377 -4.44669 39 42 32
1.8127 -7.23522 13.1518 38 58 66
-12.9789 1.06069 1.63351 13 13 19
4.34958 -1.19597 9.59697 56 76 87
4.17734 -1.16058 8.61313 53 64 68
4.25871 -4.38172 9.52625 39 37 37
3.9987 -3.06829 -8.33706 32 25 30
-0.186945 9.84546 4.1297 36 21 24
-13.4433 -7.09096 -6.80902 54 76 87
3.55006 -2.10536 10.5517 50 53 61
-1.68293 -11.4186 -16.5459 16 10 17
-5.16975 12.5828 -1.35565 22 24 29
8.71087 1.30935 -0.578106 58 63 71
8.1197 -4.2842 6.23995 47 60 67
-12.5652 2.166 -11.5483 29 31 34
-10.5038 4.41848 9.9785 17 19 22
-0.864979 -4.74477 -14.5697 54 67 76
-7.53092 9.8186 8.51727 26 26 29
3.39198 3.51654 4.85725 70 39 8
2.01224 -5.37298 -14.373 34 38 27
-6.25779 3.02351 -13.1025 63 42 16
-13.4426 -11.3087 12.0676 20 27 36
6.13755 7.83824 1.12371 56 36 6
11.5228 -10.4951 3.98973 44 37 38
0.0524273 9.22492 -4.45797 33 16 14
-12.5134 2.12597 -5.0495 33 32 36
-11.5185 -9.42224 13.6579 47 73 83
-9.17965 6.40782 12.3045 18 16 22
-1.31411 4.21718 12.3455 39 60 73
9.1029 -5.87663 -8.42342 25 19 7
1.29525 -7.26274 13.1832 43 68 76
-10.395 -1.03964 12.9123 54 71 77
4.22589 -1.10541 -6.65885 58 69 83
-1.65709 12.6971 9.55089 41 55 58
-8.63101 -0.56283 12.6324 49 70 78
-3.50865 -11.325 -16.153 15 25 28
10.5264 -6.83616 7.74637 14 30 23
3.8108 6.01365 2.63337 71 37 3
5.46386 0.779217 7.26209 26 29 33
-6.85079 -7.80462 -15.8009 50 66 74
2.57737 8.35303 0.337241 55 29 2
-1.11721 11.9216 -3.08516 37 25 25
-12.7711 -1.66129 -8.29537 52 69 76
-1.49449 -10.7841 -16.0249 21 22 14
-7.88763 8.93626 -6.26327 30 27 31
-4.57463 14.3268 -2.387 20 17 18
-13.7587 -8.13476 -11.1969 57 79 85
4.54952 0.166411 -9.42385 45 49 57
-0.484504 -0.969095 -16.1251 57 50 37
-7.96507 9.34727 -5.68921 35 36 40
-4.58217 14.3694 2.01977 12 12 17
-7.18089 9.79175 1.32907 17 21 25
-8.69011 4.75068 -12.3154 46 56 60
0.609223 8.22261 -7.26678 36 18 19
-10.5834 -1.40752 12.9221 54 68 74
8.82059 1.98873 -1.01812 52 58 63
8.72601 -3.9814 4.3959 59 62 73
9.88078 2.8528 -5.48171 62 49 47
-12.9658 -3.70366 -5.26888 49 71 79
9.76846 1.34419 -7.01335 57 50 55
8.8567 4.63247 -0.645759 64 39 9
-6.79845 10.8971 -3.14523 32 35 38
-4.94069 -5.56989 13.2204 44 68 78
-9.92536 5.37043 -2.0381 20 23 26
-13.5277 -7.87865 -3.49603 60 76 83
-0.735792 5.35243 12.0963 35 58 69
9.72114 2.62812 -1.67766 62 49 41
-5.94002 11.6565 4.57662 26 30 32
1.21651 7.51278 -5.35992 36 24 28
8.33273 -4.23555 0.390321 36 10 12
-10.5442 4.97557 -3.71408 33 37 43
-10.2445 -4.40847 13.3061 54 73 81
0.775127 7.72963 -6.51092 32 18 20
-11.3852 2.81397 -6.35825 14 16 19
0.0611563 8.91971 -13.335 35 34 35
-8.70895 -7.88795 13.4895 51 72 80
-0.740305 11.4252 13.0009 31 36 39
-3.63773 14.552 -11.2437 21 14 14
-6.39808 11.3774 6.65012 28 29 36
-2.18828 -3.10095 -15.4938 55 64 76
-2.01768 3.70497 12.493 40 61 68
-5.1787 11.4231 13.6252 42 56 60
8.80312 -6.48405 -2.61058 35 21 24
-10.0801 -1.11186 12.9002 52 71 78
6.73845 -6.16192 -13.8998 30 30 16
5.97402 1.87984 6.66291 34 24 25
-8.07823 0.254777 -12.2677 36 53 57
-0.69492 -3.24869 -12.9574 55 63 72
8.99647 2.24534 0.296228 49 49 49
-9.95267 -3.92999 13.2065 49 73 82
-13.1989 0.928613 8.3652 23 24 27
2.17302 5.01202 -4.93489 33 8 19
9.97528 -7.39504 0.87335 40 28 30
-1.76078 14.3869 5.30647 90 95 103
-1.08932 11.8073 0.818895 44 31 34
-0.0665483 8.706 13.6065 29 39 42
-1.25745 8.27546 -12.8182 54 57 68
-1.09706 -8.92271 13.4185 39 59 67
-7.08185 10.0556 -4.96193 18 20 22
3.30789 3.2957 -5.84256 50 24 6
-8.63111 7.42167 5.88963 23 25 30
-0.307012 7.65547 12.7132 32 49 59
0.931953 5.23518 12.9134 30 47 55
-8.24713 -1.66818 -15.1163 56 72 74
11.5775 -11.981 -2.95796 24 16 18
-8.33051 0.775387 -13.8789 52 66 66
-3.26163 7.69275 -11.9216 51 65 73
-13.5522 -7.93312 -7.32603 58 76 86
-2.38284 14.9972 9.18578 48 62 67
7.82368 5.59043 -0.795186 67 41 11
3.63634 2.78951 9.53042 29 26 28
-12.5856 -1.23885 4.45294 43 59 68
-6.75488 9.0449 -13.165 50 59 62
-13.0578 -6.40246 -0.0578995 49 72 82
7.40368 -5.23994 -12.2505 19 28 13
-10.3388 -1.78341 -12.229 47 66 75
7.26867 -8.36421 13.1432 11 27 14
-12.3713 -3.77721 11.5583 42 66 78
11.401 -9.30321 -0.574823 46 41 43
-11.3365 2.98352 8.81593 13 10 14
-8.25243 -1.99692 -12.2609 52 75 80
-5.21442 -1.28938 -15.5688 51 57 60
-3.08277 3.52385 -12.2616 58 45 37
-9.60626 -2.57008 -12.1721 49 68 79
0.23473 -10.7663 -16.7424 24 24 16
-12.6571 -4.25792 7.10152 45 67 76
-6.40379 11.1975 10.5931 14 14 19
-2.89712 -6.15642 -15.5911 52 61 63
-5.68388 -10.7812 -16.0581 21 29 36
10.7107 -7.74886 9.30445 27 45 36
-12.0009 1.68655 13.786 50 54 57
-0.526099 -4.57232 -12.5354 50 61 68
0.122134 9.63044 9.23902 42 56 57
-7.77372 8.98839 3.32638 22 23 26
-13.0962 -6.973 6.34297 45 67 75
8.84524 1.98828 0.937929 53 55 58
3.67284 2.5125 6.74619 24 20 23
2.6418 -5.14662 -13.9334 29 35 30
-5.43154 -1.43766 12.6968 48 69 77
-4.32413 -5.1965 13.2923 45 65 74
-2.25593 -6.8142 -15.6701 36 43 35
1.85666 -6.27089 -15.0459 30 32 26
-9.30774 6.23459 12.0145 18 24 27
-4.86437 13.1364 8.24455 18 18 27
0.48251 14.0735 6.31791 64 76 83
-0.403911 0.654653 -13.218 64 60 65
-0.909546 11.4893 2.34437 41 28 30
-4.02244 8.78844 12.1313 41 64 73
0.36035 12.8628 7.04844 58 77 82
-2.56994 -0.536272 -16.185 70 43 12
-12.9014 -5.15487 4.02087 44 63 72
-5.8913 12.0412 1.38594 14 15 20
2.72216 4.85909 11.6752 30 30 35
-1.18038 -0.819098 12.7346 44 60 66
4.25172 -2.89898 11.7528 58 74 81
-9.35434 5.94454 10.1067 27 28 30
-11.4026 3.10257 -1.08552 20 21 25
-7.16072 4.27877 -12.11 50 61 66
-9.33477 6.49704 5.65399 16 16 22
-1.71375 12.7042 -0.474448 42 32 32
6.50069 -5.31855 -9.44978 20 26 15
-13.5572 -10.1817 -12.5343 53 64 68
2.72898 -3.29697 -12.6576 56 60 67
-0.229567 8.98139 -10.7149 34 24 25
-13.6594 -8.90506 -4.76925 62 79 89
-4.86276 13.9619 4.02745 19 16 22
-3.92592 12.8507 -13.4097 54 61 64
1.79101 4.96654 -13.5177 50 56 62
-10.6314 4.6901 -4.31502 24 24 28
-8.10476 -2.12281 -14.0433 58 74 80
-11.8984 -10.3184 -12.647 35 48 57
-2.12926 13.0982 -3.80583 28 11 10
-6.04615 11.301 2.49998 16 13 19
-1.27604 0.306312 -15.5481 71 41 8
-13.5108 -6.61557 -8.758 53 74 82
1.00993 7.6671 3.47124 24 30 32
8.76227 -4.89005 -5.01632 57 57 66
-6.9363 10.0109 1.59754 19 19 22
-13.0114 -3.07352 -6.44184 55 74 78
1.01228 3.52574 12.5998 38 52 62
-12.4288 1.48096 5.58632 10 11 17
-12.8961 1.06201 12.2224 21 19 25
4.26649 -2.35294 11.9528 57 76 82
-10.5518 5.11805 -5.74674 35 37 40
1.40241 5.56624 13.5871 33 45 49
-2.47633 6.09333 12.3331 42 59 66
-4.99335 13.6906 -1.91763 25 26 29
0.856161 8.37626 9.51688 35 41 48
-12.9556 -7.42348 8.14947 48 71 80
-1.37278 11.7222 13.6419 22 26 30
10.0578 -5.84052 -6.35662 36 32 22
-0.764618 -1.59341 -13.9188 73 77 84
8.62616 1.12275 1.57592 52 60 68
-10.7631 3.43534 13.883 42 44 50
1.51408 7.13888 2.22708 33 31 34
9.2975 4.04731 -3.14555 76 37 5
5.66133 -5.6047 10.95 29 49 44
2.99962 4.67178 9.2785 35 37 40
-4.84297 13.4933 11.4698 18 18 21
-12.833 -3.44023 -4.69939 51 73 82
3.18182 4.4117 4.18457 60 34 5
1.68754 6.98034 11.3889 40 49 51
0.288532 11.4351 7.97201 62 79 86
0.929621 8.27254 6.06198 41 44 45
-10.5731 4.46597 -3.49932 23 24 28
-12.2802 2.0248 2.88427 14 18 21
10.6242 -7.02842 -6.79707 39 39 27
-11.3308 2.82199 3.53165 9 6 14
8.56802 1.76467 -7.5975 79 42 0
0.654546 -2.15315 -12.2445 52 64 70
-4.86386 8.46017 -12.06 48 61 69
0.171942 9.56563 -2.10971 44 31 33
-5.25177 -8.98482 13.6235 46 67 78
-13.0221 -0.221401 -1.32876 35 52 59
5.94078 0.588224 -7.51905 52 48 48
5.30955 3.44669 5.54494 55 32 3
8.66362 4.73208 1.50155 69 33 0
4.10901 -6.96206 12.8352 4 23 14
3.06929 4.15738 -5.31802 67 43 19
-11.5504 3.22364 -8.45879 24 24 28
-8.96718 -8.75581 -14.6483 58 73 79
-12.8813 1.21257 5.35225 15 14 20
4.35625 -4.49193 10.7591 43 52 58
3.4124 7.52882 1.34916 43 32 9
7.6218 5.18502 -4.6611 68 43 9
4.23415 -0.407805 -8.70854 51 61 70
-5.15478 13.0778 9.54905 22 27 30
8.66979 1.31399 -0.0571232 53 60 66
-8.34438 8.3472 -0.783607 24 26 30
-10.8108 4.16402 13.3229 29 31 34
-12.1664 1.8224 7.03633 13 11 17
-12.9067 -5.49327 0.487103 49 70 81
0.857091 1.57731 12.4411 39 59 68
-9.8714 5.95886 -6.34198 22 23 25
-2.94477 14.4677 10.3761 35 41 43
1.19474 1.69128 12.5197 37 59 67
1.45634 7.03495 -5.53761 32 16 21
-6.66823 6.08145 12.5333 45 60 66
-8.76115 7.46696 -11.0055 23 24 29
-7.73552 9.4945 -4.66596 27 24 29
8.32644 -3.26146 -0.501494 34 14 14
-3.80069 -5.4696 -15.4584 55 69 83
6.28046 3.54116 5.72754 67 39 2
4.25859 -2.19574 -9.42692 47 48 55
-5.23937 13.2145 -9.80857 27 27 29
-2.45022 1.81841 -14.055 56 45 25
11.6578 -12.0655 4.94024 29 36 34
-5.15448 13.0843 10.1244 18 31 30
-2.66773 13.4861 -12.8966 40 20 22
-7.31998 -3.88334 13.0948 51 71 78
-10.1696 4.80582 12.4948 15 14 18
-6.10862 11.9134 -2.67057 26 29 31
1.94241 0.121048 12.4671 41 60 74
1.50266 8.90831 -0.611595 35 24 23
-8.62639 7.95679 2.05399 29 31 35
3.88142 -5.80594 -14.3914 32 30 15
-12.861 -3.92448 -0.10605 47 68 79
-4.83501 14.2688 -8.60752 18 15 18
0.501149 -0.938921 12.5434 38 63 73
0.36098 8.92597 11.5597 37 41 42
-12.6831 -3.27781 4.35196 44 66 74
-2.44992 13.3441 1.3986 33 15 15
8.22359 -1.4409 -0.444489 55 53 58
-1.84455 7.24034 12.0499 37 62 75
-12.9346 -0.302425 -5.6942 37 56 65
-8.26305 1.55305 -11.9703 44 62 74
8.86343 -1.26715 -5.17024 58 65 68
-10.6905 4.33397 12.0537 21 23 29
1.80156 6.27345 7.9863 32 29 29
-7.89313 9.39333 -9.66467 32 33 37
9.5835 1.48814 -6.54714 56 47 53
-12.4469 -1.90832 1.41725 45 65 75
-10.3041 -1.30078 -12.1441 44 65 73
3.96728 -4.4271 9.22681 41 38 45
-13.7398 -8.35174 -11.6682 54 74 81
2.32824 5.43669 10.9179 37 34 36
11.2667 -8.31767 4.52256 35 45 31
-12.617 1.72571 -9.61751 21 21 25
6.83939 -9.69258 -16.3126 41 44 33
-10.7127 -2.99107 12.9474 52 71 83
-1.11816 -4.66436 -15.3231 54 66 73
-11.9507 2.19186 11.904 13 13 20
3.81776 -8.36074 -16.4664 35 43 42
5.97504 -8.27776 12.9186 8 24 18
-9.55103 6.60492 -2.72832 27 28 32
8.17972 -1.50309 0.832432 47 31 37
11.0679 -8.61188 -5.17992 33 31 17
-13.1947 -9.96007 9.85166 47 70 82
-9.12339 6.96918 4.45011 27 27 30
-7.10917 10.0141 12.4503 20 26 29
-12.2541 1.81693 0.570211 16 16 20
-13.6003 -11.4657 9.45185 26 37 42
2.73 4.36291 -8.36257 36 23 24
8.57313 -5.70352 -11.7464 37 31 23
8.84809 -3.96165 5.94557 49 67 75
6.32699 4.28923 -5.14003 76 35 0
-12.2476 -1.856 8.02212 44 66 77
-4.35794 13.3706 -13.4385 51 52 58
10.1443 -7.79602 0.498721 40 29 30
3.35567 -2.30329 10.1523 47 55 61
-12.8035 1.2729 -6.78958 19 21 27
8.69577 1.52562 -2.68188 55 59 62
-12.4297 2.20305 -9.00225 27 27 31
-5.93868 12.2098 -1.26905 33 35 36
1.5821 -6.64597 12.9093 32 56 65
2.67599 -2.94699 -12.6287 58 63 73
8.71692 -6.80052 -1.41673 40 32 31
3.46497 2.87507 -9.64971 34 18 20
1.49316 6.99499 -6.00246 43 27 28
9.06659 -5.43459 -5.97378 46 47 49
8.35045 5.14383 2.84197 71 46 5
-3.87723 10.4664 -12.2977 48 56 59
-7.94726 9.21713 -6.13734 29 32 33
-13.6311 -10.918 4.91718 31 43 51
-1.35766 11.9616 -2.61782 37 22 24
-2.91929 17.396 8.18086 39 55 63
-13.1276 -5.43552 -1.16595 51 73 81
8.46678 -6.09625 10.389 13 31 20
8.01618 -7.36369 -14.0307 48 52 56
-3.34204 12.1991 -13.35 51 56 65
8.88295 -4.22936 2.61177 52 46 50
-13.2141 -6.40691 -4.48572 53 76 87
-9.85674 6.27571 -9.58559 32 35 38
-5.71136 -8.15261 -15.7382 46 65 72
-13.6775 -10.2189 2.82296 52 66 74
1.01453 7.64961 -3.06303 43 36 42
-5.64992 3.32358 12.6516 42 65 76
-2.5764 -1.75977 12.6606 40 64 75
-2.4712 0.117659 -15.6755 69 39 5
-13.0459 -6.67059 3.39047 43 64 74
-9.4707 6.6446 2.76371 34 33 36
-10.7887 -0.658205 -11.8297 44 65 77
10.316 -6.42516 8.0065 24 44 37
4.4829 -9.76178 13.35 17 31 26
10.2879 -6.48926 8.93302 18 33 21
8.07158 -10.1016 -15.4923 34 40 24
-12.8776 -6.6048 10.2285 50 68 75
-12.6552 -9.78236 13.2761 49 67 75
-6.79385 10.0569 13.8045 41 56 55
-8.74695 7.2083 5.59585 17 19 22
-12.6272 -0.668565 5.25677 43 56 62
-4.06394 14.7072 -4.9539 22 18 22
-8.48036 8.23249 -5.28175 29 29 32
-5.37825 12.5916 -9.09902 16 18 23
4.22478 8.15238 0.679793 70 38 3
1.18304 -4.92118 -12.7127 39 56 58
4.34246 -2.75874 7.7592 53 70 74
-12.8308 -3.13047 1.05526 49 68 79
-6.01572 2.26802 -13.7673 56 43 24
-12.1098 2.2953 -7.60779 15 16 22
7.18093 0.678498 6.78827 44 57 64
0.464993 12.4043 5.80097 60 71 80
-6.3161 2.31882 -13.7716 59 45 11
4.22954 -2.03117 12.659 57 75 82
8.77385 -0.980058 -2.62241 58 60 68
-12.7654 -0.489144 3.7997 31 50 58
1.81816 2.90595 -12.7334 53 59 63
5.16298 7.70991 1.43877 61 45 20
-0.548128 10.6581 -5.66265 43 28 30
-4.06009 -2.13 13.0004 48 68 74
-8.81583 -6.79231 -12.8683 55 74 79
-0.116098 9.8848 0.259974 38 21 21
-8.56954 -5.56451 -13.7142 58 75 81
-4.12995 1.32733 -14.6834 56 39 8
-10.7062 4.1815 -2.32157 15 16 19
-12.6508 -4.18947 9.36859 48 66 75
2.835 6.44249 2.2437 31 23 10
-9.29689 6.17903 9.9331 31 32 36
-0.800132 10.9268 2.51395 37 27 29
0.346998 15.7806 7.00112 58 72 79
-12.6718 -10.5021 13.2309 41 61 62
-2.64887 16.7494 9.32439 47 65 69
0.416809 6.1101 -13.2228 52 59 65
0.362051 7.94362 -10.8088 37 32 31
-12.5862 -4.69894 11.1853 46 67 75
-12.7663 -0.859151 -7.29183 49 65 73
-7.88401 -10.9778 -16.2678 21 32 38
-10.2534 4.65117 5.81921 20 19 22
3.37415 3.10196 -12.0897 33 26 26
2.77908 3.75556 -13.174 34 26 21
-7.18166 10.1296 -11.0296 38 38 41
8.41054 -3.1699 -6.19212 60 69 80
-8.56364 7.90143 6.16036 23 29 34
-8.01588 -2.27772 -15.416 54 72 74
-12.3432 -3.38854 9.66292 41 64 74
