ply
format ascii 1.0
comment Created by Open3D
element vertex 1391
property double x
property double y
property double z
property uchar red
property uchar green
property uchar blue
end_header
-0.604425 38.5299 -11.2946 70 70 13
-8.06242 18.433 -25.7237 68 66 11
12.0547 33.913 -13.2905 73 70 5
-12.3489 22.5142 -22.4577 66 70 16
4.55257 16.2565 -27.0208 71 61 15
-24.1101 20.9451 13.2418 61 88 83
-1.4347 17.3646 -26.3591 67 64 9
13.3769 21.0401 -22.5196 74 73 26
2.45477 35.4103 -12.9325 72 70 14
9.8822 13.3169 -29.2155 70 65 13
-24.0797 19.7808 19.8957 82 117 122
-13.6631 35.9091 -12.701 81 76 12
0.702358 19.9266 -24.1482 71 69 10
-27.5959 -25.4774 -0.332554 45 76 27
-5.49105 28.5374 -17.1065 62 57 15
11.6969 34.1984 -13.1669 76 69 8
40.0238 -25.9639 -22.0017 72 92 30
-24.6224 29.0519 17.6451 63 78 74
34.3214 -10.3952 -24.0603 74 89 84
30.7256 -25.1073 -23.5912 47 52 30
11.9572 39.3015 -10.5702 71 65 7
-18.9703 34.0813 -13.6747 73 73 13
-10.6037 38.3432 -11.4165 68 65 14
33.1734 -26.0742 -29.4486 12 38 11
-20.9526 -26.1383 16.3249 87 116 51
-18.8564 24.1014 -21.1377 68 70 11
5.29611 -9.43346 -24.904 63 40 13
-15.0185 28.342 -17.5766 67 61 16
-2.76083 22.232 -22.4034 66 68 12
7.62444 35.4313 -14.2201 96 93 0
0.764446 12.2908 -30.0568 76 73 20
-16.7846 -26.1488 11.0136 51 75 29
3.82621 23.0945 -21.3522 70 62 18
-0.859907 37.3406 -11.9608 71 71 15
6.58996 37.4739 -11.724 80 71 1
-20.7737 17.0139 -25.7189 59 69 53
-25.5085 24.7081 14.2521 56 72 68
37.2976 -25.735 -27.1168 69 87 36
6.7522 12.1945 -29.9096 59 49 2
36.018 -25.7562 -27.4333 85 105 34
29.4428 15.1059 -8.8367 70 68 20
-18.9646 20.0196 10.7116 96 92 4
6.37412 32.8199 -14.2104 71 70 18
-5.04775 44.6433 -5.03981 70 84 77
-24.2643 24.9198 16.3963 69 108 109
-10.2939 33.0107 -14.4093 72 71 20
7.52059 24.4906 -20.9618 94 92 2
-25.8585 19.8937 13.5919 59 81 85
-25.4372 -25.3426 -0.582672 63 84 53
15.3541 -25.8605 -28.4126 46 55 18
-7.59609 32.8545 -14.5009 72 70 20
-18.8067 19.8579 -24.8315 68 65 8
-9.96688 32.431 -14.7233 69 71 16
2.6121 33.0276 -14.2213 69 70 15
-9.97561 23.926 -21.2603 70 70 15
-12.8778 25.3429 -20.0762 68 63 17
-24.1799 -8.45886 17.7703 72 94 87
-2.72155 24.9657 -20.1331 65 66 16
-4.15044 14.9347 -28.404 70 61 12
-11.9094 44.9152 -7.22827 79 81 61
-15.6904 45.7925 -3.41391 76 81 63
-25.6387 24.3336 13.395 58 82 81
-3.66136 28.3741 -17.1407 62 56 13
-16.8207 15.7132 -28.2957 67 65 9
7.41463 22.9289 -21.1325 82 80 0
32.7909 5.22439 -14.9225 73 70 0
-7.66265 39.1352 -11.0237 74 64 14
-9.09666 45.5564 -3.54446 82 79 39
4.04335 22.2052 -22.0892 72 66 14
-23.5156 -26.1946 17.1287 75 104 43
22.9918 -24.3463 -21.9844 50 48 20
-12.9573 21.9664 -22.8789 69 72 16
3.23012 13.6824 -29.1236 70 68 7
4.5288 28.7695 -16.227 63 54 20
10.175 41.6872 -9.37058 72 66 11
-28.221 -26.074 15.7586 49 83 33
6.38034 35.5314 -12.762 79 71 0
-8.05659 44.5936 -7.7691 68 56 12
-24.0928 -25.3325 -5.62074 53 76 22
-9.3724 28.4517 -17.3352 62 59 14
-23.1622 -25.9025 10.5596 86 105 52
-16.1202 20.8062 -23.9306 76 74 0
-19.118 16.9731 12.8284 98 94 3
3.77035 14.7485 -28.2566 70 61 13
12.3147 44.3603 -7.7509 68 60 13
11.223 40.5827 -9.90059 71 66 11
-24.0678 -6.82628 12.144 83 105 98
-12.0751 26.8238 -18.8708 68 64 18
11.2704 28.4957 -15.6538 73 69 43
22.0932 -25.5407 -27.7117 32 38 14
-14.4489 41.1374 -11.3983 66 78 55
-20.669 39.2524 -0.068428 71 84 74
12.2787 30.5504 -15.0153 75 67 19
5.51293 16.6735 -26.6562 71 60 16
32.3134 -26.1116 -21.2013 58 69 37
-1.00789 33.1941 -14.2136 71 72 17
-25.4749 21.4577 12.1201 68 92 90
-18.1758 33.2889 -14.1465 71 75 18
-26.6675 -25.9983 14.0701 69 96 31
-19.7085 -25.4275 -4.84408 60 80 14
7.50802 23.9937 -21.4988 94 93 2
-23.8849 -1.56883 14.6162 73 102 95
11.9499 -24.8161 -22.9921 40 61 22
-1.25938 30.0166 -15.7856 71 71 16
-18.7906 38.5177 -11.2008 71 73 11
7.70086 37.0469 -14.4463 75 81 47
25.3313 -26.0309 -29.6937 57 86 34
33.2589 -23.6712 -22.8469 81 101 45
19.2108 -23.281 -25.2088 57 48 23
-20.853 29.1245 5.04313 57 62 46
30.0517 15.6195 -8.50464 70 67 22
-24.3186 -15.809 5.93256 58 76 58
-20.5418 35.9919 0.911018 66 61 12
-20.6709 44.4038 -6.95168 69 84 75
-7.06259 38.8649 -11.1409 70 64 14
-2.98614 44.8458 -4.73019 75 88 79
-10.0441 19.3776 -24.9989 68 64 14
32.819 11.8142 -10.8634 77 70 9
4.58261 18.4367 -25.1989 70 61 14
-19.3394 15.6092 13.8018 95 92 5
4.1497 15.8262 -27.4086 71 61 13
-24.2628 24.3106 15.3304 68 98 101
-12.1029 35.6596 -12.9216 66 66 15
2.99239 24.1882 -20.5116 69 66 16
-20.1869 30.3231 4.23196 86 79 6
6.64855 30.3721 -15.4546 70 69 15
-24.0998 20.9334 14.6798 85 116 118
-10.9106 31.8664 -15.0069 71 66 18
21.2695 -23.5324 -25.1685 57 50 26
-3.52656 36.5693 -12.3951 69 69 13
-24.4159 5.84206 13.4103 56 73 63
37.8845 -25.7344 -27.2385 67 86 35
33.2467 -21.8164 -21.6958 77 99 51
-11.1135 40.2767 -10.3811 71 62 20
-8.59183 28.6317 -17.1165 59 55 14
-17.8078 44.9935 -7.03214 82 87 72
7.67759 20.2986 -24.0934 97 100 34
39.855 -25.8861 -24.2158 70 87 31
-1.74103 43.771 -8.36982 69 64 12
-9.77772 35.5474 -12.9906 70 69 14
5.66885 17.7062 -25.7611 72 63 15
6.56173 32.4099 -14.4061 71 68 19
4.64077 42.3486 -9.13717 69 66 12
-12.3287 30.5239 -15.6615 70 75 19
20.5387 -24.1717 -21.1109 56 59 27
-25.4208 -8.6544 10.4833 91 111 101
30.9111 10.9293 -11.6035 76 70 10
-17.6528 -25.4405 -6.84194 53 75 19
-11.6539 36.2116 -12.6247 70 65 16
10.5298 42.1481 -9.11604 69 66 13
2.09935 25.3462 -19.5822 68 62 15
-16.7956 -24.9802 5.09745 16 20 9
7.63336 42.1598 -9.1829 72 63 16
3.24739 38.5588 -11.2285 71 67 12
37.9098 -25.7363 -26.5549 70 86 33
-5.13009 27.4187 -18.1418 66 56 14
-6.24634 45.1267 -4.32446 75 87 77
-24.472 4.64531 13.8011 72 83 75
3.43435 28.4815 -16.6855 60 55 17
-0.985264 29.2688 -16.0328 72 69 20
-23.9259 -8.41742 10.8141 85 119 116
-25.9281 -21.3524 3.38448 49 68 26
-18.9732 43.5559 -8.37366 69 59 14
-21.5591 -26.1574 16.9173 77 107 37
-18.6907 44.8135 -4.51632 62 72 69
-6.99828 25.0718 -20.2137 66 62 16
11.2264 43.3159 -8.45676 70 62 18
-25.0869 3.85271 13.3076 89 110 108
8.60375 27.0498 -20.0273 77 82 63
34.143 -25.7648 -26.7471 34 61 14
-20.0787 33.6205 -13.9161 71 62 19
-16.1497 16.1092 -27.9625 67 62 11
-12.8374 27.0031 -18.6997 69 61 15
2.40318 20.3715 -23.7108 68 69 11
-19.165 1.57963 -8.18756 64 73 68
-10.1669 36.0937 -12.6745 69 63 16
-23.0869 -25.4727 -1.73222 61 84 26
-2.8169 28.2727 -17.2202 63 56 12
-16.6457 -24.6401 4.33239 7 8 1
7.18894 31.5242 -14.8424 71 65 18
-28.2157 -25.7113 5.22167 58 83 23
2.5523 22.6285 -21.8403 70 67 12
-20.2414 31.5709 3.56253 84 73 3
-25.8537 9.64098 17.3052 34 62 46
-20.6308 42.6661 -1.15539 70 82 70
-20.1663 22.6142 -22.4033 65 66 11
-13.0961 38.7918 -11.1233 75 74 14
-5.29623 19.2447 -24.9578 69 58 11
-19.5854 30.0395 -15.7971 70 78 27
-14.2551 16.0652 -27.9225 67 58 12
-5.06091 20.2316 -24.1277 66 60 10
-4.22789 26.9353 -18.5192 65 55 12
-23.6886 -25.3412 -5.4822 42 72 25
-27.962 -25.9553 12.0914 53 90 33
-30.3476 -25.882 14.1277 51 90 35
-25.6247 -3.54367 14.1775 57 83 82
34.4069 -25.7579 -29.0089 55 84 30
3.42704 -17.5155 -25.0484 47 33 15
5.80767 40.02 -10.3869 74 67 0
-0.937672 41.3417 -9.75775 67 69 11
-16.2207 19.8229 -24.7658 72 72 10
-1.20324 33.6137 -13.9859 71 70 11
10.3435 43.7986 -8.19475 69 63 19
39.0995 -25.8102 -24.0779 74 92 32
7.56929 25.2338 -20.5379 97 99 8
-5.88861 14.9577 -28.4813 70 61 9
-16.0342 24.2833 -21.5005 82 78 0
-29.0559 -25.7114 5.32667 59 86 29
-10.8538 39.0184 -11.0673 69 64 13
-27.4868 -25.9683 10.5041 77 104 38
-25.283 -18.7593 3.71925 98 119 93
8.74474 43.3766 -8.48652 74 69 17
30.5833 10.6055 -11.8082 74 71 8
-20.6752 29.8718 4.49472 60 62 33
32.7544 13.7813 -9.56652 75 72 17
3.43062 26.7079 -18.352 69 58 17
-25.8505 19.151 13.453 59 78 82
-16.2162 25.5237 -19.863 75 71 1
-11.5754 40.075 -10.5222 72 64 20
-15.8812 34.82 -14.2994 82 78 0
36.7373 -25.7681 -27.0199 79 98 38
28.7018 -24.7866 -24.5674 43 45 24
-20.7562 19.4791 -23.4384 51 60 58
3.4463 18.0323 -25.6175 71 61 14
-16.7904 28.1875 -17.6869 67 62 16
-19.0344 11.5006 16.8208 99 97 58
3.31198 24.5092 -20.2058 68 63 18
32.6936 0.809689 -17.691 75 73 14
3.98328 13.4493 -29.2945 71 64 10
-9.80116 31.1371 -15.389 70 69 16
-14.6433 31.4828 -15.1791 69 64 23
-0.24408 33.591 -13.9723 71 67 12
-3.35934 45.0432 -4.44719 75 88 86
-25.0095 19.1596 12.5526 89 116 113
-24.9859 9.59408 15.4419 60 71 67
19.3527 -23.1828 -24.3988 62 53 28
-11.8232 30.0906 -15.8467 71 73 21
33.5776 -25.7417 -24.991 46 59 19
30.233 16.9212 -7.10505 84 95 87
5.17767 13.0075 -29.5538 65 59 3
5.26148 24.3683 -20.2002 71 68 2
-27.1833 -25.3278 -4.93369 30 68 25
-15.6598 39.1599 -13.3483 75 84 48
-26.0685 -25.3274 -5.75312 61 86 59
5.28952 40.5901 -10.0726 74 67 0
8.6242 44.6546 -5.01014 80 94 85
33.2226 -12.1877 -23.4288 82 99 83
-20.5724 40.5007 -1.72768 62 44 4
-10.2018 27.5731 -18.1654 67 59 15
13.9106 20.6952 -22.6979 73 72 35
-26.1393 -25.5892 2.47136 38 62 13
-25.9315 27.8257 15.966 54 76 78
-17.4598 -26.0384 13.4366 81 107 43
-15.8588 38.2043 -12.3196 77 77 1
-25.9594 23.7946 14.783 53 77 82
-0.970839 36.5909 -12.365 70 69 10
5.46706 23.1367 -21.2032 74 69 1
8.46619 28.2919 -16.3346 64 57 19
11.2346 19.1616 -24.3106 73 67 22
-0.234119 41.8038 -9.49368 71 65 11
32.5907 -25.7905 -28.7374 26 50 7
-26.901 -26.0381 13.2501 79 105 33
-26.3718 -25.983 15.1363 60 86 30
-29.6442 -25.9761 15.5827 51 82 32
-20.5387 -25.4987 -1.55074 61 81 21
2.01834 40.8854 -9.98078 70 69 12
14.1247 -25.579 -27.4645 32 40 21
-0.316856 17.5555 -26.148 69 63 6
-21.5904 -25.4426 -2.44808 58 80 25
-14.9695 16.4598 -27.6097 66 65 13
1.21119 34.9537 -13.2171 71 71 7
-21.0165 -22.7136 3.42392 8 8 0
-24.3261 -23.5824 0.715298 40 57 33
-16.3238 21.6201 -23.2045 75 71 0
-7.2507 23.2324 -21.7488 68 65 12
-8.41599 29.1397 -16.5259 61 56 24
-26.2279 -25.8798 11.3191 61 82 30
-24.1542 -18.2056 4.29214 20 34 24
-16.3671 15.626 -28.3406 66 64 10
-25.8453 -6.30397 13.4436 54 78 80
21.0538 -26.1826 -28.8295 36 50 12
-12.5079 43.4073 -8.56237 71 62 19
-24.3931 19.0627 35.7014 85 112 114
-0.0741482 13.2782 -29.5323 73 67 9
1.657 38.5334 -11.2732 70 66 13
4.86579 35.8671 -12.6401 71 69 9
-7.10166 29.8601 -15.9103 72 68 15
-16.159 -25.751 5.93019 0 6 0
-13.2347 21.5486 -23.1965 72 72 14
20.8868 -25.1551 -27.9609 34 42 15
-14.397 39.3521 -13.3196 72 78 61
-25.8502 -7.28787 12.8523 53 78 78
-26.0347 25.8221 17.4513 51 82 84
-8.95749 36.0096 -12.7457 70 66 14
16.0634 -23.3106 -24.3546 38 42 30
9.71332 31.5898 -14.6469 74 73 20
-5.28571 31.0997 -15.3883 73 68 16
17.4126 -23.3881 -25.3876 65 43 25
13.5682 41.9462 -9.10001 68 59 7
-0.257996 30.8159 -15.413 72 68 16
7.51614 22.3239 -22.3252 93 92 0
-0.303944 35.6606 -12.8579 66 67 11
3.3752 43.5704 -8.45382 69 69 9
3.42972 44.579 -7.75843 65 60 13
12.7521 -24.2648 -21.9668 51 59 32
-20.545 42.4622 -2.88112 58 60 47
-17.9865 -26.1505 16.6253 85 110 45
9.22401 15.9875 -27.0596 71 62 19
-24.762 15.465 11.0297 70 96 88
2.31173 44.5906 -5.18306 79 90 85
-9.50953 29.5987 -16.0505 70 68 20
-15.9262 35.697 -14.0209 76 77 1
9.06631 26.4412 -18.0812 69 61 19
-17.8086 13.1802 15.4472 91 69 3
-22.2682 -25.3346 -0.0345764 48 59 26
-20.5437 45.1054 -3.75423 63 75 69
3.24158 36.776 -12.2047 70 67 14
-15.3563 31.8224 -15.0008 71 74 18
-28.0385 -26.0284 14.1404 56 88 35
-19.2025 17.4536 12.517 96 92 2
9.32224 31.0099 -14.9572 73 75 22
-4.07627 38.2533 -11.4934 69 70 11
-19.1992 29.0674 -16.8149 63 64 23
-25.1697 28.9636 19.0988 66 84 77
3.49395 37.2136 -11.948 71 68 7
-11.2174 45.6451 -3.23575 81 78 13
7.69716 39.6653 -13.0397 78 84 49
-10.3486 19.6534 -24.79 69 65 14
32.2662 -0.885689 -18.6976 81 84 33
-21.5396 -25.1109 0.385475 46 59 24
-18.7975 20.8057 10.1526 97 91 4
-18.5455 42.6435 -8.91496 69 63 17
7.20307 12.2084 -29.9114 58 50 2
7.53368 22.9677 -22.5262 96 95 1
-16.6925 31.6598 -15.0787 72 72 17
8.7662 44.8961 -4.20711 89 79 19
34.3382 -8.17141 -22.1554 69 75 71
-3.46558 27.5858 -17.8938 64 54 17
4.36971 45.0136 -4.1842 91 88 41
-13.7589 41.6979 -9.49388 72 61 19
-22.9894 -21.5816 2.53904 3 4 0
-20.8463 26.4119 7.14097 81 87 68
-23.9579 9.8952 24.6678 70 106 115
-17.6281 40.2263 -10.2615 69 76 6
-19.7034 17.3008 -27.0711 66 68 12
-10.915 30.4175 -15.7252 71 68 20
6.37677 33.4475 -13.8941 74 70 16
29.4629 14.0563 -9.58176 73 71 21
-27.7893 -25.4849 0.69096 45 74 24
-8.56123 37.4925 -11.9181 69 66 15
-19.5581 45.6073 -3.79072 63 73 69
-25.3809 1.42657 15.1222 61 78 75
35.8431 -25.8556 -24.5873 93 112 42
-24.9619 14.4579 10.9075 75 97 97
-12.4328 29.3219 -16.3938 67 66 28
18.3325 -25.4403 -28.8339 34 42 10
-27.2259 -26.014 11.4691 79 107 37
-19.4458 32.2454 3.17548 87 66 5
18.9971 -23.9954 -27.0555 48 48 25
-17.4483 45.8939 -3.18671 79 75 38
-11.4498 32.3239 -14.7466 70 68 17
33.2327 -23.1603 -21.7397 81 98 46
6.31496 21.1827 -22.7826 79 78 0
4.84901 44.2951 -7.95225 68 60 11
-23.9042 9.10273 24.6256 74 111 115
-31.2359 -25.8133 4.49231 40 64 35
-20.6211 41.8321 -0.376148 75 80 64
-4.10134 40.1588 -10.4316 71 65 13
6.0966 28.1159 -16.8577 63 59 18
-8.21192 34.3585 -13.6729 68 70 16
-3.40331 26.2727 -19.0601 67 62 13
-4.19184 15.5631 -27.9116 70 59 12
-24.5226 -8.84854 10.5623 75 89 78
1.35953 33.4368 -14.0521 71 67 15
-19.5696 13.2202 15.574 94 72 1
15.3432 -23.1387 -21.6385 80 88 74
-23.5223 -25.3569 -5.01594 54 84 20
9.49368 44.6202 -5.06349 83 95 88
-4.79978 28.5587 -16.9858 61 55 15
-22.1474 -25.3643 -7.08874 58 80 23
-17.024 45.7383 -3.50814 69 79 68
13.6263 28.5884 -15.5663 71 72 48
32.7598 6.68467 -13.9969 69 74 0
3.19539 12.5742 -29.9015 72 71 14
6.32733 31.7508 -14.7759 72 68 16
1.76219 14.5443 -28.5034 69 68 11
-15.588 45.0718 -6.74593 79 90 87
-7.06966 13.2451 -29.8193 70 70 5
-30.471 -25.5849 3.13133 47 76 24
38.2142 -25.7431 -27.6537 65 82 32
-19.5931 28.9457 -16.9431 64 69 23
11.7001 28.0985 -16.0362 69 59 20
32.1688 -25.8803 -22.6974 53 63 33
31.2775 0.976101 -17.7897 74 72 10
-6.35325 42.6072 -9.07737 73 63 15
-9.52771 31.8727 -15.0121 69 66 18
-27.7847 -25.8582 8.50847 62 88 38
-10.4044 20.849 -23.8069 68 67 16
0.333437 17.7036 -25.9997 69 61 12
-17.5729 24.2345 -21.0243 73 70 0
-8.13324 19.2988 -24.9958 68 66 13
-6.86238 39.2331 -10.9344 70 66 13
-19.1036 2.01117 -8.18451 65 68 59
-22.2596 -25.4175 -4.01538 61 82 22
-24.9109 5.74682 13.8043 122 138 129
4.37008 29.4636 -15.8134 74 70 21
-12.9407 30.4504 -15.7084 68 68 19
1.63698 39.2346 -10.8977 73 67 14
33.2604 -14.1204 -22.9276 82 99 87
-24.2894 16.8783 34.308 34 60 36
33.5221 -11.5383 -24.5397 68 80 76
-22.2691 -21.7815 3.15962 11 3 5
-24.419 19.5076 34.4078 75 95 92
-17.2706 22.7763 -22.2328 70 66 0
-2.95562 28.5783 -16.8911 63 59 14
-5.399 39.5053 -10.7883 71 67 16
35.0624 -25.3828 -30.9136 38 57 45
-15.4792 22.5163 -24.6354 69 77 59
-12.9359 20.676 -24.0374 72 67 20
-2.43725 12.4226 -30.1483 74 67 10
-9.00706 28.2488 -17.5088 66 64 18
-24.7789 24.7833 14.6653 52 72 70
33.5627 -10.8099 -24.2122 80 95 87
30.4174 11.2861 -11.3837 75 68 13
-5.33663 44.9959 -4.52211 73 86 79
-8.31538 20.6314 -23.9136 68 64 13
-20.6913 29.4503 -14.8866 62 73 60
24.0856 -23.8779 -24.3857 55 54 16
-6.50226 43.3336 -8.63601 71 65 13
33.354 -18.4688 -21.9393 79 101 71
-7.5482 28.3866 -17.3318 66 56 18
-13.8989 26.46 -19.1944 65 59 17
-19.8837 -24.3375 1.56782 47 66 22
-6.40942 24.6677 -20.5363 66 63 13
6.35513 38.9182 -10.9539 81 71 1
-18.7431 31.7365 -14.9814 71 67 21
-25.9495 18.6917 14.4469 55 79 82
-16.2163 -24.886 4.47206 0 6 0
-2.45384 21.2517 -23.1814 66 67 12
-18.1629 18.7014 -25.7989 66 70 12
-24.1233 15.8227 11.9287 49 80 80
-8.16017 34.8631 -13.391 70 72 16
-16.7195 -25.6131 0.464287 64 81 32
-7.33834 27.456 -18.1761 65 56 13
-30.3186 -26.1435 15.2816 45 70 42
-26.0049 28.0713 17.5426 55 81 89
7.59852 25.8471 -21.6543 78 83 33
21.9226 -26.4024 -29.6971 40 57 16
-15.0441 38.1537 -14.0143 71 81 69
-8.89036 34.3929 -13.6399 70 69 15
-16.9055 40.066 -10.3642 78 70 4
-6.33092 19.9233 -24.4368 67 65 13
-19.8998 39.9754 -10.4229 67 64 14
9.88848 26.4997 -17.9415 70 58 18
14.9312 -23.874 -25.5025 43 52 31
-15.2853 42.6765 -8.93739 71 69 22
-18.4065 28.9406 -16.927 63 68 19
-10.5167 45.4914 -3.77439 77 85 69
-21.2866 -23.1196 2.30758 19 25 10
-9.95131 39.4176 -10.831 70 60 12
-19.9908 28.0444 5.30411 90 81 10
27.5653 -24.7128 -21.0174 23 32 14
-21.6772 -25.3501 -7.72698 54 75 11
0.144634 44.9333 -7.14227 81 89 74
6.43611 14.0292 -28.7347 68 61 9
-24.5793 28.8163 19.4154 67 83 78
31.6034 8.00393 -13.0903 77 75 1
-28.2356 -26.0106 13.178 58 90 29
-14.0559 39.6126 -12.988 83 87 48
30.9282 9.93179 -12.2084 76 64 5
-19.0266 -25.9743 12.9539 84 108 51
-10.9939 16.9475 -27.0404 69 60 12
-25.7073 -4.96442 17.926 48 34 14
-19.0508 20.792 -24.0005 67 66 9
-21.8495 -22.2524 2.9817 9 4 6
-25.0264 -16.6231 5.25849 91 109 90
-19.7786 29.396 -16.3484 68 78 36
-6.90195 40.4365 -10.2836 68 70 16
-21.3671 -22.6316 2.92742 4 8 1
-24.8941 28.7252 16.3972 62 77 69
-21.4724 -24.2306 7.31164 55 70 20
-16.5882 38.3374 -11.3114 82 74 2
-19.7384 22.2438 9.1619 94 90 3
28.3076 -26.0089 -29.6096 63 82 38
34.5969 -25.7781 -28.0687 74 97 30
-25.514 -3.97575 17.2603 55 73 75
-7.53726 24.4738 -20.7393 65 60 15
-19.2388 -24.7437 7.98232 30 40 16
-12.5935 24.8741 -20.4834 68 62 20
0.778545 35.6485 -12.8586 71 71 8
-24.0208 1.56036 15.0994 85 121 121
-15.7986 39.0007 -11.5897 78 78 4
5.67752 -13.751 -24.9389 62 42 16
5.74643 42.8968 -8.82087 70 63 18
-7.15293 31.9591 -14.969 72 66 14
1.47375 16.8112 -26.6927 70 63 13
-17.6646 45.5206 -3.82941 65 79 68
-24.5146 -8.16266 10.9436 59 72 63
-22.7151 -25.9821 13.8285 88 112 50
20.2158 -25.4749 -28.4619 31 41 13
17.7191 -23.2815 -25.0682 65 42 27
-7.33427 15.6538 -27.9442 69 66 10
11.8543 21.7399 -22.0306 76 71 20
-20.055 -25.9718 14.6791 83 109 49
33.2585 -13.7699 -23.4151 83 100 89
-13.7225 20.5303 -24.0941 78 74 15
32.5252 7.4754 -13.351 69 66 16
29.9532 -26.2948 -30.1052 55 71 39
-13.7436 21.8774 -23.0105 81 76 11
-17.9543 -25.5055 -3.64278 59 78 18
3.80272 35.0632 -13.0881 70 69 13
-22.7693 -25.5762 9.23606 51 59 30
-0.794819 21.0933 -23.2299 67 66 13
-4.08283 26.6265 -18.7879 66 58 11
-19.4147 -24.8906 8.62731 40 57 28
11.1546 13.5157 -28.9907 71 72 20
37.5235 -25.7529 -28.392 61 75 38
-24.6107 3.37184 13.6265 76 91 77
-20.7335 -25.9503 13.8391 76 105 45
-20.4928 -23.6506 6.09959 15 27 12
-16.6541 27.7161 -18.1116 71 61 20
-19.4052 42.604 -8.92761 69 61 16
-17.3153 34.4606 -13.4813 71 79 0
-20.6562 25.4616 -18.1652 63 71 62
-21.504 -25.3659 -6.3568 60 80 22
2.53703 -14.8999 -25.0485 64 43 20
3.76657 31.4224 -15.0265 73 68 15
33.3095 -25.5978 -24.6946 61 69 35
2.92184 31.4495 -15.0419 71 72 18
37.6368 -25.8171 -24.5811 81 98 38
36.7734 -25.7972 -25.2164 82 103 34
-2.26989 28.668 -16.7355 60 57 12
-13.066 23.3189 -21.724 71 70 16
18.2301 -23.1294 -24.3273 61 46 25
-2.40883 44.1268 -8.12246 69 62 11
-18.3702 20.5061 -24.2251 68 68 6
-8.51355 27.6443 -18.0644 64 56 14
-26.1513 26.769 18.8593 29 53 34
-4.4657 44.482 -7.86826 65 55 12
-23.9289 15.7995 12.9607 45 86 76
-11.7551 45.2597 -4.17844 70 84 75
-9.93087 18.0816 -26.0789 66 62 10
12.281 17.3493 -25.7742 71 60 21
-5.87144 34.3078 -13.6905 71 68 17
-17.7567 18.2747 -26.1684 67 63 6
-10.9343 22.3589 -22.5789 69 71 18
-15.3325 19.2472 -25.2461 73 66 9
-17.9472 30.8371 -15.4832 69 78 21
-18.3773 -25.9362 11.781 78 103 41
20.6286 -23.3517 -24.1508 51 53 29
-19.2065 0.99752 -5.44281 69 78 72
-9.03578 25.6039 -19.8582 66 57 13
-10.7533 23.8126 -21.3869 69 69 16
-6.11426 12.2722 -30.2458 71 63 15
4.29419 32.0034 -14.7165 72 69 18
-21.2952 -26.0339 15.2085 86 113 46
30.7183 -25.2764 -20.5836 41 49 38
3.76229 18.4899 -25.2135 71 61 14
-20.6873 -25.4004 -5.5227 49 71 22
-20.6911 22.0892 -22.6126 63 72 44
-11.0907 17.5277 -26.5616 67 60 13
-20.3206 35.0126 -13.1106 72 63 17
24.0298 -25.8132 -27.8592 38 46 22
6.53214 36.1902 -12.4198 79 71 0
-20.5079 29.39 -16.2138 69 77 46
2.73191 40.4999 -10.1874 72 65 10
14.0273 -23.875 -24.4522 51 59 42
-23.9744 13.8503 16.3093 70 104 111
-5.6776 20.5657 -23.8972 70 59 15
-23.2909 -25.4304 -3.25983 59 80 23
25.5398 -24.1953 -25.0422 56 52 18
-24.1004 -13.5461 7.79859 55 82 60
-24.183 21.5386 12.5918 68 85 69
-18.6282 21.529 9.67125 95 89 4
-4.77121 17.8618 -26.0604 68 59 13
-15.7238 39.5212 -13.0398 78 84 30
-18.8131 33.028 -14.2931 72 70 22
12.2574 16.7794 -26.256 72 59 23
-7.75049 17.4201 -26.5475 67 62 6
12.1578 22.9668 -20.9461 75 67 27
-22.4687 -25.8988 11.5169 86 111 52
-7.86058 37.776 -11.7581 68 64 13
23.5883 -25.6178 -27.5034 36 42 19
-19.961 -25.3741 -7.05401 48 71 10
26.397 -24.2233 -23.3538 33 32 16
6.98235 31.8522 -14.6829 71 70 18
-16.6111 44.1613 -8.02476 66 59 17
-19.4205 21.1823 9.91457 92 88 3
-12.0653 22.7674 -22.2553 66 70 22
-1.16316 39.7168 -10.672 71 63 12
5.77317 39.5317 -10.6764 75 69 0
-25.8783 22.9923 13.7498 49 66 62
13.1979 17.8764 -25.2899 71 67 22
0.374699 15.9587 -27.4264 70 59 14
-19.7651 35.5136 -12.8571 69 63 15
4.91168 23.4875 -20.9601 74 70 2
-28.6358 -25.9812 11.8217 54 87 31
10.9091 28.3806 -15.7568 70 66 40
-9.40711 45.1486 -4.33073 73 84 79
-16.5289 31.0698 -15.4001 69 75 16
2.90049 18.3014 -25.3922 71 63 15
-12.3802 45.5118 -3.80323 73 83 72
0.441956 42.0993 -9.32291 69 69 13
7.56079 38.641 -13.3927 84 82 25
-20.7142 -25.3248 -8.4714 48 73 20
-15.1644 44.5864 -4.81091 68 82 75
-16.7275 33.8521 -13.8227 81 73 5
-10.2076 45.6188 -3.3277 82 79 21
2.1985 15.6441 -27.5968 68 61 16
-24.4061 -7.61683 10.895 33 46 41
-5.8707 43.0139 -8.82399 71 63 14
1.63023 -15.1537 -25.0546 71 48 27
-14.1455 44.0988 -8.10555 67 62 20
-11.4185 27.3979 -18.3539 66 59 13
-5.42795 20.801 -23.6758 69 57 13
7.38196 20.1259 -23.471 82 78 0
-19.5728 18.553 11.764 95 93 5
14.0769 -23.615 -21.8687 52 62 37
-5.79796 21.7911 -22.8947 70 64 15
7.19206 38.7646 -10.9737 83 74 0
-6.80435 43.8357 -8.32539 69 59 11
25.6357 -27.428 -30.2584 58 74 66
-3.27521 39.9452 -10.5566 69 63 11
-16.0055 23.5918 -23.0239 79 84 1
-4.81429 14.5975 -28.7145 70 60 11
2.49425 23.5393 -21.0845 67 64 12
-1.77061 44.7013 -4.95676 76 89 82
-11.8525 31.3404 -15.2646 74 72 19
-26.2225 -25.9153 12.0556 59 80 29
-22.1375 -25.6533 10.2632 83 107 55
-16.1051 18.4535 -25.9701 67 60 10
-16.7588 -26.0399 9.90522 40 57 18
31.7069 13.6845 -9.71471 76 70 16
-22.6671 -25.9382 12.1221 87 114 53
-5.2547 12.7171 -30.1126 70 60 8
9.21734 14.8439 -28.0148 69 62 10
38.1342 -25.7671 -25.7225 77 93 42
-17.7753 -24.9811 1.58238 62 82 27
-18.5558 38.9798 -10.9663 71 71 8
-15.8684 35.3324 -13.2126 80 79 4
-17.1869 -26.0003 12.1757 79 102 42
12.0871 20.4441 -23.1656 76 73 20
-1.73283 17.622 -26.1629 66 65 9
-21.6283 -25.4243 -3.7969 56 79 24
7.77841 40.2011 -11.0776 86 84 2
2.38821 40.0031 -10.4565 72 68 12
-24.0544 20.2917 15.4328 88 122 127
-20.0822 -26.0041 15.2148 85 111 51
-17.5 14.5275 14.4262 94 71 1
-18.0439 38.464 -11.2485 74 72 1
-6.79455 22.3057 -22.4902 69 68 14
-6.83181 28.1186 -17.5611 65 57 16
10.14 -26.0158 -24.798 52 56 40
-23.9989 -15.9541 6.3152 67 88 64
-13.2769 36.9698 -12.0793 78 75 15
19.0742 -25.737 -28.9228 33 41 10
-25.8752 -8.50952 12.3917 56 77 75
-17.0784 -24.9709 1.83793 64 85 14
2.19907 17.8236 -25.8313 69 60 12
33.3991 14.9543 -8.64505 79 67 24
-1.59698 13.4024 -29.5171 70 66 12
-14.4601 24.1445 -23.3812 69 79 58
-27.4151 -26.0788 15.8003 63 95 35
-18.6213 -25.4259 -6.48309 56 78 22
-5.66374 44.9533 -7.21289 74 77 58
-23.6163 -25.461 -1.66135 42 73 31
28.6571 -24.6073 -21.9415 31 33 22
8.13707 36.614 -14.8452 76 85 74
31.7179 6.22713 -14.4428 70 68 0
20.622 -23.5699 -25.8518 57 44 25
-23.8526 -16.3959 6.22013 60 87 59
6.53357 12.5491 -29.8147 59 56 0
0.773996 14.2766 -28.7536 69 65 10
-13.1633 30.0323 -15.8719 72 68 20
10.2267 25.9982 -18.3103 75 59 18
-4.20629 44.6758 -4.94425 73 87 78
3.70243 13.2228 -29.4652 72 64 17
-7.61497 20.9367 -23.6524 65 69 9
-18.717 2.45627 -5.84789 60 34 15
-0.728388 2.12493 -27.7767 56 45 34
-20.5183 44.5394 -3.66283 57 67 64
-19.5089 -23.4615 4.13921 14 19 8
-23.0303 -25.9658 12.8218 93 118 54
-17.5971 17.2358 -27.0225 66 57 10
10.3526 31.9319 -14.4328 73 72 16
-25.1903 28.3622 21.4645 68 83 74
2.29563 27.1084 -18.069 67 56 16
-23.1354 -23.1676 1.29876 8 2 0
-3.2772 27.3244 -18.1472 67 59 13
4.3138 37.9551 -11.5214 71 68 7
-2.67757 23.2658 -21.5564 64 64 14
-11.7275 28.4465 -17.3978 65 57 15
-11.3097 43.7875 -8.33982 69 63 12
-6.32486 37.5483 -11.8994 68 68 12
-5.09335 2.00657 -28.2539 56 45 35
-18.0433 25.6486 -19.8235 71 66 13
-17.8074 13.5997 15.1207 93 69 2
-15.4818 15.202 -28.6635 69 68 13
18.6227 -25.0045 -28.437 35 42 12
-19.4236 -25.5541 0.054554 60 77 28
-4.52846 24.206 -20.8539 66 64 14
-27.7151 -26.0785 16.6129 54 94 36
2.88008 22.1895 -22.1806 67 69 12
29.4824 12.845 -10.3882 74 68 17
-23.5209 -25.4328 -2.94382 49 76 31
-14.3728 33.6997 -14.0459 85 80 38
33.5603 -26.4283 -22.4374 75 89 41
7.93368 26.3265 -18.289 70 63 22
8.00881 39.7574 -13.257 70 78 71
8.32614 43.2723 -8.5622 73 64 15
0.214642 30.1302 -15.7096 69 75 16
-8.05297 27.4994 -18.1845 65 56 14
-9.13057 16.4028 -27.4322 70 65 11
-29.3669 -25.923 15.156 57 90 36
-26.1219 25.6614 18.1077 54 81 88
-24.0397 -13.5071 10.2605 70 99 83
-20.9094 28.8405 5.49102 69 78 67
-15.81 43.1693 -8.64658 73 64 17
5.13859 39.6746 -10.5756 74 69 0
5.26202 33.6982 -13.7706 72 71 16
-15.7007 33.9495 -13.9464 82 84 29
-20.6963 38.0689 -9.78289 53 53 32
8.50683 -26.6168 -24.5165 53 62 51
26.7641 -25.9014 -29.177 81 104 32
38.787 -25.8227 -23.3974 81 102 27
30.5042 -25.7431 -26.1498 66 66 24
4.8133 44.6103 -7.67817 58 53 25
-20.6872 44.0513 -7.73378 69 72 54
4.12799 25.1957 -19.5604 69 61 13
1.13647 37.4347 -11.8812 70 66 11
-24.5308 25.0389 15.8136 56 81 81
-11.2317 25.3108 -20.1211 69 66 15
-2.55832 25.3855 -19.7851 67 63 15
-25.5264 7.85743 13.8941 55 74 72
-25.4487 5.68924 13.2997 44 65 50
-23.2995 -21.7486 2.2286 4 4 0
-20.6403 39.9293 -0.535904 71 85 79
9.69624 28.192 -16.1767 66 58 24
-23.8116 2.9456 21.0591 77 115 117
-26.5054 -25.3522 -5.49132 48 79 45
13.0962 14.4676 -28.147 67 65 34
7.91898 40.9439 -9.95082 71 64 23
-3.2911 25.2907 -19.9046 66 64 17
31.9599 2.91688 -16.4872 72 66 0
12.2913 43.6705 -8.20924 70 60 11
-17.221 37.6762 -11.6896 75 66 2
33.2827 16.3646 -7.65852 72 61 22
-12.613 29.0991 -16.7394 59 57 20
-25.8678 10.4275 17.6143 38 63 51
23.3949 -26.1807 -28.9332 43 56 18
0.188543 17.194 -26.4358 69 59 13
11.2671 16.0034 -26.9675 70 71 22
-7.22147 28.5668 -17.1393 62 52 15
3.15503 40.0886 -10.4029 69 68 14
-20.0958 -25.5485 10.2433 70 92 38
-20.3696 21.4381 -23.4166 67 69 15
-16.7722 -25.5518 -2.51534 59 78 28
-20.8472 26.8999 6.65454 76 86 73
-2.00684 21.4463 -23.0145 66 70 11
-15.9493 15.0845 -28.7923 66 65 10
4.83166 21.5282 -22.6096 74 73 4
8.13532 26.9217 -21.0275 80 84 70
-21.2464 -25.5738 10.3611 77 101 48
29.2889 12.2129 -10.7851 72 67 12
-15.2893 29.1437 -16.7449 62 59 24
7.33963 27.2622 -17.5478 67 62 24
-18.8729 19.2298 -25.3721 63 64 14
2.16241 -18.0985 -25.0509 49 34 17
11.6182 41.5484 -9.40025 69 65 14
-7.9524 17.0204 -26.875 69 63 9
-13.4707 44.1176 -8.10262 71 62 11
7.52995 25.268 -19.1363 78 80 1
-24.5451 -21.1812 2.28534 72 91 72
-1.41289 18.2151 -25.6531 67 69 16
-7.65872 44.6813 -7.70113 64 54 18
5.50265 12.4839 -29.863 62 54 3
-19.4081 -26.0089 14.8193 87 113 47
7.57659 36.2067 -14.3043 92 91 3
-18.3528 21.911 9.40909 95 88 5
-20.7157 34.0073 2.59006 52 59 42
-8.7576 20.1255 -24.3592 69 65 15
32.4082 2.58829 -16.6415 71 66 0
-28.4683 -25.7428 5.58435 56 80 29
-10.4074 44.5806 -7.81076 70 63 18
22.9072 -23.6898 -24.2355 46 61 24
6.32027 18.0737 -25.4362 72 62 17
-23.9145 8.14046 23.7231 73 111 111
-19.5902 23.1122 8.42091 97 86 5
-19.8598 -25.4684 -3.46091 54 76 22
1.11758 31.1447 -15.2245 70 71 16
-27.4749 -25.7868 7.23381 66 88 32
-15.8203 26.1421 -20.0607 88 86 15
-24.193 22.2533 17.2885 61 93 93
-10.8713 36.3953 -12.5285 71 66 16
28.5268 -26.3193 -29.9833 60 77 42
-11.0407 35.3349 -13.1211 72 65 17
-18.7861 25.9266 -19.5851 69 68 18
3.45404 25.0139 -19.788 69 60 14
3.79308 38.294 -11.3465 74 65 15
-11.0309 12.9964 -30.1601 71 66 7
17.4935 -26.2912 -29.453 37 45 8
-25.6398 -4.56073 17.7507 47 35 15
-16.5911 44.7414 -7.54376 59 55 29
32.2737 -25.7662 -26.9095 53 71 15
-15.882 35.5625 -14.7267 80 82 19
-1.96582 15.1138 -28.2053 70 61 9
-10.1962 25.7462 -19.728 69 63 11
-17.59 24.5705 -20.7379 73 71 0
-3.538 1.6587 -28.3726 66 75 72
24.1348 -26.1398 -28.556 37 57 13
-23.7851 -26.0059 13.529 97 122 55
-18.9046 -24.6516 7.2817 32 40 12
2.39618 37.765 -11.696 71 70 16
12.9154 23.0485 -20.7738 71 63 28
0.897194 39.4928 -10.7448 73 62 12
-19.7739 44.5566 -4.66882 57 72 69
-18.5594 -23.818 3.36065 6 7 11
1.89483 12.4819 -29.9764 73 75 16
-25.404 16.0527 11.0931 62 76 75
38.8908 -25.8925 -22.1613 82 104 37
-2.28755 22.749 -21.9836 68 71 19
-24.179 21.7999 17.5501 70 102 109
-16.8076 20.0372 -24.597 72 70 6
5.58544 35.3263 -12.8902 75 74 1
5.91484 12.9822 -29.5671 64 58 4
-26.306 -26.2225 17.0499 61 102 57
1.82202 22.5909 -21.8988 70 69 15
-24.0345 17.2135 14.0653 63 99 99
23.7395 -23.8247 -24.2168 59 51 16
-20.4818 34.3931 1.85658 78 67 11
-4.67149 26.354 -19.0566 66 63 15
32.7948 -26.063 -22.2297 63 74 34
-10.6284 30.1593 -15.8285 74 72 22
13.8243 41.6525 -9.21629 69 57 16
-25.8083 -4.85068 14.7594 55 81 83
-28.976 -25.9034 9.64053 50 83 33
-18.8758 2.19193 -9.08699 63 51 42
-13.1623 28.8093 -17.0484 64 59 11
29.8519 -24.8742 -23.6073 45 50 26
-5.37952 32.1753 -14.8434 70 65 17
6.63701 23.1027 -21.1672 80 74 1
7.01308 26.7638 -18.0165 70 64 23
0.976929 41.5771 -9.61542 71 67 13
-16.7931 16.9405 -27.2543 67 63 10
11.0878 44.1355 -7.94769 71 61 15
-24.6536 16.7457 12.5147 44 64 56
-17.0209 35.0487 -13.136 76 74 0
4.10567 44.5793 -7.76092 65 57 14
3.72459 37.6646 -11.7139 71 67 13
4.47374 13.03 -29.581 68 64 6
-1.18223 15.8506 -27.5757 69 62 13
-4.61698 44.7754 -4.79437 72 86 80
14.3369 -23.6511 -23.5808 54 60 39
-24.5067 5.06304 13.8545 80 93 84
6.54476 25.4325 -19.1398 78 70 1
15.5924 -23.3247 -23.8806 38 46 23
14.9116 -23.5395 -24.1618 44 52 33
0.902494 33.8358 -13.8303 69 72 16
11.5211 12.1051 -29.7718 77 71 27
-9.70335 28.944 -16.8257 59 53 17
-15.8671 38.8302 -12.5564 78 79 0
-21.8635 -21.9325 4.45936 7 9 5
-17.4467 16.0175 -28.0678 65 58 10
0.843002 23.5152 -21.1969 71 66 17
-16.7868 44.8294 -4.50463 66 77 70
8.20523 41.3154 -9.66978 69 66 26
-21.4644 -25.9462 14.0264 82 111 51
-20.1019 -23.3298 3.04639 15 14 28
-18.1211 -25.3903 -9.20823 61 77 21
12.3549 38.9673 -10.6927 69 61 6
-15.8828 42.8064 -8.84852 72 62 19
-17.5249 11.7569 16.4698 89 80 21
-10.7168 33.268 -14.2684 68 63 16
-19.7833 21.7899 -23.1306 66 70 17
-7.54995 42.8881 -8.89809 71 65 13
7.7027 39.9535 -11.8408 87 84 2
13.8319 15.2588 -27.3881 60 64 47
-11.1678 25.8524 -19.6643 68 63 13
-13.1569 45.6257 -3.61486 74 82 67
4.33079 -13.0795 -24.9809 64 41 16
1.98551 38.1932 -11.457 72 68 15
33.2957 -13.1314 -24.3584 77 95 87
3.75537 36.5485 -12.3113 72 69 10
-17.7749 -26.1341 15.4569 85 113 45
16.2291 -25.6559 -28.6391 34 41 9
-14.3251 18.3469 -25.9874 67 57 11
-19.1563 1.3413 -4.74286 71 79 73
-8.90673 19.2429 -25.0916 69 65 13
10.9292 15.7227 -27.2207 71 69 22
15.649 -24.2799 -26.7065 44 51 27
-24.0504 -7.14954 13.133 82 108 107
13.958 14.4472 -28.0058 62 63 50
24.5784 -26.2349 -29.7525 44 56 22
3.93252 17.8514 -25.7436 71 59 14
12.2791 42.5123 -8.85877 68 59 8
-7.43824 34.5726 -13.5615 70 67 18
-6.19139 41.937 -9.46005 69 65 12
26.6004 -24.2582 -23.8899 42 39 16
-0.804335 15.766 -27.6125 69 61 12
-20.7776 33.3012 3.66194 74 84 73
37.2548 -25.7886 -25.2815 81 98 35
-16.1757 -25.633 0.820301 62 81 21
-23.404 -25.8012 9.74501 85 107 41
-24.0529 4.67393 13.3038 47 67 66
-3.37313 29.2705 -16.1006 72 73 24
7.60543 37.44 -12.3062 93 91 1
-19.321 -25.3716 -8.16154 60 78 24
30.84 6.84705 -14.1585 74 67 1
0.169258 35.1227 -13.1537 69 72 14
14.5721 -23.7682 -24.8173 42 54 28
-3.69134 25.9655 -19.3448 68 62 12
8.0827 41.0223 -10.3439 80 77 44
-28.4319 -25.4299 -1.45094 38 68 29
-12.4598 28.575 -17.3186 65 59 15
5.01889 26.9664 -18.0004 66 56 17
-20.5579 -24.0679 1.57785 47 59 23
4.66405 38.3842 -11.2944 73 71 4
-21.892 -22.1207 4.99334 14 13 9
-10.593 33.6392 -14.0639 69 63 17
-24.0627 17.5376 13.3923 70 111 117
-13.2278 29.3812 -16.3052 71 64 28
-19.1627 1.58614 -5.22314 64 76 69
0.0484791 43.617 -8.44969 68 60 13
38.961 -25.9313 -21.1582 76 96 37
5.90167 13.6329 -29.0841 67 60 4
-30.9504 -25.3836 -2.02357 41 71 22
-5.15685 45.0304 -6.91176 75 89 77
10.6121 16.2532 -26.7862 71 66 19
-13.8786 16.8212 -27.2769 68 58 14
-7.95918 38.4989 -11.3556 68 66 13
-3.07236 24.6673 -20.4216 66 65 17
0.133688 13.7553 -29.1817 72 63 14
-14.4062 37.7434 -14.0903 82 87 69
-18.2853 45.0558 -6.73245 81 94 81
5.78566 20.5201 -23.3687 76 72 3
-6.53196 22.6154 -22.2304 68 67 12
-25.7618 -9.62473 10.1877 57 77 68
5.18067 36.4608 -12.3039 74 73 1
34.8666 -7.53635 -21.0971 65 75 70
0.99234 20.473 -23.6858 70 67 11
33.0747 -25.7917 -25.8855 57 77 21
-18.0091 28.1258 -17.7415 66 70 17
-10.2492 23.5757 -21.5579 68 70 14
8.19715 34.7583 -15.0871 77 83 62
-19.4008 29.3098 4.58023 86 93 65
5.37699 16.1396 -27.0965 70 60 15
-9.11609 40.3173 -10.3391 69 67 16
31.3329 11.3388 -11.2881 74 69 9
-20.1819 39.7301 -10.552 69 67 21
-25.743 -5.45432 12.8624 61 79 71
-18.0937 14.208 14.6822 94 72 2
-5.58742 18.6556 -25.4412 68 57 13
-16.8548 32.6222 -14.5341 73 74 19
13.8518 25.3196 -18.5618 64 63 44
-0.475946 29.7993 -15.8353 72 66 18
-29.4189 -25.63 3.95913 51 82 25
-17.775 31.4912 -15.1558 71 76 19
8.26472 41.0539 -11.176 72 75 54
21.5716 -24.6559 -20.9881 56 59 29
-16.0046 24.8604 -21.5537 78 82 0
-16.9755 21.3514 -23.4856 72 66 0
-19.927 32.06 -14.7667 73 67 26
-2.60672 33.087 -14.3204 68 63 16
32.5426 3.70638 -15.9047 73 60 1
-26.0386 26.5451 17.4709 43 74 79
7.40556 20.6862 -22.8924 84 76 3
-4.52306 28.7752 -16.7192 61 52 19
7.53257 24.2097 -20.2216 84 83 1
-2.77094 30.2169 -15.7566 70 69 16
39.5713 -25.8571 -26.0143 73 90 35
-0.482378 33.1286 -14.2285 72 67 12
-7.24299 42.3718 -9.19261 71 65 20
34.317 -12.1352 -24.7774 76 90 85
39.6598 -25.8845 -24.5958 68 84 26
-15.7448 21.4497 -24.8022 84 88 28
-20.8758 15.6596 14.979 48 55 45
-0.0629997 27.5275 -17.7996 67 62 15
-11.2287 18.1171 -26.1012 69 59 14
1.61142 28.1235 -17.1467 65 56 13
-18.5918 23.3345 -21.7584 66 69 6
-16.8591 36.0039 -12.6053 78 73 1
-7.78254 22.6363 -22.2762 68 67 15
-17.0373 20.8271 -23.9178 71 67 1
-20.4772 16.9838 12.9939 88 81 9
-5.5886 34.7109 -13.4734 70 64 13
-0.302492 34.2411 -13.6212 69 68 13
-23.9826 -10.6785 10.5457 72 101 90
36.8827 -25.7774 -26.1856 79 98 36
33.7381 -25.749 -30.7976 53 62 48
-4.09932 45.1027 -4.34046 77 88 81
-5.1477 24.0251 -21.0435 65 64 13
-28.1706 -25.8939 9.20138 59 88 29
-7.46673 44.0802 -8.15016 68 58 9
-3.75874 31.5513 -15.1356 68 70 11
30.7564 11.7917 -11.0292 74 71 11
13.5429 39.7174 -10.3044 68 55 8
-11.8748 24.5656 -20.7615 67 64 13
32.5319 0.265072 -18.0337 81 83 23
-23.4699 -25.3869 -4.23198 55 83 24
1.42692 24.847 -20.049 66 62 14
39.5476 -26.0105 -21.4405 86 105 40
2.67522 19.2192 -24.6534 70 67 14
33.9055 -23.3792 -23.4295 71 86 75
-18.9887 24.7356 -20.599 69 69 17
-7.20041 12.8344 -30.1031 70 72 12
7.06991 25.0432 -19.3886 76 74 6
-16.9902 -25.4073 -8.74548 50 74 19
-20.3969 25.1423 -20.2121 70 71 21
-10.1465 40.7059 -10.1149 71 62 12
21.1367 -23.4092 -24.3818 43 51 41
-21.2041 -23.6567 1.71617 36 46 24
24.5633 -28.0594 -31.555 40 38 34
11.7334 14.904 -27.8842 72 69 22
-18.2781 -25.0722 7.66829 43 44 22
-20.9297 -25.9263 13.497 78 109 48
-18.0741 14.9241 14.1766 92 75 1
-7.52412 21.5092 -23.175 68 66 15
-4.85297 12.6454 -30.1403 71 61 9
-19.9889 22.7731 8.62674 98 86 7
-17.2604 44.521 -4.77665 66 79 69
3.05504 42.4114 -9.13634 72 74 20
0.818176 29.9391 -15.7553 69 65 18
-24.2585 20.5547 29.0307 36 63 48
-26.8508 -26.043 12.8283 78 101 36
-20.748 -25.0697 9.30056 56 67 31
-24.89 28.0395 22.7149 67 77 81
28.4243 16.7581 -7.611 77 75 47
9.92341 30.504 -15.186 74 73 17
1.52543 42.6968 -8.98846 75 72 20
6.52705 21.5263 -22.4678 79 79 1
-30.1296 -25.4494 0.088398 42 73 24
2.87514 35.8588 -12.7051 71 69 16
-30.5421 -25.6633 5.66137 54 83 30
-19.2641 34.7136 -13.3088 70 72 14
2.26358 42.5195 -9.06983 70 64 12
-17.7724 45.1945 -4.20239 64 78 68
-15.3499 35.5722 -15.1937 71 78 73
-15.1718 23.9586 -23.5702 70 82 67
-6.79587 21.6917 -22.9937 69 69 12
-15.887 38.052 -12.87 76 77 0
-13.0235 23.9704 -21.177 71 70 15
10.7738 -25.506 -25.2044 42 54 21
-24.0035 11.4032 16.4071 66 109 105
-23.9465 10.8909 25.5005 75 105 112
27.9197 -24.7776 -20.7154 17 25 8
33.5843 -19.64 -22.197 68 83 69
4.34077 16.7821 -26.5884 72 60 12
-9.37547 18.2929 -25.8797 64 63 11
25.6842 -24.3679 -25.6638 47 49 23
-29.7699 -25.6969 5.86442 55 85 29
7.54327 37.1811 -13.6605 89 88 2
7.80151 13.4934 -29.1341 64 58 4
-1.47904 31.0331 -15.3524 71 69 16
31.127 -26.4989 -30.1136 55 69 51
2.85556 30.8567 -15.339 67 71 16
-3.92393 1.34072 -28.379 67 75 69
4.67886 34.011 -13.6307 71 64 10
-13.4453 22.8889 -22.0679 73 69 12
7.6175 21.5098 -24.8116 86 89 29
-25.0524 20.1665 12.4592 92 120 115
-6.42077 28.0778 -17.5946 64 55 17
-19.1345 37.2851 -11.8813 71 71 11
8.82212 29.7588 -15.5905 75 74 25
34.2203 -9.70768 -23.8538 72 86 84
-10.7444 19.0855 -25.2803 69 63 14
-29.8444 -25.6028 3.63066 46 77 20
19.3076 -23.5496 -26.0661 57 46 23
5.86584 34.0932 -13.5682 74 73 12
1.99979 20.0318 -24.0016 70 73 9
-26.7106 -25.649 3.66132 53 74 28
13.3326 44.5747 -5.08475 83 90 79
7.17574 24.14 -20.0837 77 71 1
-15.8265 35.9976 -14.7179 77 84 38
-3.96962 27.948 -17.5911 64 58 14
12.8334 44.3805 -7.72229 67 59 10
9.63417 -26.2086 -25.1582 81 103 75
-10.8467 32.4774 -14.6902 71 67 17
0.352551 40.5351 -10.1826 69 68 16
13.7071 18.1223 -24.9775 75 66 25
-3.971 17.7952 -26.1037 69 61 15
7.64749 39.121 -11.7884 92 89 1
-3.93933 34.0221 -13.8153 68 66 14
-9.14306 38.4223 -11.3952 70 70 14
-17.1719 45.5062 -3.83655 70 82 72
-20.7039 40.5808 -8.4766 58 58 28
-30.2337 -25.5324 2.15929 45 75 24
-18.7314 45.155 -4.2716 60 72 70
-20.7769 -22.9929 4.77778 39 44 35
13.1844 44.7246 -7.26152 79 72 44
16.3456 -23.1865 -23.7936 36 42 22
33.529 -10.1938 -23.9867 73 90 82
31.3081 -25.3566 -22.7653 52 61 38
-2.87368 19.8568 -24.3721 67 62 14
7.48768 14.392 -28.4554 69 66 11
-25.767 -10.2015 9.85411 58 74 68
-1.24195 44.2657 -8.03219 72 65 10
11.127 31.8044 -14.4473 75 67 16
28.3662 14.7527 -9.14067 69 64 20
7.99627 34.0157 -14.3932 111 114 41
31.986 16.7813 -7.30681 83 85 61
-18.7312 -25.3719 -8.49988 56 75 22
-8.24937 28.1261 -17.6289 67 59 18
4.93796 42.972 -8.77326 70 67 10
28.0744 -24.5634 -24.2504 39 42 21
-24.0976 20.5316 17.584 77 109 113
-1.69749 29.383 -16.0102 72 72 19
-20.3339 -26.1572 16.9881 77 109 43
11.7642 19.1819 -24.267 73 71 21
-14.8013 26.9085 -19.8574 84 98 77
-25.0065 3.41227 13.483 83 100 98
-3.22607 33.7712 -13.9503 71 73 15
-3.35378 28.6614 -16.8298 61 57 17
-20.3717 23.0876 -21.9776 67 70 12
-19.2035 0.922764 -6.80027 67 80 74
7.56755 37.9467 -13.6123 87 86 14
29.0642 11.6052 -11.2002 73 67 12
3.64283 23.9645 -20.6594 69 63 15
19.7878 -23.4873 -22.1368 60 62 28
7.592 23.759 -23.6252 78 80 43
-25.4755 27.5919 15.6096 73 98 98
-16.0184 25.3788 -20.3429 78 80 0
-18.4786 -24.3139 5.72847 34 34 10
-9.64091 15.3961 -28.2613 66 65 11
7.50044 18.4502 -25.0457 73 66 20
-30.0513 -25.3072 -3.11552 37 67 23
-20.2406 24.2177 7.8018 86 78 5
29.5869 -24.9301 -24.323 46 50 25
3.95826 24.6023 -20.076 69 60 17
9.78349 14.0919 -28.6105 71 63 13
8.0605 43.6125 -8.35478 69 64 14
-9.88244 44.5851 -7.78469 67 58 12
4.69267 24.5772 -20.0627 70 67 1
-17.0491 19.2505 -25.2918 69 65 9
-13.0693 44.2791 -8.00645 70 62 16
11.8649 15.598 -27.2631 71 63 27
27.1906 -25.2016 -26.7024 45 48 20
-1.72418 24.4884 -20.4798 68 66 16
9.62832 15.1653 -27.7444 72 62 12
-25.4107 -20.2717 2.70181 86 108 91
-17.5022 -25.3963 -8.64191 45 70 20
-9.01126 19.8263 -24.6102 66 65 15
-11.0789 23.5703 -21.5964 70 70 14
39.2492 -25.8504 -25.3537 64 87 27
-6.74427 14.2315 -29.0881 70 66 5
-16.852 -24.455 2.74044 105 127 61
-9.36118 44.0046 -8.21781 69 63 13
-11.2063 41.6927 -9.57213 74 63 12
-0.819462 28.7223 -16.6092 61 52 16
7.41838 16.4793 -26.7315 71 65 17
-28.5933 -25.4876 0.26252 43 71 22
7.56623 41.4667 -9.5691 72 65 19
7.66722 43.5355 -8.40359 69 62 13
22.1413 -24.7518 -27.1746 39 43 22
27.0616 -25.7502 -31.9952 30 42 23
11.6987 16.5129 -26.507 72 67 20
-20.4558 -25.7509 11.6302 65 94 47
-3.05279 22.4639 -22.2441 67 68 14
-14.1759 18.8404 -25.5597 70 59 11
32.3953 -25.6938 -25.4812 57 64 28
-25.2124 -6.95077 11.7317 90 111 98
-16.5137 -25.5998 -0.955425 62 79 16
8.23256 39.4668 -13.4286 73 79 74
3.20881 27.9449 -17.2622 64 57 15
12.3973 41.2718 -9.51831 67 59 8
-7.8629 41.9128 -9.45059 70 65 13
4.6263 23.2523 -21.1816 72 67 4
-12.4096 23.1059 -21.959 69 70 16
5.41017 37.6304 -11.7021 74 74 0
-25.8765 24.076 13.8921 60 86 89
-5.57907 40.1937 -10.4111 70 65 16
-12.729 28.0558 -17.7951 65 61 15
5.65092 25.2346 -19.4279 72 66 1
21.115 -24.0336 -21.7373 60 58 24
-11.3794 35.8768 -12.8012 69 67 17
-19.6448 25.6702 -19.7923 70 69 17
-23.2888 -26.0656 15.1858 88 117 52
12.0443 24.0881 -19.9352 70 68 24
10.948 -25.4002 -25.7185 53 71 33
-17.7454 -24.6573 5.67308 38 46 22
6.6393 44.8614 -4.63128 86 92 78
-18.1451 -25.5262 -2.56414 60 79 19
25.1061 -28.2873 -31.4169 11 15 6
-1.95271 15.9656 -27.5348 67 62 13
27.3013 -24.3671 -24.0093 39 38 22
-20.7746 34.1238 3.08986 72 82 77
-10.7413 24.8702 -20.4913 68 65 13
-18.2206 18.0619 -26.3415 63 62 7
14.6379 -23.5253 -23.2302 49 56 34
-20.4496 17.3038 12.7556 91 85 5
-7.34617 22.6584 -22.2253 68 67 12
-20.4981 41.9605 -2.75186 51 46 30
-7.95863 28.7595 -16.9603 58 62 14
-5.89489 22.9894 -21.9127 67 61 11
30.8606 -25.7635 -27.2163 58 80 19
9.17275 28.0793 -16.444 62 61 18
-20.2823 34.1394 2.07455 87 68 0
30.8096 14.7229 -9.04379 74 65 18
-23.896 6.26085 13.8902 52 90 83
6.08224 40.4911 -10.1317 78 70 1
2.47917 -17.7401 -25.0608 47 33 16
7.89675 40.4508 -12.8379 65 75 63
2.97065 26.2445 -18.8014 69 58 19
-12.6073 36.7917 -12.2494 74 73 22
8.95271 23.7518 -23.8565 84 86 57
29.957 14.7114 -9.10795 73 71 21
-14.8906 41.0699 -12.0281 67 73 61
-14.4362 42.0872 -9.26649 71 63 15
-19.6885 -25.5398 -0.638729 53 75 25
13.7455 30.086 -15.2088 74 67 33
-8.56634 27.927 -17.8133 63 60 13
-17.8695 -25.9542 11.1809 73 93 40
15.5632 -26.2891 -29.2568 39 49 8
-1.48641 32.116 -14.7963 71 68 17
-11.4906 44.8027 -7.48177 67 60 31
-24.2957 20.0646 13.0732 79 111 111
-18.9974 -23.7258 4.61894 26 36 15
-25.6323 22.6318 12.1729 69 74 69
-19.3476 22.5765 8.90241 93 91 3
-13.3163 26.4693 -19.165 68 64 13
28.6698 -24.5711 -23.112 36 43 20
28.6042 -25.0683 -25.4453 46 46 27
29.6054 11.1735 -11.4694 73 69 11
-25.5014 28.2508 22.2349 66 80 73
-23.8416 6.36473 16.6458 71 110 119
7.70957 35.727 -14.7077 91 90 16
8.14417 17.83 -25.5654 70 65 20
-16.1716 -25.4789 5.28875 4 5 2
22.5156 -24.6553 -21.3112 52 53 24
-6.92429 21.1695 -23.444 68 64 10
37.9103 -25.8412 -23.8637 82 102 31
-15.0278 45.562 -3.78783 70 81 74
-24.735 -1.5337 15.1739 103 122 116
6.16619 44.2871 -7.91482 66 59 6
-4.61256 30.0919 -15.8256 71 66 17
-19.1648 26.0713 -19.4687 69 65 19
-18.1401 24.6864 -20.6212 67 70 6
-25.5643 -4.19162 18.0154 47 38 21
-20.6613 44.0917 -1.98962 76 86 80
-1.25956 37.6982 -11.7714 70 67 14
9.18118 18.4635 -24.9505 70 66 17
-19.2256 42.2954 -9.09719 68 60 15
29.1475 12.5344 -10.5986 73 65 15
-17.0896 26.1115 -19.4155 71 65 6
-16.9146 37.8765 -11.5801 79 72 1
12.8802 36.4855 -11.9125 73 64 2
8.25423 32.9486 -13.9913 73 76 22
-27.4125 -26.0446 12.8217 77 104 35
-26.0977 28.6967 18.9762 53 78 84
5.24634 -13.5765 -24.941 63 42 17
-11.8974 15.7824 -28.0384 68 63 13
-15.1379 43.0718 -8.71956 71 69 17
-10.7036 21.5293 -23.2467 68 68 16
2.29412 14.7577 -28.3213 71 66 7
1.46978 34.2489 -13.5987 73 65 18
19.9306 -23.3892 -22.6932 56 60 27
2.38778 27.4634 -17.7298 67 55 13
-3.65239 26.6259 -18.7752 65 59 10
13.7539 31.934 -14.2284 76 70 38
-4.97 20.8115 -23.6459 69 60 14
8.29627 26.7125 -21.3292 71 76 69
-18.8121 -25.5506 -1.34455 60 81 24
-19.3712 32.6401 -14.4585 71 77 24
-22.1724 -24.7054 7.71144 46 39 22
6.67141 19.8941 -23.8094 77 69 8
-9.97585 33.1927 -14.3061 68 70 15
-24.1044 -14.353 7.25565 60 84 65
30.9428 -25.193 -24.1038 52 57 31
-23.6981 -25.3836 -3.92311 38 71 25
-31.3349 -25.6738 -2.58029 43 64 45
6.19341 14.6616 -28.2422 69 61 11
5.25974 26.6614 -18.2602 68 60 22
7.59858 39.272 -13.0428 81 82 27
-25.2833 -0.462311 15.167 123 136 126
-1.69947 38.8709 -11.1306 73 62 15
-19.3094 -25.4192 -5.90025 47 76 23
-20.684 29.2066 4.6912 75 77 52
-23.3342 -23.4765 1.02191 9 2 0
-7.03991 44.7732 -4.82787 71 85 76
-17.6798 37.3341 -11.8749 74 69 2
-11.8189 29.1363 -16.667 61 54 19
-3.21738 44.0865 -8.14521 65 63 5
29.4643 9.96244 -12.2273 73 67 10
3.27326 27.3848 -17.7702 67 59 15
29.6052 -27.0129 -30.2502 62 77 59
-17.0826 26.7892 -18.8806 68 65 24
31.2847 16.4099 -5.17932 83 95 89
-18.8883 -23.8255 2.86374 85 98 63
13.4577 16.2399 -26.6363 69 66 28
-8.0268 44.7648 -4.87188 70 85 76
18.8119 -24.3145 -27.5608 40 46 20
25.0376 -24.3813 -22.2588 25 24 12
-19.3582 24.5928 -20.7226 68 69 14
13.683 23.8103 -20.0011 63 72 35
-1.79796 20.5001 -23.7817 69 69 11
-4.27735 24.4534 -20.6262 67 63 13
-25.84 -25.108 0.230743 51 69 36
-2.3591 44.7387 -4.9015 77 88 82
-20.6927 31.854 3.49393 55 53 28
7.31091 44.6928 -4.93211 81 94 87
18.2169 -24.8434 -28.2935 34 42 14
31.2145 10.2623 -11.9825 74 67 7
-10.7461 17.2322 -26.7959 69 61 14
32.0506 6.39081 -14.3009 71 66 0
-8.90828 29.0936 -16.5729 60 61 22
-30.9619 -25.9449 11.6878 44 78 33
-25.668 0.78756 15.6066 59 80 81
-6.43526 27.6612 -17.9814 66 55 17
-17.2554 40.7084 -10.0051 72 74 10
-19.1235 -25.8486 12.0938 72 101 40
-17.0635 -24.6734 4.82528 17 21 11
8.84359 17.9631 -25.414 70 65 20
-2.77356 36.2863 -12.5697 69 62 13
-13.3686 32.1295 -14.833 72 66 18
-9.01541 16.8344 -27.0786 68 61 8
-29.3824 -25.9795 15.892 49 84 33
11.8664 16.8164 -26.2538 71 63 22
-16.7612 -25.5936 -0.602558 63 80 23
37.6115 -25.8566 -22.6994 87 107 26
-2.4183 35.7815 -12.8266 70 64 15
-21.7374 -26.043 15.6052 84 113 44
-14.9384 22.4824 -24.6873 69 77 72
13.5082 43.0932 -8.46369 69 62 10
-8.79173 24.5813 -20.6979 66 63 11
24.8217 -27.4729 -30.3133 59 74 65
-15.921 44.8694 -7.26171 78 78 56
13.621 -24.3085 -25.7155 49 53 35
-20.7313 42.9648 -8.00972 59 64 49
-2.29732 37.832 -11.6997 71 73 16
3.14415 44.6733 -4.99984 82 93 87
-20.716 38.2762 0.986111 69 83 77
-15.9409 -25.214 4.75363 4 8 1
31.6357 -25.5158 -25.1895 53 61 24
11.8037 40.517 -9.9373 69 63 10
-5.36591 27.1265 -18.403 64 55 13
-29.6405 -25.5793 3.1237 50 81 24
-20.6399 38.8461 -0.303596 47 56 33
-23.9212 0.253567 15.4035 63 94 100
-17.6306 15.7261 13.5577 98 76 2
-11.4353 16.2898 -27.601 70 61 9
29.53 11.6017 -11.1848 75 69 12
-18.586 27.7777 -18.0155 70 70 19
-18.9582 33.4866 -14.013 70 71 13
-1.15965 25.3192 -19.7608 66 64 15
8.16035 23.7429 -23.9501 70 75 69
-5.88537 13.2979 -29.7259 71 66 7
-17.4232 21.7524 -23.1407 70 68 3
-24.5184 -25.3483 -0.606197 44 59 33
-21.6688 -22.8075 2.41169 5 3 4
4.67891 20.9452 -23.0739 72 64 11
-18.4685 -24.1355 5.18504 32 32 9
-18.283 2.52465 -5.09324 57 33 17
-19.4574 44.8701 -7.27729 75 69 37
-1.93121 39.7132 -10.6715 71 66 15
-12.3272 44.2382 -8.03246 68 62 16
-19.4513 42.0218 -9.2465 71 58 12
26.0953 -24.1827 -24.0796 55 44 19
-1.19644 45.1776 -3.99855 84 86 41
10.903 28.0789 -16.1248 69 61 24
-30.487 -25.9251 11.2316 42 84 30
18.7452 -23.2109 -22.112 64 71 36
30.3221 -26.4067 -30.0745 56 69 47
-22.3445 -21.4181 4.86013 13 7 5
-2.42336 13.2577 -29.655 72 66 11
-21.4853 -25.3758 0.0981789 55 71 25
35.5926 -25.7894 -26.5128 91 110 33
-3.40904 32.2145 -14.7899 69 72 14
-24.3498 -10.0173 9.84948 75 94 84
40.2697 -25.9974 -24.8714 50 64 29
-0.148003 25.3258 -19.7238 68 63 13
-15.5781 36.2693 -14.8822 69 76 59
-2.67871 27.7192 -17.7512 64 53 15
3.48444 21.3215 -22.8599 70 69 16
-24.8924 -9.69629 9.93472 95 113 100
1.18767 23.6365 -21.0665 67 65 13
31.7931 -25.9475 -30.1907 82 104 45
13.3941 38.8007 -10.7596 68 57 3
-11.3819 29.118 -16.66 61 58 22
-19.5795 24.4754 7.64712 85 78 8
32.9037 15.3475 -8.47105 74 67 20
32.617 -26.3065 -21.007 61 77 36
12.3913 38.4102 -10.9687 71 61 5
37.5172 -25.7259 -27.9503 68 81 42
7.94176 24.6404 -23.2426 72 77 70
30.0625 11.1789 -11.4612 75 70 13
-6.52563 44.9944 -7.11383 75 82 72
-14.9542 35.312 -15.1574 77 83 58
2.76631 16.17 -27.1426 70 66 16
-29.6469 -25.5159 1.2594 45 76 23
-8.57073 21.8594 -22.9183 66 64 11
-24.1236 22.7068 13.254 74 96 97
7.73142 26.1665 -18.9895 98 99 47
