ply
format ascii 1.0
comment Created by Open3D
element vertex 1401
property double x
property double y
property double z
property uchar red
property uchar green
property uchar blue
end_header
-16.4167 10.1455 -1.75634 53 48 19
-25.9215 15.4918 15.4965 51 76 83
-24.7075 -25.37 -3.42972 64 87 32
2.81068 32.1044 3.71671 75 72 1
-31.227 -26.1268 8.46883 49 70 47
28.1738 -25.7305 -27.19 57 71 12
-24.0932 -25.334 -6.88039 55 78 19
-10.8381 -25.4058 -28.4322 48 60 43
3.83307 36.926 0.984184 74 70 1
-20.6274 28.2423 -16.5312 64 76 63
-27.5637 -25.2459 -9.34317 27 64 16
-3.53634 24.8181 -20.299 66 61 15
25.3992 14.4685 -2.34079 79 75 11
-16.4956 -9.25298 -21.0799 75 51 30
-16.3632 13.165 4.20852 52 40 16
-25.6672 6.33784 15.3152 41 69 70
-9.0051 33.0708 -14.3711 71 70 15
-9.41793 45.3592 -2.9272 80 70 0
-1.99707 20.1785 12.2073 70 70 1
33.0747 -25.7917 -25.8855 57 77 21
3.93067 16.2552 -27.072 70 59 15
13.1542 17.6993 -25.4439 75 61 23
7.2077 29.7791 4.29583 78 71 9
-8.41284 43.8662 -2.02636 71 65 0
15.8753 -23.1211 -22.5598 48 45 23
-8.05529 23.8963 9.96504 74 70 2
-20.6795 22.1815 -21.0685 60 68 54
-16.1702 32.2512 -10.7223 32 14 1
-3.80756 37.5956 -11.8467 69 73 13
36.4133 -25.7949 -26.1187 82 101 33
10.6751 22.7603 -21.1391 76 75 22
-16.6524 -2.79465 -13.6326 72 47 17
11.9524 14.306 15.4642 71 68 0
7.84745 26.3581 -18.9589 85 86 53
-17.8734 17.223 12.5369 92 92 3
-15.8453 13.273 -30.1939 69 67 6
26.7329 2.06588 -17.3914 77 75 4
17.3692 14.7957 -9.25465 73 61 21
-24.6631 -5.41214 12.8814 69 86 82
7.44398 18.8457 -24.7006 75 69 25
-24.0291 9.1085 30.6388 62 94 97
-16.3236 14.3948 6.00896 53 35 18
-2.19734 26.948 7.44536 70 61 0
30.0276 4.38091 -15.7565 77 66 0
-25.9801 -12.3382 17.1383 61 81 77
-0.0387001 14.2612 16.208 68 57 2
-20.6593 20.8433 -22.1257 51 59 51
0.199583 27.9888 -17.3799 66 65 19
12.3124 16.1054 -26.8383 73 61 24
-24.1315 12.2138 32.8133 26 49 36
-10.1966 36.4877 -12.4542 67 62 14
-24.29 16.756 34.7048 33 54 33
-16.4213 10.5751 -1.8314 59 47 17
-26.0593 6.92725 43.2326 39 65 67
9.30362 19.2098 -24.2275 74 70 22
-15.2082 -25.3614 -17.0474 63 84 46
3.09397 18.5265 -25.195 72 65 14
30.4535 -0.598007 -18.7871 79 80 24
28.0754 7.29806 -15.917 68 74 58
-24.0909 20.4866 19.6052 78 113 116
-19.62 29.2311 -16.5838 61 69 25
38.8684 -25.7844 -24.9362 71 89 34
11.6301 -26.7426 16.7621 73 93 17
-23.9113 10.4093 18.9523 65 109 115
7.13157 36.2182 -12.3212 80 75 1
-16.4527 3.08138 -3.326 69 34 7
31.7268 1.07359 -17.6793 72 70 5
-14.4974 16.601 -27.4793 69 60 12
-16.4216 10.4702 -8.07992 61 48 24
-7.23125 14.9107 16.1696 73 71 0
-16.5354 4.40627 3.96325 67 37 14
5.67914 36.755 -12.1465 78 73 3
-13.0688 29.3505 -16.3596 69 63 27
23.1088 -24.7563 -26.9148 38 44 20
-25.9881 8.52621 30.7786 45 70 77
0.744726 26.675 7.43605 72 64 3
2.8623 40.9523 -1.24067 75 73 3
-28.5954 -25.0554 -20.0542 26 62 15
-5.65781 40.5102 -10.2472 71 66 17
-16.1902 19.4611 1.28554 68 38 6
-25.7482 14.7642 13.2395 50 75 78
-18.3421 22.1812 9.21964 95 89 5
-25.7789 3.11694 31.3837 17 35 16
1.4464 17.7416 -25.941 70 62 14
-9.64905 15.0054 -28.5663 67 67 15
1.45194 -16.9648 -24.9655 54 43 30
-14.5962 -25.4057 -11.2371 51 72 20
-15.6833 -14.5882 5.56424 75 69 56
-4.52395 22.1306 -22.5671 65 68 11
-16.468 9.65001 -4.86196 71 73 29
-8.16246 32.5349 -14.6571 71 71 16
-5.42648 39.12 -11.0201 72 68 12
-15.832 33.4846 4.49645 76 63 0
-25.1971 -25.3821 -3.66958 70 92 49
-8.34082 44.9324 -2.68466 78 74 3
-26.1953 -25.4492 -2.25533 66 90 65
-26.235 16.2506 36.4007 30 54 52
-25.0699 -25.3502 -4.86857 57 81 38
6.84378 -26.8495 16.983 71 95 10
31.0178 0.212212 -18.2644 78 75 19
13.5421 41.4543 -2.31256 80 72 8
-7.29946 35.3621 2.74873 72 70 0
29.6052 -27.0129 -30.2502 62 77 59
-15.7988 -25.3426 -15.0576 57 77 22
31.4133 -1.97102 -19.4143 78 79 29
-16.1961 -3.4408 10.0083 62 37 15
-16.0262 27.521 -9.29835 54 42 28
-24.4737 19.7378 35.7828 71 82 80
-18.7419 16.834 12.9063 92 97 3
-18.5664 21.9932 -22.9302 68 71 9
-10.5707 44.558 -5.78558 82 96 86
9.01619 28.1388 -16.4026 66 64 23
-16.069 28.8591 -11.5836 48 25 5
29.3436 16.7767 -7.55777 79 78 47
7.44891 31.508 3.61169 71 69 0
-17.57 2.45117 -5.14208 58 32 17
25.7271 -24.1597 -23.2266 31 32 18
-14.2718 44.6504 -5.94363 80 95 88
6.35285 41.0085 -1.57575 76 72 1
-24.9665 28.1958 22.5862 55 63 61
-26.4718 -25.287 -7.47994 37 69 22
37.9425 -25.7962 -24.8124 79 95 37
-14.5737 26.3967 -21.3908 70 72 57
-6.85708 20.0245 12.5869 73 73 2
-16.6112 -25.3335 -14.6179 64 79 23
-26.2464 17.7467 39.616 46 71 78
21.1829 -25.6715 -19.7009 54 52 26
-4.16807 34.1226 3.23272 74 63 3
-31.297 -26.625 -1.18728 58 81 62
-23.8856 4.38013 26.8537 70 103 109
12.5136 -24.407 -21.7576 33 40 25
-25.9539 8.25172 25.9782 47 63 62
-19.642 -25.2441 -16.2678 57 74 33
-26.3508 -25.1373 -15.1337 36 67 22
-20.4917 27.103 8.28572 81 71 20
4.76335 -28.3997 17.7922 76 95 84
-7.38765 41.9801 -9.42507 70 67 11
-11.3517 27.4216 7.61175 73 64 0
-31.3171 -25.5844 -1.28326 34 54 32
-25.9269 20.9077 14.1299 57 82 80
-26.4605 -25.0058 -27.916 30 59 24
29.9713 -25.0896 -19.5674 23 26 23
-25.9846 15.3897 17.0819 49 76 82
10.9103 36.6565 -11.9099 76 71 9
26.5897 9.42426 -12.6426 65 64 18
-19.3116 17.0024 15.2643 84 83 9
-31.2627 -26.6853 7.31974 57 78 62
-19.958 20.0256 -24.693 65 68 15
-24.6701 -15.8939 5.79619 72 89 76
3.33978 44.6091 -3.4365 80 74 5
-21.3777 -25.1512 -20.4402 38 66 30
-20.6101 12.9645 17.7336 76 80 42
-31.355 -25.2774 -10.8481 27 60 21
24.3458 -24.9405 -27.0593 41 44 21
-16.3788 3.20995 -7.93077 77 43 10
-15.3637 17.5557 -26.6963 67 61 12
-19.9983 29.4897 6.48844 77 73 4
-16.6354 -1.28614 -20.9446 77 52 27
-2.52046 21.3499 -23.1052 65 66 11
-24.4175 27.6681 22.0762 62 97 98
-26.0114 -13.822 15.0866 56 79 70
-16.1562 20.2717 0.831053 69 40 4
8.44512 -28.336 17.7838 78 100 83
7.90594 44.4441 -7.78185 67 61 18
-12.8366 16.6814 -27.3335 67 58 10
-26.1193 25.9804 26.5382 60 73 70
-16.0091 17.4091 -19.9623 61 59 5
-10.5071 30.6815 -15.5886 73 71 22
-4.39202 18.7746 -25.333 68 63 13
-3.16825 15.7361 15.3841 71 66 2
1.02542 37.7751 -11.6961 70 66 10
-18.1172 19.8221 -24.8232 67 67 11
29.0905 3.90034 -16.0439 79 71 4
-25.7785 2.42918 24.0703 52 75 77
-3.27414 12.647 17.4827 69 67 4
7.47033 31.5244 -14.8295 71 64 19
-10.2215 44.8433 -2.46677 75 71 1
5.2601 23.8958 9.0479 76 71 5
-17.7615 19.9345 -24.7212 68 69 8
-15.1629 16.4825 -27.603 65 64 13
-11.3132 28.8915 6.49446 73 65 0
-24.0091 18.0685 16.1519 91 123 121
-11.7513 41.7227 -0.601753 71 64 2
8.4201 -26.8605 17.366 61 81 41
-27.643 -25.9575 10.59 70 99 36
-16.2582 9.25238 -20.3749 75 56 27
-26.1689 26.9704 22.5727 55 83 94
-19.5358 19.3802 13.6087 86 87 9
22.7419 13.3797 -10.1541 74 69 23
27.9685 12.4296 -10.705 71 71 16
-26.2983 13.1478 43.2114 44 69 72
-13.2704 -23.3575 3.54915 38 31 8
-16.4175 -25.3219 -18.7912 53 57 39
-31.3618 -27.0872 -2.03053 56 82 63
7.62505 25.54 -20.0323 100 101 6
-30.9781 -25.0292 -26.2741 35 63 42
-25.1087 25.9993 26.7925 59 72 65
-20.7754 22.2478 9.24258 61 62 30
-2.78403 41.8557 -1.31348 73 67 3
20.1516 13.9988 -9.80545 73 71 21
-4.16969 45.0338 -6.9415 77 90 79
-8.8908 36.7957 2.05408 73 70 0
-24.2498 16.457 33.5759 30 51 34
-11.9017 35.7005 2.85322 73 72 2
17.6692 3.53902 -16.6692 78 68 18
-11.8219 16.1731 -27.7154 68 63 13
25.7014 -25.9837 -29.6436 74 85 32
11.5858 43.2925 -3.17202 81 72 10
-11.878 24.1202 9.91025 74 70 1
-30.4849 -25.5905 3.20363 47 76 24
-20.6152 33.9036 2.28117 65 64 21
-24.0595 2.01424 32.4077 67 96 96
-17.8891 -25.3012 -13.8519 52 73 26
11.626 21.9494 -21.8657 73 72 18
9.37563 -27.2147 17.5485 58 73 57
-12.9933 37.833 -11.6251 75 75 15
-24.0195 16.4087 12.8664 41 74 74
-26.1752 18.3972 28.2655 17 48 23
-15.1155 -25.3889 -16.7174 50 70 31
-11.0855 26.9574 7.93702 73 66 0
-10.4722 39.2026 -10.9405 71 67 16
-20.6992 36.5444 2.10944 71 83 74
-11.0075 34.6162 -13.5169 72 65 20
-30.4799 -25.2519 -6.88345 27 66 16
20.3304 -24.1126 -26.9872 40 46 23
7.54182 36.9073 -13.4104 94 92 0
-17.2283 35.0964 3.6626 74 78 1
30.7455 15.5784 -3.11481 79 71 8
-16.4638 7.96675 -11.6519 72 47 19
6.35612 42.9382 -8.7751 72 63 12
-20.0093 -25.288 9.77501 62 84 34
-26.2401 24.678 26.5448 49 80 88
-20.0874 17.6054 -26.814 65 72 13
-18.7442 19.8193 -24.8591 69 66 10
33.2394 -8.67175 -19.8682 90 102 74
23.5237 8.62762 -13.212 70 67 21
-25.4516 -14.0176 6.87962 86 103 89
30.5644 16.4902 -7.77871 71 65 29
10.8009 -25.4877 -26.142 58 70 32
-26.1794 20.0651 27.2032 18 45 20
-15.9873 -10.6204 5.76829 63 39 22
-16.2486 17.4429 4.26745 68 43 5
-25.6155 3.36487 16.0234 52 75 78
-4.73809 44.2323 -2.57163 75 70 6
-14.7568 32.1102 5.21366 74 77 3
-18.5069 -24.7137 1.62972 57 73 31
-19.1472 -24.0261 2.25274 60 75 25
-24.5023 6.24724 13.8563 66 80 70
7.11982 27.028 -17.7936 68 65 22
12.6357 14.3261 15.395 74 63 1
-26.0818 -22.2465 7.08587 40 31 8
13.3803 14.4057 15.2954 72 63 3
-17.4201 33.5663 -14.0235 72 74 16
1.01181 26.8921 -18.3105 65 56 13
-11.4104 -25.4042 -17.1792 38 58 24
-9.70878 39.8299 -10.6099 72 66 15
-21.2695 -25.1239 -25.5826 37 66 26
27.1202 -2.53753 -20.37 79 67 28
-17.0286 -25.3384 -11.9519 54 70 24
-7.89477 20.9197 12.014 75 72 2
-25.9342 -19.5761 15.6298 62 80 66
-16.5654 3.41022 -12.7715 70 42 18
-14.8054 -25.4991 -6.3264 51 73 23
9.01605 42.4314 -2.52599 80 69 6
-24.4032 23.3107 12.4925 60 82 76
-5.91743 35.1617 2.77367 71 73 0
11.2013 44.1252 -7.95753 70 61 15
18.8968 -23.2305 -25.0472 59 48 25
-31.5282 -26.4569 -10.3464 70 85 79
7.02167 38.289 -11.2764 83 75 0
6.19976 21.273 10.7609 81 78 6
3.20381 21.4829 10.9167 72 70 1
30.0057 16.7395 -7.56615 80 77 45
32.4293 -25.7684 -27.0007 50 69 12
-9.8369 18.0312 -26.1172 68 62 10
-24.0935 10.2042 31.9111 41 69 64
-26.0054 18.3456 15.4981 30 55 41
-9.36703 25.1304 -20.248 67 63 15
-12.5088 41.1009 -9.88421 71 61 15
-16.5837 -2.41334 -21.5404 76 54 28
-13.7739 -25.6959 1.25435 66 87 30
-26.1776 9.17748 42.9992 36 62 62
22.6525 2.4047 -17.4957 76 70 19
-25.9685 9.23153 24.4973 45 73 81
-16.4741 4.04439 -3.33725 70 35 7
-3.83188 25.0215 8.91557 72 64 0
-1.99737 21.3669 -23.084 67 70 12
38.3903 -25.7567 -27.7464 62 79 30
-29.7488 -25.2598 -10.6068 33 70 14
-26.2753 11.7237 43.5533 41 69 73
-19.7431 -25.292 -12.5456 61 77 5
18.4008 3.73775 -16.5446 78 68 21
-16.04 -16.8074 6.94511 42 29 8
-29.7439 -25.1374 -15.5755 33 69 15
-15.1977 18.671 -25.7269 69 62 12
-8.71481 32.4798 -14.6832 71 73 17
-25.9927 -13.2831 12.9669 42 33 15
10.156 11.6053 17.4179 63 63 1
-16.6111 -3.28358 -11.3055 77 47 15
0.578938 43.7623 -8.33789 70 64 14
28.644 -25.7316 -31.1505 18 42 16
-11.1728 32.3309 -14.7593 70 68 17
-9.08914 40.5159 -0.0382633 69 70 1
-14.304 31.5868 -15.1269 71 71 20
-24.7632 -12.6451 7.97012 84 102 86
-17.8611 37.0238 -12.0396 74 73 2
-18.0959 44.4588 -4.9097 70 86 74
5.73271 18.6128 -24.9945 71 64 17
-25.8043 12.2787 16.2451 48 74 77
3.16843 19.0783 12.6322 70 71 2
-6.34385 45.2633 -3.16837 80 73 2
-17.3088 2.44359 -6.39392 57 31 13
-16.5229 4.88521 -18.2488 71 46 20
-2.49689 16.3949 -27.1913 69 65 14
13.0961 41.4507 -9.40108 65 62 2
-17.6454 -25.5765 -0.7099 59 77 14
-25.1027 18.6678 40.7466 30 44 42
16.4633 -23.2627 -24.4129 62 78 68
16.3452 -23.4127 -25.0486 68 81 67
-26.2155 23.6831 20.7476 51 81 89
-7.38763 28.8859 -16.7817 61 55 17
30.957 5.0479 -15.2655 75 63 2
3.3064 39.1134 -0.220716 74 67 1
-24.3226 13.3825 40.0751 35 62 45
-16.2776 16.898 4.28972 59 45 9
-16.1805 11.4719 -19.5818 51 40 27
4.36465 19.2482 12.4224 72 61 0
-31.085 -25.3567 -3.26048 34 62 22
-6.75404 42.7812 -8.97301 71 65 11
-11.2352 39.1247 0.855232 73 65 0
-6.54655 42.2745 -9.26336 69 63 9
-6.28837 31.2626 -15.3151 67 72 13
-25.7128 0.841309 25.4677 54 74 74
34.2221 -25.8372 -25.2365 65 80 27
-22.5208 -25.3632 -6.18491 62 82 23
-20.0459 17.7406 14.7898 86 89 10
-15.6188 26.6167 8.4693 81 66 20
33.8359 -12.3515 -24.8597 71 86 77
-15.8327 36.7176 -14.3123 74 81 19
-24.5363 11.2895 46.2621 62 89 94
-19.6825 29.334 6.59517 78 76 3
-12.5082 16.1908 -27.7388 66 58 12
-16.4038 7.17157 -14.0505 71 47 31
-6.48025 1.29858 -28.355 65 71 63
5.40501 39.7087 -0.739813 75 71 1
18.6147 4.82372 -15.8085 78 64 21
-26.0152 -12.3018 14.269 44 33 9
-12.0882 39.3476 -10.8753 63 69 20
-5.38282 32.5804 -14.6242 69 63 16
-27.0378 -25.3074 -5.98842 32 68 21
-28.5143 -25.7965 7.14655 52 82 29
3.47789 -26.6948 16.9425 82 105 14
-10.8757 41.7636 -0.642448 71 66 0
8.15659 13.881 -28.8375 67 66 14
-26.2797 11.4236 43.3267 42 68 73
-24.2433 23.8075 22.0032 66 100 107
-16.2534 17.6617 0.0701752 69 40 9
6.79707 24.9233 -19.5575 78 74 5
-20.3944 41.9717 -9.22987 72 62 23
-26.1446 8.69068 47.2112 52 79 81
6.89861 41.8896 -9.35793 71 64 18
-17.8381 44.2714 -7.92635 68 64 13
0.750373 15.6757 -27.6336 70 61 12
26.5525 -1.54074 -19.9666 79 71 29
-28.0179 -25.3597 -3.17113 35 66 27
6.68661 23.2657 9.33296 82 75 6
-10.1625 -25.4 -17.1742 43 66 21
8.20937 36.5888 -14.8496 75 85 74
-23.985 14.344 14.9576 72 101 106
-4.09803 36.6205 -12.3945 71 71 12
11.8275 42.2772 -9.00858 70 60 11
28.0647 -24.7464 -20.8184 16 20 5
-15.8788 -25.3115 -29.1403 33 61 19
6.68407 38.2837 -0.112494 79 69 0
-16.2558 -20.0631 -17.6752 57 46 32
20.9644 -23.4181 -23.8866 40 49 42
-14.2926 24.3028 -8.4845 9 1 1
-12.1483 28.6345 -17.2338 64 58 16
-13.5878 21.1714 -23.4919 79 67 15
13.4804 15.9715 -26.8474 68 62 27
-24.2868 26.9337 19.3181 42 75 72
-24.9861 -25.1332 -15.9718 33 67 18
-20.5145 26.279 -19.0944 72 71 33
-26.182 12.7306 38.3466 14 39 11
-30.1073 -25.1413 -15.7022 33 67 14
6.59835 -28.3784 17.7875 61 79 71
-7.14762 12.9914 -30.0047 71 70 13
-16.0183 -12.1982 -17.6482 90 81 66
-8.98244 14.9832 16.1957 77 77 5
-17.1624 2.42469 -8.62701 54 32 10
-6.21936 17.6878 -26.2818 69 58 12
-15.8511 23.2036 0.11058 72 46 3
37.6128 -25.8568 -22.6656 87 107 25
31.5575 3.78738 -15.9868 72 61 1
-24.5952 -25.2766 -9.77124 32 65 17
-11.4218 14.1818 -29.3215 68 64 11
11.345 13.4629 -29.0167 75 70 17
-23.9822 15.2324 19.7527 88 122 128
32.1673 14.5841 -9.06066 77 70 21
-23.9796 -21.515 2.12442 2 7 3
24.8689 -0.178452 -19.2359 77 71 23
30.2849 -25.0789 -21.0741 35 43 39
-16.1158 24.8413 -10.0197 66 41 4
-27.2116 -25.3121 -5.21982 29 67 19
-26.0057 12.3731 19.9759 13 48 20
-18.3146 -25.281 -14.0759 51 72 30
11.5027 30.1398 -15.2414 76 73 21
-2.94099 23.1297 -21.6923 69 67 16
-14.8526 -14.5352 -17.2925 24 30 22
-15.9261 23.5297 1.40853 63 37 12
-1.1368 2.07126 -27.9083 57 41 32
-20.3178 25.3903 7.02156 89 70 9
4.38777 31.0136 4.08942 75 76 1
-25.2367 -3.67861 13.8124 99 131 116
8.72165 26.3007 -21.7229 68 75 57
-16.487 7.75214 -4.68255 69 43 14
-21.7896 -25.4253 -3.43287 56 80 15
-24.2957 20.0646 13.0732 79 111 111
-3.02318 12.9863 -29.8551 70 65 8
-26.0924 -21.7339 7.41653 37 32 5
7.80695 16.5926 -26.6132 71 65 15
-12.6694 23.6365 -21.5006 70 68 16
-15.9323 21.7549 -4.86372 69 40 18
-23.4456 -25.6563 -29.7226 29 59 31
-25.7967 14.91 13.8018 48 76 80
13.1505 44.4742 -6.01228 85 98 90
-14.4441 29.6384 5.928 73 72 13
30.7715 -1.83328 -19.4241 76 75 24
-15.9896 -6.854 -17.6683 100 94 78
-3.30548 37.518 1.23392 73 71 1
4.95358 13.5762 -29.1607 68 61 8
-2.86988 24.2672 9.40513 74 70 4
-4.33382 21.1227 -23.3737 65 67 8
-15.9779 -15.4962 6.02427 59 39 14
-0.560759 43.2244 -8.69137 69 63 10
-23.0195 -25.4391 -2.51744 63 84 24
-30.336 -25.9244 13.4792 58 90 37
-21.9759 -25.0851 -28.3325 31 59 22
4.18911 28.5022 5.78997 68 63 5
-12.3826 25.4861 8.95517 75 66 0
-17.7042 26.9317 -18.7493 71 65 18
-16.1103 30.8884 -5.13635 41 19 4
-25.5914 -25.2906 -8.03767 32 70 19
-16.2575 17.188 -2.17838 68 54 4
-17.3467 -25.4648 -19.3908 60 72 23
-23.562 -25.3082 -7.63764 42 72 16
-16.4108 7.5525 8.54907 68 44 20
-17.4457 22.0549 -22.8691 72 68 1
-6.89632 34.8748 3.01387 69 64 0
33.6087 -17.5509 -22.2668 66 81 67
7.86367 34.6956 2.63833 73 70 0
9.48115 30.209 4.02385 71 72 0
-29.3279 -25.5427 1.81083 44 74 20
-14.9675 41.5015 0.282553 72 82 65
-16.3358 12.1924 -15.0339 48 32 13
7.68005 17.3064 13.5866 70 64 0
-16.1751 -5.58696 7.0374 66 41 14
-3.18658 31.307 4.61394 73 75 0
-16.3218 15.1364 -10.9556 47 28 16
-4.17737 45.0423 -3.19092 81 74 7
-16.1521 27.0278 -9.65587 58 35 12
-6.07721 13.3556 17.1483 75 71 4
-15.8794 32.0763 5.31673 77 68 0
-9.25993 43.0705 -8.78246 70 61 11
31.5988 16.2831 -6.21812 86 99 93
-24.3394 22.5503 12.2369 66 81 79
-26.1511 7.16263 45.8296 12 40 9
-20.0814 22.636 -22.3848 66 67 11
-16.282 12.2507 -17.4332 73 65 27
4.61631 25.5164 7.97333 75 65 4
-17.7377 35.1187 -13.1045 74 77 1
-23.8188 5.22431 19.7651 76 115 119
-16.1592 19.3321 -3.92965 68 39 6
7.29369 13.6849 16.2262 68 64 1
9.45906 -26.7698 17.1677 77 93 36
-16.6969 -25.5617 -21.8715 71 81 24
32.0713 -25.9171 -29.1741 54 76 14
-5.06057 38.2138 0.964752 72 68 1
4.49917 14.4718 15.8267 70 59 3
-24.2687 11.4207 36.0788 60 93 102
-10.559 27.4852 -18.2546 68 60 15
32.727 14.7317 -2.60155 73 78 11
-12.1795 -25.5336 -26.5792 17 26 12
-10.8736 29.2449 6.15359 69 64 0
-25.7533 2.44126 23.1013 49 69 69
-11.479 -25.4584 -13.4921 54 69 16
-7.01241 37.9551 1.2817 73 69 0
9.41164 40.4833 -1.02568 64 72 10
11.3231 28.1317 -16.011 70 59 23
-18.9686 26.1694 -19.3833 69 67 18
-23.5998 -25.0147 -0.166939 34 49 14
-15.7142 44.8031 -2.01799 70 67 4
-24.511 -23.5831 0.681557 68 90 64
4.72395 24.0099 -20.5307 69 68 2
-5.47226 20.3139 -24.085 68 57 15
-24.266 3.98345 13.421 55 77 73
-16.1595 -25.5322 -24.8407 54 91 54
-20.2288 -23.4003 2.67945 29 32 37
-2.1168 40.6302 -0.662538 74 64 3
-17.0857 -25.3156 -15.7232 49 72 28
2.84222 17.6224 -25.9583 71 65 13
-12.1726 21.881 11.4704 77 80 2
12.9944 17.5642 13.0565 73 62 3
-10.6541 25.8959 -19.6227 67 65 15
-25.9324 -6.91824 16.4725 42 34 13
-16.1506 24.4278 -10.8273 68 51 0
-16.5927 -1.97847 -22.6375 77 51 23
-25.5677 7.41747 13.8737 40 69 61
-10.139 33.0923 4.24681 76 67 1
26.5437 7.88432 -13.8838 48 49 19
-17.2269 42.6463 -8.90598 68 68 14
4.73381 21.6242 10.6984 73 68 0
29.1819 3.00585 -16.6112 79 72 6
-25.4968 -22.2949 1.36557 95 115 98
-12.2905 34.6265 -13.499 73 69 16
-16.3557 13.4826 -7.64521 59 44 20
-24.7506 -1.99598 14.8926 110 135 129
9.86139 26.4423 6.83326 70 61 1
-18.9742 -25.2368 9.38529 57 75 39
-25.2918 15.5726 10.8714 62 83 81
-23.9709 5.23099 13.363 72 109 109
-26.0836 11.0013 37.8223 42 62 67
-29.4606 -25.1602 -14.6652 30 68 13
-14.3495 26.3114 -6.752 22 1 0
-26.1976 16.1154 33.5163 14 33 17
-4.52994 35.3023 -13.1382 69 66 14
-16.4765 -2.18218 0.391933 70 44 16
-27.7408 -24.9857 -26.3245 33 61 20
-20.7671 16.2065 -27.3825 65 71 63
-5.84148 44.986 -6.64028 76 91 85
-16.0361 21.6582 -23.8213 79 80 0
-4.87608 14.4156 16.3825 73 63 3
5.53471 37.3401 0.573345 77 73 0
-16.4562 7.29839 -6.45568 76 48 19
-26.2785 11.2365 44.1037 41 69 73
-6.0883 38.6236 0.829161 72 69 0
-1.9996 12.2068 17.6834 68 68 3
21.0452 14.8215 -9.19645 71 62 20
-22.6891 -25.364 -5.67716 58 81 29
12.9688 22.3653 9.56736 72 65 0
-11.2886 21.8375 -23.0113 69 71 19
-16.1357 31.2037 -11.2014 38 18 0
-20.5559 41.3127 -9.53983 65 65 30
-15.6569 25.4312 -22.2358 71 79 51
-2.74537 1.99026 -28.2296 53 42 37
-3.44642 37.2603 -12.0462 71 69 13
11.9957 28.8612 4.64417 62 51 5
-20.7473 44.0461 -7.34556 72 81 70
1.60356 36.4823 -12.381 70 70 12
-14.9894 31.5423 5.52145 77 80 0
26.8606 3.83527 -16.7332 128 125 2
24.6731 7.33975 -14.1243 67 67 16
8.23565 43.5432 -8.39963 70 66 15
6.49204 15.5912 -27.4714 69 65 15
-24.2349 20.5901 25.4434 42 68 55
-24.1044 6.79006 34.1496 31 54 44
-28.6655 -25.7619 6.42959 57 86 30
-18.5881 -25.194 1.08305 58 76 23
-10.9622 42.3828 -0.978369 72 67 1
31.6498 -1.62752 7.52966 74 67 1
12.1614 -24.6654 -22.2143 43 55 24
-5.40776 24.997 -20.2283 68 60 11
-22.8518 -25.1916 -14.8745 42 70 25
8.83848 44.3968 -7.79867 70 65 16
27.2699 -25.326 -19.5324 17 30 14
-9.02464 12.7348 -30.2212 69 66 8
-20.7244 14.3939 15.1112 58 58 40
-25.8564 26.5754 15.7636 56 80 82
10.8067 41.977 -2.40611 79 75 8
-20.0115 29.26 4.62054 89 94 59
4.90671 38.1859 0.192593 74 70 1
-16.6978 -0.80619 -16.3396 76 45 21
-16.1041 20.1242 -4.47592 69 39 11
8.78774 36.2243 -14.9386 77 84 63
-11.0008 34.3127 3.62273 71 67 0
-25.4072 -21.1497 2.10087 93 106 92
-17.5728 40.9218 0.314514 69 69 8
1.02072 42.0847 -9.33141 69 67 15
1.59326 28.4082 6.07226 72 67 5
-28.999 -25.6858 4.89059 53 79 24
-16.0604 20.6531 -5.69464 66 36 16
-24.2184 17.0786 31.1315 35 55 41
-29.3941 -25.319 -4.20521 31 66 22
-25.1885 -25.2917 -7.80484 34 70 13
-7.97878 -25.3447 -28.4469 26 39 20
-20.3716 26.7598 -18.727 70 66 30
-26.3573 15.7512 42.8894 39 62 65
-23.9326 7.74274 26.2269 69 103 108
-23.5612 -19.1451 4.08434 15 20 11
-22.7594 -25.2967 -8.89856 27 64 27
-1.78988 38.8516 -11.1457 73 64 18
-26.0626 10.824 33.9814 34 59 58
32.6726 14.2543 -9.25732 73 72 17
4.93099 41.2123 -1.52322 77 75 4
-25.3735 22.5682 30.226 70 87 83
-16.3161 12.946 7.73643 64 53 22
7.6176 38.6672 -11.9834 94 90 2
25.1079 -26.0398 -18.6031 29 31 22
24.4827 11.8723 -11.1236 72 67 18
30.477 1.63467 -17.5276 78 77 16
-5.10792 44.9925 -7.14799 77 84 61
8.68347 16.9239 13.7983 72 70 2
-7.37012 17.0274 -26.8445 69 60 9
8.9471 39.0974 -13.5908 76 82 59
-14.6313 -22.6356 -17.4634 61 77 67
12.0826 -25.7383 -27.8714 34 43 19
-7.55738 36.8316 -12.3039 70 68 16
12.8265 -26.7826 16.8856 74 96 25
12.812 -24.2507 -22.4033 53 60 34
-3.50995 23.8493 -21.1184 67 61 13
-16.0259 24.2501 -9.56081 50 30 12
34.544 -23.1155 -23.2304 76 89 81
-9.59648 17.5352 -26.5124 70 64 12
1.91524 28.8618 5.65259 65 68 0
-0.83403 16.7103 14.5697 69 70 2
-17.172 20.1485 -24.518 68 68 4
11.4735 11.8511 17.2161 66 69 3
-7.65532 38.7266 0.874099 71 68 1
31.2404 -25.1571 -31.5487 36 48 26
-0.838791 18.2196 -25.6262 66 71 9
26.6696 -0.0855942 -19.0383 77 74 27
-14.2997 21.923 -24.7474 80 83 31
6.94908 42.3488 -9.09869 71 63 13
12.774 12.5166 16.6945 77 67 0
-17.4894 19.7061 -24.9231 69 69 8
-16.3384 43.7704 -8.29218 71 63 19
12.9896 -24.1659 -22.9387 53 64 42
-20.7469 39.2413 -10.2582 63 68 51
-2.08835 24.3074 -20.6687 66 63 15
29.5189 -25.9866 -29.703 45 58 25
-16.6422 -0.0352936 -20.381 74 46 22
6.5432 44.2808 -3.41406 81 74 9
17.1175 -25.7126 -28.9404 31 39 8
-16.6384 -0.0337524 -21.1744 79 57 33
-16.334 14.6227 -11.4057 51 33 15
-16.2419 17.5534 1.9476 69 41 6
-8.47138 20.541 -23.9917 68 62 14
30.2113 4.94655 -15.4065 73 62 3
-13.6429 40.0702 -10.5322 84 80 14
-23.21 -25.3541 -6.11837 52 78 20
-15.8248 28.6593 -17.2731 68 63 15
20.4368 1.84 -17.8844 75 73 22
-25.1027 19.887 35.8931 72 85 76
-18.935 23.429 8.27274 96 86 7
5.0364 35.7188 -12.7066 70 72 5
-15.9996 14.46 16.9039 82 79 5
0.76056 15.0876 15.6162 70 59 5
-13.8955 23.1288 -22.1145 81 76 15
-25.8575 5.39882 33.7052 16 30 13
4.45618 -27.0278 17.4426 52 70 41
-9.19622 41.7777 -9.52205 70 63 13
-23.9836 3.62146 32.1022 36 58 45
-16.6893 -1.68178 -15.9113 72 42 12
-16.1602 20.372 0.0280132 69 38 1
-25.8796 -9.60444 11.8328 54 77 73
0.484973 23.2489 9.87214 73 69 3
1.28992 -19.026 -24.1542 61 73 64
0.0347376 33.7249 -13.902 69 68 15
-16.4585 7.54948 0.0828943 69 43 14
33.1644 -25.626 -24.8242 54 65 37
26.7842 7.64355 -14.5597 86 83 9
-16.5736 -26.0145 9.8314 32 49 18
0.9478 33.3971 3.20155 71 72 0
-2.42997 40.2569 -10.3747 71 60 13
-23.586 -17.8672 5.37637 48 68 38
-29.3246 -25.7602 6.60581 50 79 27
-25.9912 -10.9292 17.5693 62 81 79
20.3138 15.8579 -8.48168 67 62 23
-16.5897 30.0052 -15.8633 73 77 17
22.6472 -2.04567 -20.4503 76 66 22
24.5813 -23.9585 -24.1564 57 52 28
-29.5307 -26.1091 16.2576 40 64 38
2.9436 25.816 7.88181 73 60 1
-23.056 -25.3914 -0.404513 59 76 28
-24.0789 11.0303 30.1798 61 93 96
-0.670795 42.4067 -1.80535 77 69 3
-21.091 -26.077 15.8624 83 111 42
-19.2365 44.3748 -5.11889 75 93 79
4.82497 27.0409 6.85316 73 62 4
-18.6761 -25.1895 -28.0395 30 62 29
23.0206 4.62363 -16.0113 76 64 17
-25.6115 0.424606 22.4648 57 78 78
9.72232 -26.7141 16.7746 72 94 12
7.71616 39.255 -11.0587 90 87 5
6.64593 29.9701 -15.623 72 69 18
0.64835 34.0354 2.88134 73 71 0
7.70282 44.0045 -8.11703 67 60 13
-15.8316 27.096 -18.6014 68 64 23
-16.4432 8.56413 -5.52846 68 43 11
31.5251 3.89497 3.99395 68 70 2
-24.1946 16.2546 12.1949 37 69 77
5.8112 20.0007 -23.8112 73 68 14
21.6457 2.56203 -17.4136 74 70 18
-20.6462 -25.2591 -13.6159 64 81 20
3.76608 16.9772 -26.4561 70 59 13
-24.3721 19.363 32.5387 68 99 101
35.6862 -25.7464 -28.904 82 107 40
-16.6548 1.89089 -16.328 72 49 24
-15.7383 -25.2865 -27.5586 42 66 29
-16.41 -17.9713 -20.0326 54 37 19
-1.93825 24.5051 9.16005 70 66 0
15.1072 -23.3708 -23.1844 48 51 31
-16.3603 0.515923 9.34367 63 40 18
-4.55405 13.0615 -29.8551 71 64 6
13.0665 37.4365 -11.4496 69 63 5
-16.3501 12.6133 0.243099 46 29 11
-26.3174 -25.408 -0.527813 50 78 33
31.2409 -25.6611 -25.7354 56 63 21
-20.8307 -25.5047 -1.37508 61 81 22
-25.3865 -5.05119 21.7041 68 87 88
-4.03818 20.7037 -23.6852 67 65 11
-1.82141 1.55855 -28.2997 63 71 65
-28.2344 -25.4369 -0.955872 38 69 27
-25.0313 -26.1609 16.9504 63 90 42
13.0623 38.941 -10.693 68 60 2
-4.18388 28.6348 -16.8909 60 55 12
-25.9471 24.5633 15.3882 57 83 90
-8.99821 44.7913 -7.53553 59 53 27
-16.3557 13.2114 2.5647 51 39 16
20.5781 9.81538 -12.5557 75 71 20
18.4069 -24.1122 -27.2755 42 49 23
-10.5019 28.3369 -17.4716 63 59 15
2.45766 -26.734 17.1391 79 96 31
-29.2881 -25.9429 13.3135 55 92 34
-16.2537 -24.5538 -21.1334 60 40 17
-24.1834 -25.062 -29.1151 24 56 21
7.64787 43.1786 -8.60965 69 63 15
-16.6432 18.3871 -26.0203 67 60 9
-30.849 -25.9089 12.6981 44 74 32
-12.2474 -25.7299 0.481945 64 87 44
-16.4103 12.8286 -8.32878 66 58 27
28.0703 3.86017 -18.6021 80 92 57
-19.3259 13.7873 15.119 96 69 3
0.676979 26.1001 7.85 72 60 2
-25.4871 -25.2992 -6.81858 35 67 26
12.0387 -24.7559 -22.8791 44 59 26
-14.6118 30.4466 -15.7008 74 65 19
-10.9659 34.0076 -13.8539 70 65 19
-0.617971 27.4601 -17.8967 67 62 12
-27.8222 -26.0586 16.1889 52 90 35
-16.3846 12.2066 -5.56111 47 30 16
-24.223 -25.2544 -10.4217 34 66 14
-20.6645 40.2401 0.343906 75 83 74
-0.414545 -25.7955 -28.7113 32 46 21
-19.3947 -25.5519 -0.472736 55 74 29
-17.9523 14.1234 14.7235 94 71 2
-2.78568 28.9847 5.87694 68 64 0
-9.97228 44.3805 -7.93699 68 59 12
-20.3924 15.3625 -28.6025 66 63 16
-16.8014 -25.3892 -10.3759 56 77 22
10.3563 16.816 -26.3215 72 64 21
-16.4388 10.5949 4.08176 47 27 10
-24.7819 -25.2395 -11.307 35 66 21
7.47762 25.3761 8.5168 102 102 5
-24.5231 16.779 42.9437 57 89 94
-4.40996 19.5502 12.7793 75 70 4
-6.48086 27.4091 7.38947 73 61 0
32.5197 -26.4622 -19.4027 59 75 40
-26.115 17.63 22.2223 40 59 37
3.60991 35.1885 1.97491 75 70 0
9.55917 44.4014 -3.70376 83 77 11
4.62657 12.1381 -29.9549 69 61 23
8.16843 -26.623 16.7221 83 106 16
-0.432373 36.3367 -12.5026 70 69 13
-16.5793 2.04419 -11.6797 73 49 21
-16.4858 6.76642 5.05792 64 38 14
-26.1324 20.0551 19.2146 50 79 85
-16.8444 45.7512 -2.65199 74 67 3
-24.2267 18.0496 28.7115 32 62 41
15.427 -24.1883 -26.4343 43 50 28
-20.8881 17.7417 13.6119 54 65 58
5.67686 26.5456 -18.3204 68 63 19
-16.8991 35.7465 -12.7373 78 73 2
-14.1287 24.4242 -6.11878 5 0 3
1.54199 20.1788 11.9705 73 69 1
2.96894 16.6194 -26.8022 68 65 8
-16.167 19.1252 -1.55712 67 37 7
-25.6964 15.0822 12.4553 40 68 65
-25.867 5.88776 32.4204 18 35 17
8.1051 33.0496 2.67336 79 73 0
-9.59528 22.0932 11.2871 73 75 0
25.3837 -24.0766 -24.1626 64 52 24
-16.4078 7.09538 -21.2263 81 58 33
33.2853 -11.2104 -24.023 81 104 95
-23.2182 -24.841 0.119567 40 53 17
-17.6059 -24.9624 6.25602 36 52 24
6.93779 32.9695 2.857 76 69 0
-0.451747 21.4689 11.1948 72 73 3
-2.63628 14.4301 16.2566 70 65 4
-12.837 35.5286 -12.9475 71 72 18
-24.0917 20.4853 17.9931 80 112 116
-17.5804 42.9466 -0.800042 70 69 9
-11.8762 30.2886 -15.779 70 72 18
-7.52849 29.2269 5.97799 66 66 0
-16.1392 -6.67236 7.40523 63 37 11
-24.5857 19.1076 12.7911 81 111 109
-10.2944 25.7908 -19.6956 68 61 14
33.4396 -14.7652 -23.2501 63 76 70
-16.4923 -1.5524 3.96331 65 36 9
-14.8897 -26.2339 11.6757 67 85 74
-1.58312 14.1704 16.3704 68 59 3
-22.6512 -23.1776 6.38223 63 80 31
-11.6006 34.7682 -13.4204 71 69 16
-25.7628 5.37091 17.4012 48 74 77
-26.3027 14.6844 42.4661 16 34 20
23.5895 -26.1584 -28.8337 45 58 21
-24.4043 18.2854 36.7007 73 102 110
-20.6935 18.2304 12.2636 66 73 38
-23.2681 -24.1739 0.565681 12 8 0
8.35823 25.0949 10.8622 68 80 69
-12.7676 39.0551 -10.9952 73 70 12
-19.4648 17.3317 12.6097 97 92 1
11.5937 23.7536 -20.2697 72 69 25
24.05 -28.0048 -31.3065 59 68 67
7.39559 24.1212 10.4135 96 99 4
-18.8613 -26.3062 17.3908 76 102 63
-16.153 16.1065 -20.0395 42 25 9
-10.5799 26.0589 8.54356 77 68 1
-17.2964 -25.348 -17.2588 55 73 31
-17.7624 -25.3096 -15.5044 54 75 30
-23.9384 -2.17245 14.3509 72 93 86
1.90475 -13.6733 -25.0779 66 42 20
-13.4978 -22.0577 4.6619 16 1 8
12.6264 41.7465 -9.27787 68 64 9
2.69053 41.1199 -9.85237 72 67 13
-1.22214 30.2912 -15.6871 71 73 16
-25.7498 22.8015 12.4432 54 73 71
0.946953 37.2376 1.04055 73 69 0
-22.2705 -26.1447 16.6074 82 111 44
-16.2478 17.514 3.83443 64 42 2
-16.4683 3.84033 -3.97699 68 38 5
21.34 12.6286 -10.7214 72 67 19
-25.7157 -2.03648 19.8885 38 30 13
7.42146 26.0423 7.39113 93 90 29
-26.2714 12.7396 41.7811 43 69 77
-29.9571 -25.0762 -19.3857 22 63 16
20.1598 8.7401 -13.2105 74 63 18
-14.66 24.9538 -4.41921 19 0 0
-26.2338 22.6809 24.9321 27 53 36
20.8601 -26.57 -30.1621 29 51 16
31.7097 -2.11764 7.8522 76 67 0
-14.6584 23.7803 -23.7279 68 76 69
-24.1227 8.92247 32.7245 29 57 44
3.60139 36.7977 -12.1717 72 68 14
9.54976 15.079 15.0839 71 62 0
-16.3855 12.1988 -2.48808 43 28 14
-29.9278 -25.419 -0.931262 32 67 24
-9.25538 44.622 -7.74322 64 58 11
-16.4507 6.15615 -11.9675 69 41 17
-0.486069 15.8529 15.1408 68 64 3
25.8536 9.55909 -12.595 66 59 17
32.6361 12.0038 -10.7551 76 72 11
-16.2465 17.746 -9.52802 66 36 3
-26.3309 16.5341 40.8778 35 63 63
-19.5325 33.992 -13.692 71 72 19
-23.9762 12.0774 23.4963 71 105 109
-17.1918 18.6701 -25.8183 68 67 11
-19.1465 45.2916 -4.17303 60 74 67
20.2886 -23.3301 -23.7613 52 53 28
-7.31774 44.3501 -7.9801 68 58 13
30.282 -24.994 -22.5418 51 53 33
0.670906 27.3132 -17.9675 64 57 11
-11.3427 33.8467 3.9164 74 70 0
-5.75049 29.8043 -15.9247 73 67 18
-16.4325 2.79699 -5.66087 71 36 9
32.5802 -25.5216 -24.4481 69 77 52
-0.25145 18.9024 -25.0384 69 69 10
-16.5113 1.4571 -10.1745 77 67 54
-20.4262 34.3689 1.87204 81 68 8
6.47317 26.9907 -17.8727 71 58 22
17.5151 9.13586 -13.0118 76 76 21
35.2204 -25.7642 -27.8119 77 101 45
-29.3756 -25.248 -28.8081 45 61 50
-24.0325 18.0261 14.0682 79 112 121
5.22338 24.254 -20.2918 71 69 2
-26.1197 22.2791 16.0581 39 59 55
21.3575 13.0802 -10.3928 72 68 19
-16.4653 7.51014 4.9573 65 39 14
-23.104 -25.5005 8.14084 53 53 32
-16.5425 3.8632 -20.1286 76 47 22
3.45201 35.5291 1.7983 74 71 1
-16.5395 -8.22153 -21.6607 75 53 28
-24.2525 10.5626 34.543 52 84 91
-23.965 -14.1161 10.6375 73 102 86
-9.70229 -25.6183 -6.07868 42 64 23
-28.9205 -25.0211 -22.4575 25 61 24
-17.5406 25.7031 -19.7677 69 63 6
0.571793 40.8178 -0.962591 76 73 4
-16.3527 14.0856 -1.35406 62 37 21
7.6069 36.4246 -12.5905 95 94 0
7.49851 25.6986 7.90288 95 96 6
32.8933 16.4464 -3.83149 82 75 14
-24.8573 -22.214 1.60681 89 105 86
33.2484 -19.8456 -18.6499 79 98 88
-17.2094 19.9506 13.0968 83 84 8
-16.2609 16.3427 1.20373 46 28 13
7.80841 -26.6182 16.7895 82 107 12
24.6149 10.0366 -12.3374 69 66 19
-23.2246 -25.0535 -27.2581 30 58 24
-17.4188 38.5204 1.66898 73 68 4
-18.8035 17.7366 12.2958 98 90 3
-16.3668 10.1104 -14.1193 57 65 36
7.59444 24.101 11.399 72 78 62
-20.0149 45.1376 -1.92435 78 70 7
-19.9114 20.6335 12.7624 80 86 13
-16.0646 -25.3891 -9.68229 41 68 18
-25.9534 -22.8704 14.2656 58 79 50
-16.3378 44.7125 -4.63083 68 80 73
-25.7231 0.0965958 17.0592 49 79 78
2.66105 37.3179 0.864759 73 70 0
-6.37413 40.4821 -10.2761 69 66 14
-16.6716 -2.13889 -16.0903 68 44 19
7.49393 23.3602 11.7598 81 81 35
-25.743 -4.18346 14.6845 58 83 84
-22.1208 -25.1791 -17.9312 36 65 25
25.3153 -25.9839 -29.0349 21 54 18
5.7093 31.2564 -15.0494 70 72 16
-9.13189 18.1253 -26.0213 67 61 12
-25.4251 18.5403 40.4223 63 77 71
-19.3399 28.9503 4.73512 91 84 3
1.34679 -15.3235 -24.9764 70 58 44
-26.024 -25.1585 5.38559 39 33 6
0.338963 14.0986 -28.9147 70 63 12
-22.0472 -24.9508 8.21729 46 60 29
32.2961 -1.46059 7.39471 73 69 3
-16.0928 -8.32672 7.59781 62 37 16
-14.0784 23.6193 -5.59775 7 3 2
1.43297 34.1577 -13.6457 73 65 17
-24.3708 28.7518 17.1935 69 100 100
-28.3833 -25.0127 -23.0189 24 60 21
-26.2305 13.7339 38.8797 25 51 35
-27.907 -25.2945 -6.7919 23 64 23
-19.8608 29.7836 4.43113 81 80 12
-21.9646 -25.4261 -2.98687 62 83 28
-20.7698 18.1871 -26.0024 69 79 46
-27.4456 -25.3057 -6.38941 27 66 23
4.59236 44.6191 -6.11979 81 96 93
5.3076 20.8899 -23.119 75 72 0
4.90454 39.5171 -10.6515 73 70 2
-5.04463 29.5207 5.37281 66 67 38
-20.7435 29.3607 4.6567 70 74 61
33.2514 -21.2352 -18.7283 73 90 81
30.117 -25.8981 -29.4197 55 68 19
-16.4794 3.7522 -2.93797 69 33 8
-4.50824 44.5865 -5.21267 75 90 82
-16.2125 19.0647 0.33041 68 37 10
-16.1294 30.1045 -11.9013 45 25 3
-21.587 -25.11 -27.8487 26 60 24
-6.36116 36.0633 -12.7201 69 72 13
3.28841 22.4104 10.2459 74 73 1
-5.41811 32.1007 -14.8838 70 63 16
-11.605 19.9499 -24.5804 71 61 15
-1.86053 15.1585 -28.1631 71 61 9
-21.7587 -25.8094 11.2717 81 107 53
-25.1424 -25.0209 -27.1712 30 56 19
32.0481 2.92152 4.59747 68 67 3
6.39952 44.069 -8.07284 67 61 16
-25.9366 9.18693 24.0791 47 73 79
-18.25 44.7809 -1.82207 72 66 7
-7.9722 44.7422 -7.62166 61 53 19
-9.13988 21.1633 -23.5234 68 68 15
-24.2217 24.3428 19.5138 66 105 107
-24.1344 18.4354 25.5595 35 72 53
-19.8574 31.6249 5.82457 81 78 0
28.48 16.9176 -4.23397 88 83 20
-25.736 -25.2061 -12.4073 29 66 25
-25.5784 26.7059 25.6676 59 72 67
-24.2532 19.8538 28.1159 37 62 44
-14.2276 20.6237 -24.2871 86 86 11
-11.1193 -25.4102 -16.8616 33 55 18
-16.3003 8.72712 -21.0738 81 58 32
-15.0776 37.3589 2.90108 63 72 61
-21.0568 -25.3897 -5.66868 51 74 23
-10.8413 -25.4311 -15.626 44 62 9
-16.5606 2.07289 1.90735 67 41 14
-16.4733 5.78262 -17.8788 72 44 19
-7.18464 22.155 11.1224 75 74 1
0.00924683 -26.7607 17.2778 80 107 42
4.40654 -21.2613 -24.9916 45 30 13
-19.3351 17.124 -27.205 65 64 7
-24.1657 -25.2263 -0.467682 38 46 20
-26.232 12.35 46.8914 32 54 50
-26.1806 24.08 24.8166 36 62 54
-24.0413 16.6334 22.8628 79 112 118
-26.0862 -24.2854 6.40234 40 35 8
20.5536 -23.4622 -25.3505 62 48 27
3.12951 22.8509 9.95896 75 71 2
4.74269 44.9083 -6.68174 80 95 90
-16.6848 -0.51403 -15.725 71 40 17
32.7831 16.5525 -4.78462 83 93 80
-1.81112 30.9709 -15.3825 69 66 12
-16.3948 -15.4146 -20.6774 54 39 16
-20.6193 42.6274 -2.09924 74 82 74
28.0042 8.44861 -14.12 67 65 42
27.7837 14.8179 -2.57113 78 73 10
5.52389 38.048 -11.4671 76 74 1
-2.50364 1.70691 -28.3606 69 74 63
-26.0015 -17.6487 14.7884 59 79 67
-16.2789 17.2748 0.0798472 70 55 5
-12.1271 32.0296 5.00784 74 77 0
-26.0109 26.0507 16.8628 57 78 84
26.7977 4.07562 -17.5813 127 126 31
-12.8352 18.074 -26.1858 68 60 13
6.70299 24.8767 8.16967 86 77 7
-15.934 29.3054 -8.72783 51 50 43
-13.9978 24.7545 11.1158 75 80 42
-24.0778 9.07354 31.2868 58 90 91
-27.2665 -25.644 3.23746 51 79 22
22.0665 12.9665 -10.4397 70 67 16
-17.3472 42.0479 -0.333197 69 65 6
24.3539 0.404335 -18.8697 76 74 24
27.9369 -25.7854 -18.0555 16 22 12
-24.3393 14.4339 38.893 60 90 91
33.2499 -19.3389 -21.1243 74 97 68
-16.5908 4.15532 -16.5927 74 48 23
-16.498 5.09793 -20.6756 77 51 26
1.63316 37.0131 -12.0967 72 70 12
20.9368 -23.5516 -22.971 50 54 22
13.572 37.0814 -11.6305 67 60 8
2.37301 -26.4682 -30.0926 43 66 42
-5.67892 17.4171 -26.4771 67 56 9
-17.1659 14.3394 -29.417 66 64 6
-24.077 4.4516 33.2687 32 49 35
-25.976 -20.3176 4.91203 51 70 31
-16.857 23.821 -21.3326 76 72 0
31.658 -25.7616 -27.7911 55 75 16
-16.4814 5.21822 -1.45744 69 41 14
13.4415 -26.9829 17.4741 53 66 40
-16.3221 12.346 7.3482 47 31 13
7.39463 21.1705 -22.582 83 79 3
-26.148 27.0775 20.0483 46 77 79
-20.7297 22.9205 -21.3561 59 67 54
24.4364 14.3068 -9.51309 71 62 20
9.53542 25.7521 -18.6566 71 59 25
-7.16241 19.591 -24.7539 65 64 11
-21.242 -25.2127 -29.3558 25 51 18
-11.1142 27.3013 -18.4369 68 60 14
36.3886 -25.8388 -29.9133 79 104 44
20.8557 13.8818 -9.85043 71 65 18
-12.14 31.8396 -14.9937 70 74 17
-4.69776 44.7638 -7.61121 59 53 16
5.50097 35.4371 1.67151 74 75 4
10.2643 21.9312 -21.7975 76 74 15
11.5973 28.643 5.00741 63 48 4
33.0362 6.3541 2.42269 72 66 2
1.35072 13.1815 -29.5563 73 71 14
3.75343 30.9074 4.17996 74 61 1
7.35929 22.1053 11.6582 74 73 2
11.0586 16.9862 -26.1509 73 63 21
-18.3816 -25.2741 -17.2551 58 77 31
-0.387367 41.3064 -9.77634 71 65 9
32.0934 0.0207214 6.44197 73 75 1
11.4053 25.5214 -18.6865 73 60 24
-11.5795 -25.7114 -1.15096 86 105 61
7.54624 42.7277 -8.87543 72 65 14
-10.9236 42.7144 -8.96018 71 61 15
-23.94 10.1541 25.1381 72 104 112
-16.2984 13.9647 -15.8638 59 34 17
-27.3631 -25.5715 1.58498 51 80 28
-25.3116 -5.43743 12.7313 99 116 113
-25.9517 -12.0895 11.6182 54 77 71
-20.6464 30.8026 -13.6458 41 47 34
7.84801 40.8104 -10.0197 71 65 20
-27.4713 -25.736 5.98667 61 87 28
-14.1277 31.0753 -15.4032 72 72 16
-18.6821 45.9607 -2.8096 78 75 28
-8.14956 37.8895 1.39321 74 71 0
-13.9659 23.5853 -7.45427 12 6 3
7.55389 22.2443 12.7624 72 79 52
15.5228 -23.2165 -22.7083 51 47 33
-20.6947 14.8583 -28.2198 64 69 59
-24.5657 13.3829 46.6513 44 63 53
-20.6437 38.8738 -9.24671 57 48 18
-22.9696 -25.6917 9.56582 80 99 54
-20.6657 44.0068 -2.13006 77 86 81
-24.4587 19.0527 37.6836 66 87 86
30.4278 -25.2835 -18.9984 30 24 29
-21.6472 -22.4005 2.97156 3 4 11
-0.952288 35.9496 -12.7156 71 69 11
-25.1229 -18.4554 4.03356 97 118 98
1.03644 40.3442 -0.730337 74 78 4
-11.6126 -25.5668 -26.6034 68 57 44
7.82562 40.4943 -11.4417 83 80 1
-14.1249 23.1452 -4.92341 14 5 0
5.01577 12.9842 -29.5749 69 62 7
-16.3993 10.0448 1.37952 55 50 29
0.917732 41.509 -1.39623 73 74 2
-25.7914 2.31987 25.3778 52 74 76
-26.1986 22.9873 29.7402 60 76 76
-20.699 15.5563 14.1941 58 61 35
-18.338 20.2324 -24.4654 69 67 12
-16.4262 8.97432 0.054183 68 41 16
7.08479 16.8867 13.9398 73 61 1
-7.55868 16.0284 15.4018 76 67 3
-26.0898 19.7453 33.3812 51 77 84
19.3562 4.47788 -16.0647 78 65 19
-13.2141 -25.6858 -25.6986 48 48 29
7.69421 34.4671 -13.9245 98 97 0
8.09818 34.5261 3.02031 89 84 9
-16.2089 18.4891 -5.8877 67 39 1
-23.9244 2.84447 28.9852 71 100 107
-18.0655 35.5889 -12.8413 74 74 2
39.0978 -25.8483 -25.6559 66 85 32
14.9023 -23.3063 -21.9029 58 67 40
-15.9606 28.0332 -1.93873 58 45 19
-25.9778 -22.2943 3.8968 48 67 22
32.1166 16.3741 -6.32912 82 96 89
-16.6768 1.04591 -17.5639 71 43 18
6.73241 27.1494 -17.7227 71 60 25
25.6429 16.7789 -4.84999 81 93 77
-26.4067 -25.8825 10.0139 62 88 14
8.82669 14.4848 15.5584 69 69 1
-25.5443 -9.35588 9.97358 86 102 94
-12.8194 28.6947 -17.1838 65 60 14
2.26901 13.722 -29.1336 72 73 7
-16.114 -25.6269 -0.431554 60 82 16
-16.3192 13.6034 -15.7401 61 42 22
-16.8537 -26.2422 16.5381 88 117 44
11.2415 28.8732 4.71222 61 50 6
-16.3915 10.9637 0.791765 42 30 17
-26.4318 -25.9516 10.9623 67 95 28
8.6302 44.7596 -4.80076 84 93 81
9.65065 14.4997 15.4905 70 64 2
-25.7605 4.25476 18.6946 51 75 80
4.6821 27.9429 6.19497 70 60 1
-18.4919 14.5042 -29.3615 67 60 13
-6.92985 40.1779 0.00227165 73 78 0
-13.8937 37.8331 2.01825 101 104 4
-25.9254 -9.86684 20.222 66 81 83
-5.3349 20.7676 -23.6952 71 59 15
-8.70714 39.6203 0.446737 68 72 0
-14.2806 38.1888 -13.8135 80 86 58
10.1437 12.4419 16.8953 63 61 0
27.7797 14.4469 -9.35633 71 68 19
6.55066 22.6418 9.74616 82 75 6
-20.9767 -25.1672 0.46801 49 67 19
-25.9045 28.9291 18.9686 64 78 71
-11.7216 26.636 -19.0134 67 61 15
28.5401 -26.396 -30.0708 59 75 42
13.4216 19.0411 -24.2632 74 68 23
3.02391 38.597 -11.2052 70 67 12
-11.3999 42.295 -9.20072 70 61 10
21.1853 -24.7164 -20.7003 55 57 29
-15.8608 45.5481 -3.83728 69 82 74
0.199242 40.0289 -10.4714 71 69 11
-18.9773 24.1609 10.2742 87 85 10
-19.9958 13.394 17.8149 87 78 25
6.21137 37.8671 0.198658 76 69 0
-26.0507 12.8255 27.1145 30 45 7
8.48346 39.9931 1.67356 66 78 66
-16.3472 9.82986 -15.8943 72 80 36
28.2725 16.7407 -6.69651 87 97 90
-1.36226 22.6387 -22.0022 66 69 12
-25.7882 -4.61246 14.0114 57 80 81
-20.6768 43.6639 -6.303 60 51 25
-7.03661 20.5751 12.2077 72 73 2
-25.8457 -11.1979 10.1366 57 78 71
-16.155 15.2621 -20.7797 46 27 13
-13.7373 44.3598 -7.93218 70 61 8
20.8024 15.0952 -9.01419 68 62 20
28.2118 14.1647 -2.17182 77 73 9
-3.76577 41.2901 -9.79127 72 70 13
-6.08067 18.972 -25.2116 68 65 10
-16.644 3.02418 -15.2234 70 41 15
9.29274 17.8081 -25.5415 75 65 21
-13.7602 -25.4107 -10.3258 42 67 21
-23.9437 10.3072 17.483 25 75 52
-17.7913 14.7454 14.2754 94 73 0
-16.3875 -15.8416 -20.2433 56 39 20
5.19493 31.3208 -15.0419 72 68 15
2.19396 36.1346 -12.5582 71 70 15
-17.2634 41.493 -0.0164127 70 67 7
-24.9502 -25.0347 -25.1156 38 67 23
-11.3961 29.8558 -15.9368 70 68 22
-16.6508 2.29659 -15.3841 68 40 14
31.535 -25.7993 -28.5138 64 84 14
-0.293289 14.6162 15.9898 70 58 4
-22.1081 -25.0734 -26.7869 29 59 26
-16.2638 5.46102 10.4572 56 35 17
-16.3531 12.2728 -4.08534 49 34 19
-16.6633 1.11377 -18.3299 70 42 18
-16.6648 -2.57661 -14.2276 71 45 17
-24.2459 19.251 29.4531 34 60 41
-9.5135 -25.6315 -6.79325 44 67 25
32.3902 16.1526 -5.69429 82 101 95
-26.0746 23.5909 16.6283 44 65 64
-16.3781 11.9703 0.639834 42 31 16
0.494221 31.9313 -14.8439 70 70 15
-8.25765 41.288 -9.81217 69 69 15
12.1182 44.2916 -3.84348 84 77 13
-27.4949 -25.3982 -2.19287 39 70 28
7.82451 40.6016 -12.1012 77 79 31
-16.1099 -19.3537 9.46703 36 24 5
0.390888 32.5166 3.73014 73 70 0
4.0224 38.8247 -11.0529 75 63 12
19.208 14.5955 -9.39965 74 62 20
-26.1596 8.56788 42.5789 38 65 67
-25.9704 -8.15954 19.0693 62 80 81
33.1637 9.58329 -12.0156 80 75 6
-26.0268 5.60316 44.9149 39 66 66
11.2491 -27.1739 17.5431 59 76 52
-19.5272 42.0533 -0.137096 67 63 7
-24.3416 25.1861 22.6625 47 79 80
-20.593 44.7024 -3.27586 70 82 77
-19.0457 -25.3398 0.793877 55 74 21
1.45319 21.2507 -23.0342 70 69 10
-16.1023 -25.6352 0.871122 69 90 29
-23.2606 -23.2643 1.18754 8 3 0
6.66452 20.6118 -23.1825 79 73 0
-22.8175 -25.9122 11.0425 87 110 49
7.75708 25.5452 10.3764 71 80 65
13.0126 34.1357 1.7162 73 69 1
15.4542 -23.2705 -23.0393 51 47 33
3.14691 15.4045 -27.77 70 68 12
-16.4846 5.66809 2.33511 66 39 13
12.2079 -24.6454 -23.4162 51 61 34
26.4935 -24.3794 -25.063 50 48 26
-10.5328 14.4084 16.669 73 74 1
-25.9788 -16.889 8.74435 52 75 54
-9.66824 19.2647 13.2522 77 73 2
-16.527 4.5424 -14.7788 69 41 13
9.99994 32.7238 -14.0063 75 72 15
-14.2819 -25.3672 -15.8149 40 60 21
4.89009 20.6849 -23.2971 74 67 6
-1.05482 44.4635 -3.01857 81 76 8
-5.33036 17.9267 13.9686 72 61 1
32.4141 -2.08945 -19.2995 73 87 31
-11.1659 28.05 -17.7792 66 59 16
4.0052 14.2319 -28.6794 71 63 6
-17.5685 2.3502 -2.02207 69 57 40
30.7425 -25.4636 -31.2883 32 48 24
-16.3511 12.3699 -10.3908 50 37 11
-14.286 13.6699 -29.8058 69 64 8
-18.3578 -25.2771 -16.3803 52 72 30
1.15577 18.2097 -25.547 69 65 8
-25.5203 -25.3103 -5.17453 51 78 43
-4.07579 30.9564 -15.4323 71 65 14
-24.0912 15.9544 25.4419 50 80 46
-20.8855 15.5735 15.0843 46 53 41
4.31045 40.6827 -10.0473 71 63 9
-26.1425 20.7473 20.4112 51 78 86
-0.551754 25.7245 8.20984 72 66 1
-20.5988 27.5427 -17.1432 69 78 66
21.0641 4.56915 -16.0282 76 62 20
-11.4595 34.8098 3.35524 74 70 0
-5.30343 42.5664 -9.07584 71 68 13
7.55935 25.4326 -21.7285 88 91 14
-30.5607 -25.2696 -8.39372 25 68 15
-17.9062 2.49232 -4.25459 59 34 15
-19.6177 35.2714 1.31214 83 63 1
-0.50312 37.5967 -11.8125 70 68 13
37.2924 -25.8127 -24.8363 78 98 35
-17.2118 31.2336 -15.3018 72 72 17
12.5907 35.8158 -12.2851 71 67 3
-5.45377 38.7978 0.667046 73 65 6
-16.1132 21.1869 2.6202 70 39 3
0.963108 32.0509 3.91443 71 71 0
7.10946 21.648 -22.2832 78 76 1
27.5959 -25.8628 -18.3056 11 15 10
-25.9714 -17.2478 8.01641 53 76 51
25.0333 -1.48168 -20.0713 78 67 23
-24.0998 20.9334 14.6798 85 116 118
2.43367 13.258 16.767 68 67 4
-16.4669 7.35741 -9.65015 69 40 9
-16.2051 14.9174 -19.3697 51 31 14
8.2258 37.9477 2.65214 63 77 66
-6.02081 33.1479 3.90598 72 70 0
-26.0119 -25.7599 14.7574 55 77 33
-30.8438 -25.6023 3.75496 50 81 26
1.12997 12.8157 17.1235 65 62 2
-24.318 15.5897 37.4126 53 79 81
9.16241 40.5067 -12.5422 88 94 54
-18.9183 1.78617 -3.01443 68 80 73
-16.4266 -12.864 -20.6803 71 45 20
-26.2925 16.9611 39.3898 30 57 55
-25.6549 -0.761803 23.223 58 77 80
-9.47967 44.8483 -2.53352 76 66 0
-20.8784 22.1485 10.9551 59 67 54
15.2541 -25.6553 -27.5261 42 50 24
12.566 43.346 -8.38653 70 65 11
6.13896 31.4708 -14.9249 72 72 16
-15.8884 26.3759 -19.3014 69 66 17
-18.6497 -25.5397 0.46241 63 78 18
31.8564 11.2066 -11.329 75 71 4
-13.2891 -25.4696 -9.70645 50 75 11
29.8296 0.178955 -18.4355 76 75 17
26.2609 16.0514 -8.25473 70 61 23
-10.5891 29.5939 -16.0567 71 74 25
4.84084 33.7004 2.66271 76 67 2
4.95074 12.6556 -29.7962 67 59 9
-16.3605 12.6168 3.70567 46 30 10
37.8119 -25.846 -23.8561 85 104 33
14.0146 -23.6734 -22.2021 57 65 41
-17.7287 -25.3665 -9.98801 58 75 24
-24.302 17.7209 33.1147 71 92 99
27.504 16.7449 -4.80255 82 91 82
-15.9609 25.1613 0.352305 48 23 2
-25.683 -0.911804 17.1718 51 75 79
-10.7294 37.0139 2.0282 73 73 2
22.7783 1.19664 -18.3192 73 69 18
-11.5401 42.3761 -0.947202 72 66 0
-17.9768 39.5781 1.13165 71 66 4
-24.0149 10.6836 27.896 65 97 102
-12.9766 44.5319 -5.71143 89 100 92
-9.92783 18.7458 -25.5275 64 64 9
7.49413 14.4203 -28.43 69 66 11
28.5758 -3.31775 -20.4091 78 73 32
-27.2703 -25.7807 6.6593 68 87 35
-10.8505 31.205 -15.3474 70 71 18
-16.4916 3.81812 -0.760211 68 37 13
-18.1843 -25.314 -21.389 48 75 36
-10.5301 40.6896 -10.1304 71 60 12
-16.4688 -2.60214 2.84589 69 46 21
-20.3109 43.9072 -1.21261 77 70 11
-16.0678 -12.7887 7.41499 60 34 9
-15.4276 42.6959 -8.9137 70 65 19
-16.0964 -20.4086 9.22425 40 26 4
8.61868 -26.666 16.9791 74 95 21
-7.95458 26.9109 -18.6947 66 56 15
7.80821 22.5152 -24.9016 73 79 62
-26.1192 27.588 23.5133 60 78 77
-18.4416 -25.3102 -12.2666 47 69 26
4.98343 33.92 -13.6685 72 67 14
-25.7487 1.51757 25.3394 54 74 75
-25.6007 -5.94538 21.7626 64 82 84
-24.4792 14.868 42.8007 31 51 37
-24.2509 22.1435 25.0234 58 86 87
7.04409 43.2395 -2.83543 78 73 7
11.9763 -24.7974 -23.2095 44 60 29
-16.3407 6.90582 -14.9843 71 42 18
-14.7421 -25.3059 -28.5684 57 69 31
-6.38014 31.1794 4.91881 74 67 2
-8.38025 32.8421 4.25393 75 74 1
0.792145 23.5722 9.61084 72 68 2
-25.5598 -0.706284 24.745 63 74 79
-15.1509 40.0058 1.8257 62 71 59
1.47098 15.1642 15.5144 69 65 3
-12.9174 29.8457 -15.9223 71 69 16
22.5527 -0.469688 -19.4475 76 68 20
-3.40222 12.4546 -30.1548 71 64 6
-3.48124 38.3524 -11.4207 70 68 14
-26.097 14.3211 25.374 15 46 13
-16.3 10.4054 -16.2397 49 37 26
27.7397 14.9211 -9.01875 69 68 18
5.28009 37.6788 0.411282 75 74 3
-24.1362 22.9153 14.3378 71 97 95
29.4243 7.81004 -13.53 74 68 25
-15.7002 22.3873 -4.77864 49 28 18
-23.9043 7.50079 23.237 74 108 114
1.13656 20.7487 -23.455 69 64 15
-14.873 19.5889 13.1761 79 81 27
-20.6305 41.5421 -7.20363 62 48 1
-16.4969 2.98949 -0.667044 65 39 16
30.1425 7.95757 -13.4015 75 71 18
32.7844 -25.7672 -27.2253 42 65 5
-21.3977 -25.9627 14.2403 81 110 50
-16.2213 18.1962 -3.17524 69 41 7
-20.8722 13.5462 16.4347 49 55 50
16.8155 -24.6843 -27.8554 37 45 15
-8.14615 40.7796 -10.0902 72 66 17
13.0587 31.992 2.86082 71 59 1
-16.2383 14.2747 -18.5399 52 32 19
18.2637 15.4399 -8.83526 71 66 18
-12.8195 -21.7833 3.64959 47 36 9
-6.15751 43.2215 -1.83991 74 69 5
-16.3645 12.5288 -14.4423 69 58 24
-16.5484 1.81411 4.14117 63 36 12
24.1267 -1.89469 -20.3509 78 70 26
-16.3182 13.6831 -12.9506 61 41 17
-16.4492 -3.67609 0.17245 72 45 16
19.4002 3.09344 -17.0205 75 70 18
-16.4018 10.3672 -13.0756 48 38 25
-17.5691 -25.4352 -7.08272 52 76 20
-16.7214 -24.9813 5.02146 8 10 4
-10.8413 26.7734 -18.8783 68 59 13
-16.414 -14.3384 -22.593 73 48 25
19.0935 5.05654 -15.6656 76 61 16
34.6065 -8.07378 -22.156 68 75 71
9.2289 26.9069 -20.1372 64 66 38
-24.6884 -8.48275 10.8085 84 99 88
4.32418 12.6642 -29.8416 72 65 14
-4.78827 13.6698 -29.4247 70 63 7
24.1273 -28.127 -31.7043 22 23 20
-26.1595 19.2049 35.6264 48 75 85
-12.9838 40.8782 -0.0901136 74 67 0
-20.6087 26.9951 -18.311 67 69 59
35.8489 -25.7304 -28.3416 76 98 37
0.779972 13.103 -29.6284 73 68 12
-16.4258 9.09934 1.56977 70 45 14
2.25615 19.1406 -24.7242 73 72 13
-26.0882 20.1286 16.7526 54 79 84
-24.9247 15.1556 46.8547 65 70 75
-10.2771 38.9657 0.899994 73 70 2
-26.9648 -25.8565 8.42414 75 93 21
-25.9461 13.0384 19.3241 21 49 25
-11.9266 -25.4498 -11.3181 40 64 18
7.1321 27.2612 6.48174 73 63 3
-16.3198 13.4317 -13.502 53 40 14
-0.796227 35.6357 2.11565 74 68 2
-10.0167 23.2352 10.503 75 75 0
-29.6816 -25.0723 -18.6406 28 66 17
