ply
format ascii 1.0
comment Created by Open3D
element vertex 1403
property double x
property double y
property double z
property uchar red
property uchar green
property uchar blue
end_header
7.68333 39.8185 0.159492 80 74 13
29.1872 13.3131 -5.18882 49 32 3
27.6225 -21.1096 -12.5396 71 60 18
-24.2046 21.4033 25.9943 41 66 58
-16.0976 19.0407 -19.6135 42 20 2
40.0951 -26.4053 -4.16554 64 82 19
-19.4254 20.0906 13.1161 83 87 12
9.36676 1.61035 8.23253 77 49 13
-7.65629 30.3829 -15.715 73 73 19
8.72242 40.0462 1.6381 66 78 71
-6.3769 19.991 12.5818 74 73 1
5.24245 -27.2469 17.4323 61 76 61
-6.59225 20.6478 -23.8421 66 68 12
-2.56887 24.3845 9.29189 72 71 2
-23.9877 17.8326 15.1287 81 114 117
-16.4873 4.09666 -12.4338 70 40 15
27.1301 14.9466 -9.00144 67 61 16
-23.8345 6.48131 20.5858 76 115 120
6.08484 36.8965 -12.0481 76 67 0
-22.8722 -27.7575 17.6916 85 109 96
0.171204 17.6415 13.8411 68 75 1
-25.63 -3.91661 15.9261 57 80 86
-26.077 -23.6563 9.10922 38 30 6
-10.6586 -15.256 -9.84841 22 19 9
0.00846863 39.4609 -0.149948 71 70 1
35.7748 -15.4283 9.4827 82 35 10
5.52831 24.8333 -19.7952 73 67 0
-16.0623 20.4428 -21.7165 58 62 46
-8.94611 -21.7483 -14.8078 34 30 5
-25.6775 -3.7795 13.9766 61 83 84
-1.28852 3.7853 10.6037 25 21 12
-13.0689 -27.9163 17.5643 76 92 82
12.1222 43.0435 -8.57088 68 61 13
7.07917 21.7572 -22.1984 80 77 3
-22.3492 -25.5274 -0.654308 63 80 30
16.5307 -24.1226 -26.8731 41 48 22
30.2822 16.2329 -8.02349 69 63 22
33.6607 -26.0479 -9.29412 73 86 15
14.052 32.1146 -13.5468 71 75 66
-16.3211 15.3599 -6.09364 49 30 14
-16.6335 -0.610912 -20.6936 72 46 22
-20.6941 29.9036 -14.824 65 77 62
-17.1255 2.00466 -1.81786 72 68 57
-25.2034 27.192 24.7646 63 69 61
7.52458 23.7756 -23.0371 90 91 9
13.1069 30.1959 -15.1467 76 75 32
-20.4011 29.9012 -14.0541 75 80 36
-26.1607 18.4144 29.9918 42 76 82
13.5535 17.3607 -25.6857 73 62 19
35.4062 -26.2956 -21.9004 85 108 39
-16.1102 32.7488 -2.42576 42 17 0
-19.7166 35.8065 -10.6848 133 117 27
35.2514 -20.5147 13.0983 76 80 54
29.2571 14.1123 -9.54837 74 69 20
-24.1103 -11.2157 9.94658 64 100 86
-12.7689 -22.3126 -17.5666 27 30 23
13.9296 33.0495 -11.8748 77 81 68
28.7768 8.27416 -8.46963 44 26 0
-14.2784 22.7979 11.5693 107 107 2
-19.2006 19.4911 -25.1375 67 66 10
9.20854 40.3053 -12.5166 88 93 27
-1.89609 22.5577 -22.1094 69 68 18
-16.2299 15.6616 -18.4821 45 25 12
-16.4641 -25.375 5.42002 14 18 6
-19.5796 31.2184 5.96312 83 73 0
-6.54659 -26.4173 16.8272 74 104 32
27.5596 -8.87133 -16.5373 77 68 48
7.30834 22.3797 10.5187 91 89 6
0.442783 1.25679 13.2323 71 74 49
2.58634 38.977 -0.0762582 75 71 3
-9.7228 38.447 -11.36 72 66 11
-30.9847 -25.0589 -18.2091 31 63 15
-12.9993 -25.3259 -27.4125 43 68 24
7.59212 22.3381 -23.9648 91 94 3
-26.2337 10.8237 43.5593 34 59 50
21.3952 14.4942 -9.40809 71 66 20
-26.0038 -19.7527 8.11559 54 71 40
9.23398 39.9088 -12.5477 86 93 10
10.5141 16.3347 14.1137 72 65 1
23.0431 13.4949 -10.0683 69 69 19
-26.3095 12.8089 47.4352 48 74 75
0.480965 -26.7215 13.9924 82 104 13
40.3465 -26.6907 7.27248 58 73 43
-9.24786 -26.198 12.7199 67 75 30
-16.4558 9.24038 -6.62991 71 52 22
-27.638 -25.2524 -8.63397 32 68 22
7.55894 -27.0792 12.0244 82 100 71
-16.4149 -25.3827 -11.2014 55 76 21
13.4768 14.0194 15.5807 73 68 0
7.84813 39.1203 1.97534 64 65 23
7.32166 44.1503 -8.01902 68 64 12
-25.893 3.71835 48.3544 17 44 26
12.3877 40.6399 -4.69393 86 68 11
-16.0359 25.9788 0.417496 45 23 4
-26.1346 7.58062 46.2989 17 47 26
-25.8301 22.0956 13.3056 56 79 80
-26.2389 24.2739 23.1533 27 55 42
35.5921 -18.3064 5.50345 83 96 90
-0.656519 36.2789 -12.5345 70 68 14
-16.0724 20.6748 -6.83803 67 37 6
34.8443 -25.8467 12.7549 80 82 47
8.27048 29.7683 -7.52388 7 2 5
-12.9294 -19.7919 -16.6089 51 61 56
-16.6099 0.614399 -11.718 73 48 25
7.93154 29.6148 4.30947 81 77 12
-12.0002 29.6023 5.80798 71 70 14
-31.3801 -25.1905 -18.688 26 54 25
27.0836 16.5585 -7.86721 71 64 26
-24.4527 23.1066 28.5592 60 90 96
9.20218 30.7426 0.573558 55 36 0
2.28262 13.5379 -29.2623 73 73 10
-16.1652 19.9524 0.02565 69 37 2
-14.7138 -25.5007 -5.92267 52 75 25
-3.42048 21.8374 -22.7434 65 69 13
8.84984 43.6119 -8.33856 72 68 14
13.8805 11.4233 16.8465 58 69 55
9.90176 -26.4539 -28.9852 43 56 15
20.7355 -26.5519 13.7511 92 115 21
-23.3651 -21.061 2.67755 5 1 3
-20.6779 37.6988 -9.87101 55 50 20
-16.6892 -0.225044 -18.5752 71 43 19
-25.7562 5.7584 35.4381 42 69 75
8.15935 -26.6593 14.4314 84 105 14
10.1933 -26.4454 -29.0174 41 55 14
-5.69567 -26.5337 17.2428 80 104 43
35.1977 -10.1945 -15.6525 76 56 7
-26.0488 -22.609 11.7113 54 75 40
40.4279 -27.7932 -7.29641 64 81 68
40.4081 -27.4554 3.44947 65 84 73
27.7633 -10.7081 -11.6988 77 70 5
-15.9043 -22.2026 10.904 56 52 41
28.5108 -25.9176 -29.2407 66 87 41
-16.4299 10.7166 -10.0416 46 30 18
-3.88875 42.2792 -1.47556 74 70 2
-16.4474 4.02604 -10.5442 68 40 15
33.5128 -12.6799 -24.8125 68 82 73
-25.2495 26.8104 15.6747 97 126 126
-5.09262 15.1429 15.9081 73 62 3
-19.9045 24.3547 -20.9222 66 69 16
1.31136 35.743 -12.7966 68 67 9
-14.9716 40.6919 1.53242 67 75 66
-16.8316 34.9389 -11.4123 38 23 6
-12.063 29.0536 -16.7926 63 57 20
-14.5337 28.2168 -6.89607 48 40 3
28.7541 10.3694 -7.7817 36 22 1
9.18863 -20.8005 10.2073 52 34 10
-8.21486 31.312 5.01099 74 76 0
32.4134 12.2468 -10.6196 74 73 11
-5.84842 43.3062 -8.64556 70 64 15
35.0642 -24.0889 -22.4978 68 83 32
-16.4695 3.65026 -3.50375 71 37 8
-11.6729 -25.5408 -8.27594 53 73 23
-27.5399 -25.1014 -16.6663 31 65 16
-18.2151 44.2237 -7.9576 66 60 15
34.0123 -18.9115 -22.2416 73 83 73
-26.2238 9.5558 46.0536 47 75 78
12.0368 12.8202 -29.5007 73 67 20
8.14348 -26.3728 -28.7949 58 66 45
35.6728 -17.0621 4.83177 82 35 5
-29.4627 -25.9209 15.3778 56 89 37
35.7142 -15.3875 4.38538 81 35 5
-16.1612 13.5555 -20.1748 61 44 21
-25.8983 5.72034 25.2863 48 74 80
2.45635 28.097 -17.1409 65 57 12
28.8518 12.5445 -5.37795 41 26 2
10.6252 29.3707 4.21686 76 73 1
26.8289 4.20815 -18.2875 93 99 75
-16.1842 14.7597 -20.0197 53 33 17
-12.8502 -10.6989 -0.0838013 16 7 2
13.9133 41.1441 -4.18874 74 83 80
26.7932 5.94437 3.68163 93 86 4
-16.2615 0.862526 9.97242 58 36 15
-26.2917 13.4799 46.5246 43 65 57
-25.8958 20.8435 13.9143 58 81 80
14.3059 36.2434 -9.86213 59 52 22
-25.7699 3.47958 32.8137 18 29 12
40.2715 -26.4722 -1.73178 59 73 31
37.0277 -26.6605 14.8408 81 95 22
-15.7247 22.3194 -6.51177 71 72 66
-11.8905 26.2704 8.43123 77 70 1
-16.4559 -11.983 -22.1598 72 48 25
-5.40561 26.3489 -19.0753 67 57 16
-24.0354 -13.8155 11.5451 70 99 83
-20.5054 -25.2359 -17.4518 42 65 25
-17.3715 12.8171 18.0509 85 81 8
-20.6298 44.174 -5.46977 66 82 74
28.4266 7.8941 -15.0119 81 84 28
-16.9635 -25.3513 -11.2621 45 66 24
-16.3801 11.121 6.53646 42 27 16
13.8119 19.2332 -24.0043 73 68 25
10.377 -26.5368 -29.8667 35 57 10
7.69444 35.0602 2.02925 73 65 0
-16.3209 15.1532 -11.2662 47 28 16
9.36476 3.33077 7.22724 77 49 15
35.5814 -18.5875 7.01739 82 99 91
-1.58242 -26.9979 17.5937 56 71 58
-20.6726 36.782 0.709827 59 61 34
31.0631 2.8523 -16.6575 73 68 1
33.5778 -24.6875 -23.7707 66 82 61
-25.9358 7.241 26.1287 47 73 79
3.39623 34.1833 2.55316 74 71 1
7.33656 23.2585 9.74953 88 88 3
-16.2221 13.8523 -19.412 64 40 24
-26.063 -21.7862 8.25426 43 34 10
0.60596 37.5757 0.878904 72 69 0
-24.9252 24.3986 28.8916 60 74 70
-16.3358 -1.23522 9.01804 67 43 19
18.7603 -1.6747 7.61012 74 66 0
39.8844 -26.1436 -26.5816 52 70 34
40.0952 -26.3912 0.786194 62 80 6
12.037 14.5316 -28.1518 72 64 25
-18.6263 24.488 7.574 92 79 7
25.2125 -12.1221 -9.72084 58 22 8
-5.83458 24.0214 -21.056 66 59 9
-24.5302 4.2001 13.6284 72 85 76
-12.108 40.9356 -0.169572 75 66 0
8.53106 -26.623 16.0434 83 105 20
-24.8023 16.9583 12.795 49 66 59
40.2699 -26.444 -8.03508 50 63 21
-20.845 26.1219 8.36122 75 80 71
-26.2736 -25.9537 11.6581 62 84 28
8.26942 14.2942 -23.6595 55 55 45
32.877 3.87183 -15.7657 73 62 3
-14.7642 -25.5518 -4.48599 59 81 27
-16.1423 19.5335 -19.8151 39 18 0
30.5256 1.04028 5.80226 75 74 5
-25.7856 -5.99112 18.9564 60 78 75
29.7236 12.1947 -4.13365 56 40 0
-20.6855 42.1939 -7.68118 59 60 41
-16.1233 20.584 3.18089 71 42 3
-10.6193 -19.1295 -14.6623 34 27 6
-11.2633 -25.4787 -11.6388 42 64 22
-20.6527 36.9832 2.45061 77 85 73
-16.4599 5.92666 -5.81886 69 38 8
8.96494 -9.70939 -23.4125 71 66 52
-20.6591 37.0953 0.44845 58 58 32
-20.9463 -25.6978 11.0736 82 106 49
-18.1145 17.9143 -24.1956 90 84 9
-25.1497 -26.1924 16.9842 72 101 48
-16.8186 -25.9845 9.25075 57 63 41
33.5046 9.88456 -0.499041 70 81 69
-15.7311 39.9856 -11.3047 80 81 3
-25.9346 -22.2412 15.1367 62 79 58
-16.0077 34.3878 -13.4077 78 73 0
11.9722 44.4822 -7.61593 67 57 12
-1.69223 15.6543 15.341 69 64 1
25.7026 6.33096 2.42777 77 67 4
-14.1396 -24.3909 3.38637 20 21 13
-7.39557 29.159 6.03394 66 67 0
-20.3472 -25.1328 -28.9753 30 57 19
16.733 -26.6365 15.1515 89 117 27
-18.3894 -25.6737 10.094 53 68 29
-13.9204 23.424 11.7866 110 115 9
-25.8069 2.80447 24.9761 53 75 78
6.93318 -12.6486 -23.8326 73 81 78
-16.2452 17.2302 3.46678 68 54 0
9.12431 14.7017 15.3793 71 68 2
35.7609 -15.1952 5.00636 82 34 5
13.913 36.2119 -10.6494 67 65 63
-16.2812 16.0236 -14.4429 45 28 10
-17.9827 30.6806 -15.5628 69 78 21
8.038 27.0064 -20.6967 92 94 64
19.3578 -28.2263 17.5544 62 76 66
-16.1846 19.2372 2.44099 66 36 5
8.71118 42.7331 -2.66738 80 69 9
-10.8196 42.3916 -0.994606 72 67 1
-18.6509 28.8635 -14.9417 113 116 33
-19.7506 19.8783 10.8685 95 92 5
-22.7528 -21.3839 5.62035 63 88 31
-9.61938 -20.3598 -14.307 32 29 8
-21.0171 -25.0972 0.528765 50 65 26
-26.1439 9.89698 41.7476 37 61 59
39.5986 -25.8401 -24.0533 72 89 31
-1.76303 28.8252 5.946 65 61 0
-9.30568 12.7961 17.6696 76 75 2
33.1048 0.728333 -16.8614 69 74 64
34.7245 -7.34853 -20.9824 63 73 68
-31.13 -26.0639 11.8542 34 63 33
33.549 11.4983 -1.79582 72 79 71
-11.8445 -21.8431 -17.2078 25 26 19
-20.4596 34.3279 -13.3703 70 63 18
35.1032 -8.57985 -15.72 65 85 75
-24.2105 18.8858 26.717 39 70 49
-16.0806 31.1556 -7.98322 34 17 7
-16.1899 21.0393 -18.9034 38 17 2
7.41113 -7.81038 12.9093 69 67 55
-24.0186 7.71149 31.3543 66 96 100
-9.91844 23.131 -21.9023 68 69 12
-1.02309 -26.3499 11.6651 67 88 47
-9.99011 44.9141 -2.54897 76 71 0
35.0042 -25.8713 -29.2771 83 104 35
-19.2002 30.84 -13.5987 108 95 1
-21.3138 -25.9645 14.2607 81 110 49
-25.5896 19.767 37.0631 62 74 65
-5.1959 36.5812 1.91672 72 68 0
-8.66711 16.1156 15.3836 76 67 0
7.27752 30.6692 -15.2796 72 67 19
-27.734 -25.0324 -21.6608 26 61 17
-24.0817 20.207 18.1008 83 116 119
8.00471 13.4819 -23.7713 51 54 41
-16.1411 23.1022 -18.3996 38 18 3
-19.4098 39.5629 -8.35779 43 29 5
-25.9587 -21.6075 14.9297 61 80 58
-23.6616 -26.0027 12.3345 99 123 52
-19.8943 33.8293 2.30265 84 67 3
-16.3785 -2.7826 6.71148 67 38 14
3.33149 29.0864 5.24615 65 61 17
-23.9819 18.3895 17.7826 76 107 89
6.03679 43.5655 -8.43074 67 58 5
34.4009 -8.96877 -13.8243 76 93 77
7.09695 -24.403 11.8172 72 85 73
13.553 30.87 1.07896 82 77 23
-2.99262 -26.303 11.7053 73 93 37
-15.2566 26.6289 -3.70908 4 0 0
-26.1518 21.1153 29.345 50 76 85
-18.969 26.4192 -16.9935 115 99 13
-10.6499 -17.9111 -13.7705 45 33 4
21.2957 10.3497 -12.2072 74 70 19
-26.0675 -11.7512 15.0196 44 32 13
-24.5034 16.5552 42.0748 56 81 88
-26.1387 17.5159 24.9547 22 49 26
-11.0415 -25.3698 -29.0816 47 60 38
-13.5041 -25.3123 -27.7159 51 68 28
-25.9828 8.50548 30.6286 45 70 77
-4.75191 33.9528 3.36308 74 73 1
-26.2568 25.9829 24.1156 52 81 91
1.97195 34.71 2.38699 72 62 1
-11.7231 -16.2593 -14.1168 43 27 1
27.8105 -26.5991 14.9523 88 107 26
-19.5936 21.8102 -23.1178 65 69 16
-10.0848 18.2243 -25.9725 66 63 12
-12.5571 -11.3329 -11.5718 38 18 4
26.1499 3.32409 4.37291 79 74 0
29.288 9.45533 -12.5756 73 67 7
-25.9225 -6.75747 16.4224 42 33 15
-16.182 23.8265 -17.1847 42 17 1
-16.4007 10.6469 5.54063 55 51 20
17.7353 -28.2069 17.5732 59 74 66
-7.22581 22.3842 10.9656 73 73 0
6.48979 25.8452 -18.8203 71 67 0
-25.9371 8.33307 33.4241 13 26 10
-10.2053 25.1163 -20.2701 66 64 11
-25.8573 5.46929 33.3148 12 27 9
-16.2369 -25.3377 -15.3837 49 73 29
24.7328 6.24619 2.53106 76 64 0
-10.7745 35.1967 3.09318 72 67 0
9.82937 -26.505 -29.5303 41 58 12
-2.7816 22.8873 10.361 71 71 3
-10.2375 20.5478 -24.0499 69 68 17
-1.2492 22.6008 -22.0267 66 68 12
-16.3077 -3.75948 7.06548 66 40 11
-25.9786 -23.2652 13.4974 57 77 43
25.2022 3.90013 4.05212 77 64 0
6.14372 29.3885 4.5404 79 81 22
-14.0317 16.1595 15.6335 82 67 4
-16.243 17.9155 -3.5697 67 37 9
-14.2379 -23.348 -17.6119 33 39 39
5.34082 29.1328 -15.9018 74 69 20
-18.0358 27.935 7.59416 80 79 3
-7.5327 16.4354 -27.3132 68 63 11
9.44025 3.61026 4.47554 86 68 27
7.60675 28.1087 5.83125 70 69 3
0.31905 44.2201 -8.0411 69 66 19
-20.7063 29.6434 -15.3568 68 78 64
9.18049 1.36398 7.00635 76 49 14
-1.31105 -26.584 16.8237 86 109 10
9.23232 25.9109 3.61968 53 31 10
-15.9582 17.7524 -20.3226 65 37 18
28.8347 12.1123 -5.39345 41 25 4
-24.826 -14.7473 18.5622 76 85 81
-15.3824 -12.2177 -17.6189 84 96 84
33.8523 -26.1964 -1.99138 86 101 33
-18.6397 -25.2865 -13.3404 52 72 26
12.5211 35.6728 0.911766 72 70 6
10.4491 -26.473 -29.3228 37 54 9
7.54194 -2.77848 12.8028 77 83 71
-16.382 10.1435 -13.4664 59 60 31
34.0346 -17.8856 -22.2719 70 87 76
-31.2087 -27.1348 9.7698 59 81 65
-23.9169 5.17088 27.7274 69 102 106
-4.71323 12.8015 -30.0374 72 62 11
-6.10882 34.6747 -13.485 68 69 15
-16.1959 -24.2303 -17.9086 55 36 16
-19.5157 -25.5512 0.317513 58 75 27
-23.9195 1.63169 28.6961 72 102 111
7.70375 37.0851 -14.4282 75 81 49
9.28497 30.4209 -8.18501 45 29 6
-16.4711 -1.02941 -8.90486 77 51 22
-26.2795 12.1174 43.4017 42 69 73
-24.0917 20.4853 17.9931 80 112 116
-24.3094 27.104 18.8528 57 95 98
-26.1377 19.7672 20.3901 45 73 78
2.23889 18.7111 12.9625 70 70 2
-16.2578 -26.3354 17.3169 79 107 60
-3.09861 40.4296 -10.2748 70 60 12
32.3911 1.84443 5.24002 69 68 0
-4.9315 44.6813 -2.8338 79 73 4
29.1617 11.5027 -4.09372 48 34 0
-13.5173 44.4397 -5.3076 86 103 92
-6.93066 36.2253 2.24354 75 73 2
7.64822 38.74 1.02296 77 72 7
33.8137 -18.0993 9.13071 76 22 3
5.70602 15.684 -27.4522 70 58 13
-25.5973 20.6583 12.2773 60 83 86
-24.1093 12.7223 29.5126 76 72 35
-2.8311 40.8973 -0.755114 73 64 1
-14.7441 43.3769 -8.5354 70 68 20
-15.261 -18.4354 -17.4775 73 88 79
-19.4132 33.952 -11.749 118 96 8
-25.9453 15.8287 15.0801 50 76 79
9.77566 44.5689 -5.20406 81 95 89
-17.6643 19.4091 -25.1797 67 68 7
-11.9527 -18.7793 -15.6486 36 26 4
4.62042 -25.8618 -28.434 46 60 33
7.22461 11.5126 -24.2762 58 65 53
12.5472 44.5159 -7.6064 68 58 12
-16.4599 -0.349274 6.16677 65 37 11
31.5874 9.71226 0.440742 69 72 4
-16.2817 16.4096 -12.3138 48 30 10
-16.2227 -25.282 5.02717 10 8 7
-5.13826 24.879 9.10774 75 62 3
-16.1962 25.6785 -14.4812 41 18 0
7.29031 13.9676 12.3625 66 65 55
0.650116 12.2064 -30.0606 79 75 22
14.0571 35.4794 -12.0925 78 75 64
35.7288 -25.8237 -24.993 84 104 31
-16.1735 35.02 -4.23708 39 16 3
-16.0202 22.1729 -0.211288 69 40 6
-19.3108 -25.3286 -10.4206 50 75 15
-10.4985 34.2418 3.61654 74 67 2
7.1442 -24.0785 12.085 73 86 76
-16.1466 -6.83393 7.70869 66 38 15
35.2268 -10.6984 -16.8363 25 18 16
7.16704 -24.7197 12.087 70 79 77
-12.1513 -25.4 -27.3817 29 49 27
8.81453 -26.9215 17.4403 51 63 40
-0.231239 -24.5438 -26.2679 38 47 30
-24.9885 -26.3258 17.5146 52 73 48
-5.85223 26.4115 8.06681 73 60 3
-28.8072 -25.1703 -13.0753 38 71 12
-26.0328 -17.9292 13.8986 60 78 65
-29.7633 -25.525 1.76041 45 76 21
-17.5082 -27.0768 17.4972 60 74 68
7.35995 2.00798 11.9947 76 91 82
-14.7887 26.6981 9.56948 65 76 67
37.754 -26.676 15.7328 80 98 25
34.5958 -15.5981 12.7921 70 76 67
-19.5611 -23.4279 4.01524 15 17 14
-2.97398 -22.7484 9.41639 6 6 4
-24.718 17.0345 44.0663 59 77 76
-8.77211 35.8686 2.5879 73 71 2
-16.0114 32.0195 5.36793 80 72 0
-15.9762 28.032 -9.46329 53 43 17
-6.55275 1.87585 13.0467 67 74 53
-25.9078 -11.2792 19.1216 62 80 78
-15.6528 40.2624 -10.8101 81 83 12
4.94564 -25.8685 -28.1912 56 61 58
-25.997 -24.3176 12.3434 54 75 30
-25.9097 -25.5513 14.0447 59 81 34
-20.8833 25.3821 8.56463 70 81 66
26.1663 -0.100533 6.6141 76 67 0
-23.5286 -19.4625 3.85071 9 11 6
26.9416 7.13573 2.62989 91 85 18
25.7704 -26.723 -30.2811 50 64 53
-22.5669 -25.142 -21.704 35 64 27
-16.9228 -25.4917 -5.06915 59 81 31
-26.0382 -17.9975 10.5048 43 31 12
-16.3919 -0.58905 -3.41304 71 47 13
0.0699158 37.5659 0.92318 73 67 0
-24.0557 -20.4059 2.84333 3 7 2
9.34025 4.23681 5.98792 79 52 20
-13.0029 29.2021 -16.5712 61 55 22
2.01745 42.6504 -9.00303 71 65 12
15.0258 -26.5882 13.3121 81 105 28
-16.6708 -25.4262 -8.13887 47 71 22
-2.62771 35.3586 2.39624 71 67 0
-5.85388 15.5647 15.6402 73 61 1
-12.2165 -23.3448 2.8788 52 50 25
-24.7427 -25.4253 -1.99345 84 101 77
-19.4214 18.4117 -26.0907 66 73 12
-20.6193 27.9102 -16.3718 67 76 64
27.8664 -11.9426 -14.9154 62 31 3
-26.0997 9.03308 41.404 38 65 67
-14.7865 15.2189 16.3232 79 78 3
34.6687 -7.71847 -15.8429 74 89 83
-13.2275 43.5168 -8.48545 74 66 17
-25.995 12.1712 21.3268 32 58 52
4.40336 34.9819 -13.1277 71 67 13
-20.6274 28.2423 -16.5312 64 76 63
4.9192 28.0203 -17.0545 61 59 19
34.1822 -7.47942 -21.1627 64 77 72
6.67072 -9.79089 -24.7666 69 51 32
2.24857 43.5604 -8.46587 69 61 13
-26.0321 15.814 18.9399 48 76 82
40.1164 -26.6646 11.2139 79 94 31
-19.0029 -23.9115 5.24766 26 33 14
-24.4519 -25.9837 15.4141 66 99 44
-16.5883 0.431335 -10.9007 72 42 19
-9.91402 20.2058 -24.3152 67 66 16
-13.54 -8.00723 -10.9214 31 15 4
-11.8614 -17.7138 -15.0804 40 24 3
14.0748 38.3777 -10.3042 64 64 63
7.26544 37.5098 0.271675 84 76 1
-29.0245 -25.0946 -17.2879 44 75 20
1.10175 1.26009 13.2519 73 73 44
-18.4818 41.1375 0.292726 69 66 7
24.3408 5.07245 3.3196 75 64 0
-15.3987 28.221 -14.6727 38 24 1
25.0317 1.92433 5.34399 78 75 0
-19.0539 29.582 -14.368 117 107 12
-4.8012 13.7967 -29.3268 70 63 8
7.46341 25.3351 8.29426 95 95 4
33.62 14.2031 -4.13903 70 78 71
32.8721 -1.20563 -17.0279 63 62 36
-18.6079 44.3142 -1.51989 72 64 7
-4.58005 -25.7942 -29.3518 25 48 11
7.37058 -1.90543 11.778 79 95 85
-7.09635 -26.3328 14.6919 83 110 40
36.9154 -25.7332 -27.7933 72 89 35
-13.6845 35.8535 -12.7359 81 77 11
-30.3205 -25.2852 -4.95543 28 64 20
-24.5122 -25.2739 -9.85807 31 64 14
-13.8089 -25.5718 -4.8975 53 76 17
5.94924 11.6163 17.6168 65 62 5
-16.6517 -3.50995 -14.1041 74 44 14
-16.8149 21.8783 11.6694 85 76 9
29.3706 6.12885 -14.6386 77 70 0
13.1244 25.6791 7.21022 71 50 2
38.7755 -27.2583 -28.5139 62 85 64
-16.3665 7.89034 -20.8416 80 56 31
-5.10582 44.5133 -5.41946 83 100 91
-4.55074 43.6144 -8.44629 70 60 9
26.1742 -1.10531 -19.7441 77 66 24
28.6253 6.65394 -14.7276 82 84 1
31.308 6.06174 2.63495 73 69 2
35.4576 -20.4885 9.48982 83 101 93
31.1586 2.3931 -16.9417 74 70 3
25.3969 16.8719 -3.97383 82 83 12
25.8611 6.61253 2.24058 76 70 4
7.92464 -26.6145 16.3436 87 108 14
15.1645 -25.0474 -27.1932 38 45 23
-4.22713 15.8609 -27.6906 67 58 8
34.9361 -26.1987 -2.15485 80 94 24
7.27168 -6.32588 12.1182 77 89 79
-11.871 34.8713 3.33844 73 72 0
-9.91095 -25.8684 -29.9056 31 50 25
28.4977 7.65503 -14.46 81 85 0
-26.0595 5.49341 46.4305 9 39 15
-10.4271 -26.0538 -29.9769 45 69 46
-13.917 25.438 10.1001 102 103 8
35.2498 -19.5338 -15.1653 63 80 49
-26.0354 6.28599 44.0714 35 64 61
6.25626 28.1431 -16.8179 64 59 20
21.2774 12.1516 -11.0302 74 71 19
-15.9387 22.7406 11.218 72 67 3
-24.3196 20.9936 27.959 41 70 55
9.26642 -18.2632 10.4436 50 34 10
-15.3007 -11.1304 -17.5672 74 87 77
-25.8655 8.37966 18.4504 49 74 83
-16.3767 11.7598 3.66255 43 29 11
29.6904 -26.9685 17.2791 65 79 38
-16.4895 4.62095 -20.7725 78 52 27
-16.2171 18.7404 0.259666 67 36 8
-26.1705 17.4647 31.0349 44 70 79
-26.0269 -17.3092 11.6213 42 31 12
0.800426 25.5315 8.25513 75 61 4
-21.6552 -23.044 2.13573 13 22 10
-12.9078 5.96037 13.3808 82 58 33
-2.41117 -26.259 10.5783 61 87 38
-13.9013 -26.3841 17.2059 83 103 51
10.033 44.8559 -4.42702 89 86 38
-16.4677 -0.16539 6.44374 64 36 10
-8.43615 26.548 -19.0163 65 55 10
26.8788 15.0673 -8.93199 70 60 23
-16.4478 8.673 -3.83025 67 40 11
-14.5429 22.743 -4.55665 38 41 38
-25.745 9.7449 16.1572 13 49 13
33.4586 10.4342 -10.1273 73 76 62
-25.4839 -7.8229 21.4105 69 90 86
7.0092 22.19 10.0359 81 75 6
40.3086 -27.568 -17.1856 73 88 83
-26.1815 18.5328 36.0239 41 74 83
-9.94439 42.3063 -9.24072 72 61 14
5.88246 -24.2124 12.7121 55 40 22
-25.8445 -15.4748 17.7533 64 81 77
-6.56681 35.3069 -13.1424 70 69 16
35.574 -18.7398 4.86869 81 97 92
28.4288 -25.3907 -26.1312 46 52 14
40.4167 -27.95 -0.53143 60 81 66
4.0048 -25.8457 -28.6435 60 53 34
13.6371 34.9115 -1.3473 66 55 22
-22.3922 -25.4084 9.13483 43 53 21
-16.3378 -25.6304 0.912075 65 81 24
-8.55736 22.0293 11.2807 73 71 1
6.14732 -19.7896 12.9518 55 38 22
4.76624 13.8635 16.2357 66 59 1
-24.0357 -25.0825 -21.0385 34 65 21
-5.9031 15.6296 -27.9245 72 61 10
-2.9529 -22.1967 9.40781 7 5 0
-16.3474 12.6278 -1.00136 59 51 16
-10.0303 -23.2867 -17.931 13 13 10
-10.7061 43.6516 -8.41854 71 62 17
-20.681 39.1938 -9.19735 60 55 32
-16.293 15.9043 0.956993 45 27 14
-31.2993 -26.8242 1.98106 61 81 63
-24.3325 21.4023 12.4333 59 77 58
7.35925 0.610451 12.0123 78 91 84
-8.86374 31.0785 -15.4013 69 70 19
-15.8661 26.9784 -2.74756 37 31 19
32.6174 3.98746 1.32712 14 3 15
-25.8625 -18.8446 4.04695 55 72 42
25.324 -23.0246 -1.57971 33 36 4
-7.79507 -20.9734 -6.55872 25 28 8
-25.9548 9.36806 22.6159 47 75 81
-26.0289 -22.1607 12.8643 55 76 45
27.4374 -19.2667 -11.3318 61 74 36
-17.9993 42.5861 -6.86655 37 29 14
-26.227 10.9539 42.0928 14 38 5
14.4097 41.2374 -7.57997 39 26 31
34.0219 -9.81231 -13.4837 63 80 70
-12.953 26.4114 8.30448 74 73 3
-15.5002 28.1119 -8.70158 67 65 44
-7.44455 34.3026 -13.6996 69 66 16
-2.09017 -26.2876 11.0253 70 91 41
29.0588 -25.8633 -29.2022 66 85 41
13.3182 43.3052 -8.37447 69 62 12
-16.0053 21.5915 -9.15222 67 38 7
-25.8438 7.02284 19.1181 46 74 81
-13.0537 -9.69792 -3.31978 13 11 5
22.4379 2.78032 4.83514 74 70 0
-24.4104 13.9986 41.5505 59 85 96
40.1557 -26.4135 1.19153 55 72 9
-23.9611 7.98306 27.0076 69 104 106
14.0004 35.8663 -12.0629 77 73 43
1.4344 -25.1944 10.8047 57 66 62
-26.1725 19.4832 29.3085 46 78 84
-26.0662 -25.2429 -9.84674 26 63 19
33.6086 12.0123 -8.7798 70 80 63
-8.8898 29.3792 5.89679 71 66 4
-26.1603 18.9873 26.317 14 40 19
-19.587 -25.2759 -13.5019 65 80 17
9.35739 2.80883 9.99996 79 48 17
-25.8589 -15.1116 7.28986 56 78 60
-16.3267 -23.1431 -19.9618 55 38 17
-20.6737 31.746 -13.7291 67 82 71
2.50918 45.0034 -4.34553 88 92 68
-25.8815 -23.8377 14.941 60 81 52
-14.3688 -25.3151 -27.4892 51 72 26
-20.8173 -24.1348 1.4183 43 58 25
23.5553 13.5112 -10.063 71 65 18
-12.3478 -25.3314 -27.9354 51 76 29
-25.3062 25.8102 27.0197 62 74 67
21.6598 16.2438 -8.19048 69 61 21
33.4488 9.02994 -0.693984 72 81 71
-3.30434 28.9095 -16.4547 58 55 20
-5.3601 44.5411 -2.70627 77 68 3
-16.6922 0.375343 -14.6339 68 39 14
-0.437355 -26.685 16.0094 85 109 20
35.6139 -16.9298 2.30315 79 57 3
5.49582 -25.9207 -28.5267 53 59 52
-13.5924 -7.73436 -8.72694 56 26 4
-16.6636 -2.83244 -16.549 72 50 29
34.1836 -8.33606 -14.3543 79 99 88
-25.9963 -12.6074 16.279 61 80 77
-16.074 18.8334 -17.6048 61 36 0
-16.4706 5.86028 8.37281 65 42 17
31.8879 -26.6399 14.7994 78 97 27
22.1254 -24.5704 -26.9999 39 43 20
-16.1648 31.6684 -9.87619 33 16 0
-2.46222 21.3708 11.3933 73 73 2
6.96247 2.1322 -23.7266 74 85 79
28.0477 -26.6567 16.0391 91 109 25
-8.26733 27.794 7.2116 75 68 1
-25.3162 13.9643 11.0805 56 83 81
-25.9919 -17.9119 9.46211 49 55 34
31.768 -26.587 13.2277 82 100 26
-1.49569 24.1388 9.40434 71 68 1
27.744 -26.4805 10.6093 85 108 32
-11.5771 -25.3965 -17.3731 37 53 23
-8.22118 30.4192 -15.7155 68 65 12
-16.26 14.4631 -17.8635 52 31 16
9.41168 21.4003 10.5663 86 91 28
-18.9344 -25.2847 -13.8066 50 72 19
14.0068 40.9366 -2.80373 72 84 71
-20.5088 -25.2486 -14.3068 59 80 27
17.7769 -24.0523 -27.0927 43 48 24
-19.4599 28.1964 7.47441 84 74 3
30.3851 13.2286 -10.0971 75 68 14
32.3335 9.79694 0.379528 69 72 6
-16.2088 12.6298 -19.642 53 40 19
27.1906 -26.0965 -1.21718 69 76 64
-14.2071 23.3982 10.9891 88 91 3
-25.28 -25.4388 -1.82307 73 93 51
14.8856 -26.693 15.9888 86 109 28
33.1352 -26.1493 -2.97983 91 105 44
33.2213 2.90446 3.99509 68 82 73
-14.8651 -24.155 11.1088 73 89 79
7.34265 -13.5615 12.7377 75 78 66
34.4985 -8.32509 -14.359 82 103 91
8.61481 11.9645 -23.2286 51 38 20
8.39412 27.8987 5.92845 71 64 3
26.9298 4.80095 -17.8616 91 96 71
9.84275 43.2936 -8.49341 70 64 12
3.24402 28.3871 5.94965 70 60 3
8.03706 24.3131 -23.5064 69 75 70
-26.7376 -25.5255 0.269619 54 80 31
32.0578 -25.8184 -30.6302 77 88 70
-8.27853 28.2072 6.91479 70 65 0
-1.50471 24.5711 9.1018 73 69 3
-16.3673 -25.7733 6.44197 12 20 11
-13.6336 -12.4428 -15.6476 40 25 5
-17.2634 12.2917 -28.7569 81 73 11
9.07951 3.8655 -23.1648 78 65 50
-15.2366 26.7663 9.27145 54 69 50
5.20389 -25.8998 -28.496 66 54 42
-22.5761 -20.9072 3.89975 6 4 2
-25.9808 -20.2438 14.7651 59 79 60
-18.4667 43.5975 -8.35214 68 61 14
-16.0598 13.2818 -21.8558 56 38 20
-26.1304 16.1081 26.956 13 48 18
-1.88248 45.0182 -4.44298 79 90 82
-24.5464 13.1005 45.7645 45 64 61
-27.3887 -25.0577 -28.8354 24 49 17
-16.432 10.3595 1.20441 58 47 23
10.2061 12.7407 16.6945 67 63 1
2.77642 -25.786 -29.0637 40 55 36
-15.7833 27.0291 -15.0906 17 1 0
17.8932 -26.7877 17.0449 87 112 38
23.5673 5.26545 -15.5826 74 71 23
7.81517 40.3141 -10.5927 84 81 0
-16.201 14.2904 -19.7369 57 36 17
7.6142 39.6106 -12.6716 82 83 10
-28.864 -25.2599 -9.50072 30 68 17
-24.3049 20.9761 27.6786 38 66 54
-26.1755 -25.346 -4.71146 45 73 37
27.7525 -8.51241 -16.3039 57 39 16
-29.0978 -25.4913 0.172043 43 72 26
35.0385 -9.13568 -21.4056 67 85 77
23.0311 9.17376 -12.899 70 71 18
25.9272 5.63322 2.86245 79 65 0
-25.8316 6.52095 18.8497 47 75 76
3.71274 -25.7998 -28.614 60 53 39
-25.7381 12.5094 49.0241 69 89 85
8.75672 -26.6593 15.133 82 105 19
-27.4493 -27.684 17.7826 80 97 85
14.0477 33.5046 -12.8391 70 73 66
-10.5869 31.7727 -15.0633 71 64 19
-18.5465 32.8834 -12.4236 83 82 7
-4.96089 30.7568 -15.5279 68 71 17
-23.8653 5.19131 24.4775 71 96 97
7.23761 28.0776 5.88569 71 67 2
-31.2172 -25.0505 -20.8056 29 59 24
-23.7339 -25.2604 -10.4777 46 72 20
-25.5905 -25.3063 -6.45689 36 70 17
-26.1844 20.9024 29.0247 45 75 83
-8.4658 12.0471 18.0199 80 77 2
13.963 40.1593 -2.83012 73 88 85
-16.6138 -2.79308 -9.62389 74 47 16
-16.9477 36.3031 -10.7316 27 27 16
32.8698 -26.1165 -4.47465 87 103 24
-16.5431 2.7658 -22.3907 77 50 23
-31.2872 -27.4498 10.713 58 80 62
-0.495735 31.3223 -15.1652 71 66 15
-18.2626 28.6023 -15.1718 109 108 50
-20.5462 -25.5046 -1.39997 60 80 20
-19.7014 15.5699 -26.2111 96 85 7
-16.3995 3.46103 -8.64045 75 41 8
-19.9313 20.2554 -24.4957 65 68 11
-25.8301 -8.59713 11.6566 56 76 75
30.0926 15.3021 -8.70872 72 69 20
-26.1018 -23.429 10.2571 41 43 12
-16.4973 1.02358 -0.808441 67 42 10
3.20484 36.4712 1.30056 71 70 0
-25.989 -27.2537 17.5647 73 88 84
-14.8988 12.7713 -28.2715 87 73 14
13.6479 36.8022 -11.7876 67 62 6
32.0465 10.494 -0.0224848 71 74 6
-5.70879 40.973 -0.570488 74 68 3
9.20238 -3.77285 11.1197 76 68 54
-14.6776 36.4277 -14.7748 81 84 71
-16.0779 27.0075 -18.6659 71 66 22
2.48954 31.249 -15.1381 72 69 16
-16.4612 6.96392 2.12195 64 38 10
-3.81267 45.0241 -4.45728 75 88 84
29.5664 14.8786 -2.63794 80 68 11
-16.0486 23.1213 -22.3454 79 77 1
-25.4303 24.629 13.9177 53 70 68
-12.3089 -23.1439 12.7972 57 41 18
10.5776 17.485 -25.7423 72 63 21
1.49319 -26.724 16.5954 90 114 10
-5.45742 18.4575 -25.6122 69 58 14
22.2583 -2.85568 8.31998 74 62 0
10.059 17.3502 -25.8738 70 63 16
-24.1512 -25.3864 -3.09258 54 83 21
-16.5678 3.25271 -20.8765 79 54 27
-15.723 -26.059 11.1513 75 78 66
-14.6349 -13.2331 -17.1514 33 37 33
-0.128455 44.9348 -6.65163 76 94 92
-13.1753 15.6878 -28.1691 68 57 12
-30.8335 -26.8918 -27.4081 63 77 66
37.6746 -25.9171 -20.9839 80 103 41
-24.7581 22.7785 12.1482 34 40 39
-23.8187 -27.1967 17.5541 73 88 79
-26.2119 14.009 39.1683 44 70 78
-15.5089 43.7034 -8.3115 69 61 17
-9.08432 4.22238 13.2567 70 72 40
33.3853 6.00463 -14.0557 84 78 34
-13.3771 23.4177 -21.6471 74 70 11
-20.4621 22.2549 -22.6465 65 68 18
6.50153 43.4174 -8.51358 70 63 12
-19.5484 24.2439 10.2654 83 83 7
7.27399 -26.637 15.6996 83 107 1
8.96359 44.2968 -3.59266 83 77 8
-13.0372 -23.601 12.813 55 41 18
7.15083 -23.3799 11.7941 74 87 84
-2.19038 17.2368 -26.4912 71 68 18
-16.2152 15.8591 -18.7021 44 26 11
-16.6167 -3.82583 -11.7681 77 56 29
-16.5233 2.9546 6.31122 62 36 10
12.0326 40.6194 -1.75513 79 72 8
-24.2825 22.8679 27.5605 36 64 48
28.8493 16.6718 -4.83535 79 88 79
7.22534 -22.7515 12.3323 73 83 74
-19.1441 1.39544 -5.06461 69 77 72
-16.7297 45.4309 -2.3515 75 68 11
-16.602 3.11332 -14.2739 68 39 15
1.82475 28.618 -16.5947 61 52 21
-11.4745 45.0891 -2.52439 75 69 2
-0.21838 37.0197 1.2624 75 71 2
-7.50154 -23.4212 -9.9006 31 35 10
25.5725 -15.6989 -10.8112 37 24 5
-16.2373 22.397 -15.5232 40 18 2
-10.7426 45.0377 -6.94904 77 89 79
32.8212 -2.31041 -19.1804 68 80 49
-25.9115 7.83585 23.4708 44 73 77
3.75845 41.4794 -1.59296 76 78 6
-22.7852 -20.344 4.41403 5 7 3
-25.6831 9.95758 15.1754 31 61 52
40.3401 -26.6998 5.99598 64 77 41
-7.78329 -26.3705 16.3512 80 107 36
-11.2687 14.2513 -29.2486 66 62 9
-18.828 41.3374 -9.66242 71 67 15
-2.74933 -27.7663 17.5574 60 74 69
7.92859 24.6329 11.1887 67 79 63
7.58408 34.1424 -13.3311 79 77 1
-10.5985 -25.4751 -12.2464 43 63 20
6.12825 38.5443 -0.189285 78 69 0
-24.3565 17.4826 36.3549 43 66 51
-15.305 28.1537 -15.4585 60 55 26
14.1872 -26.5872 13.2554 83 107 28
0.134365 40.5704 -0.800858 76 73 5
13.9586 34.6352 -10.9604 78 77 64
12.5459 30.1691 3.79773 71 55 0
11.3441 40.8977 -1.84848 79 79 9
35.1936 -16.644 -19.8374 65 36 23
-28.0919 -25.0099 -22.9192 26 62 20
1.23476 -26.7444 16.108 93 115 19
-2.93199 42.5664 -9.08203 70 58 12
12.6522 16.9277 -5.39959 83 93 89
-26.1982 15.0488 37.0408 33 61 65
17.9895 -26.5972 14.3542 98 120 28
28.4695 6.69274 -15.868 82 86 5
-25.6484 1.36949 30.9594 38 58 57
29.9002 12.1128 -10.8299 75 67 10
-25.991 -20.6235 4.94942 51 71 31
-26.2368 23.676 22.5547 43 70 76
-19.8187 -25.3128 -9.8194 64 81 13
-9.33943 38.0864 -11.5844 71 71 16
-25.6845 1.49451 22.6811 48 73 74
-24.0226 -15.8442 6.3822 67 88 64
-4.86851 -25.7731 -29.3207 27 49 11
13.8838 40.7568 -4.2039 77 79 70
26.5569 -8.59229 -9.40487 29 32 22
-16.4695 9.66865 -1.43321 70 76 32
9.32198 2.45087 10.7721 79 50 24
-24.2129 23.5531 21.3164 67 103 106
-25.6834 0.678776 25.9909 55 74 75
-16.5013 4.79569 1.95697 67 37 12
-19.3356 -26.0323 15.0428 91 117 51
-16.3394 15.1479 -3.82213 49 30 20
-11.6798 6.77957 13.3501 79 52 28
-31.229 -26.9062 12.2058 59 78 64
7.87102 12.9512 -23.8411 52 55 42
9.31403 12.9426 16.6083 67 65 3
-17.1169 1.41803 -1.89084 73 82 72
6.1164 -25.9934 -28.3139 61 61 36
35.1331 -11.9327 -12.8778 63 84 74
8.02964 41.4019 -9.5868 71 67 18
7.23047 -24.3837 12.3509 69 78 70
6.99247 4.86939 -24.8057 81 83 76
17.7126 -26.6294 15.2478 96 116 31
5.36406 18.4894 -25.1131 73 67 18
13.5061 25.6201 -18.3735 68 68 29
-17.0813 13.1627 -30.3131 68 67 11
27.8558 11.9707 -11.0041 71 72 14
30.5021 -25.9886 -0.804709 54 50 18
1.41354 -25.8268 11.4952 57 58 53
28.3491 -3.95103 0.532699 48 35 23
25.7627 -11.555 -17.8086 68 71 57
-8.87721 44.7764 -4.81804 70 83 74
-26.0391 5.32096 48.0337 22 49 35
-16.2937 8.1277 -16.02 74 59 36
-6.03827 24.8027 9.20659 74 65 2
9.10915 -6.5732 -23.0868 70 49 29
12.8297 15.3291 14.6695 72 63 0
6.45511 24.336 8.60248 80 77 6
-16.3862 7.32617 -20.6422 77 51 26
7.77834 -26.3669 -29.3111 54 59 38
5.96592 22.275 -21.884 76 74 0
4.24253 39.3695 -0.442021 75 67 2
-16.4423 -3.61502 1.13354 71 45 16
13.9174 36.7879 -10.0138 60 59 65
-23.9726 -25.2114 -12.9183 32 66 24
-26.0055 -16.1707 15.0785 58 79 70
-24.2302 13.0201 35.8322 34 68 55
-26.1478 11.2195 40.3267 18 41 19
25.6632 0.403664 -18.8092 74 70 24
1.6268 14.815 15.7541 67 63 0
8.91624 21.4428 13.239 76 85 64
26.7894 6.21124 4.1494 87 85 0
-14.6733 26.8277 -8.49857 24 24 14
-25.7395 4.20581 17.8185 50 75 78
-25.6531 -1.74896 19.0119 40 32 22
-4.05669 -22.194 9.32888 7 5 3
-16.135 34.6931 -3.13198 39 16 5
-10.9436 -23.7549 -18.2178 17 19 15
-26.1774 9.58045 42.2426 20 48 40
-21.2217 -25.5969 10.451 79 102 48
8.62243 -26.6787 14.5998 85 106 17
-8.30632 -25.6143 -7.88087 45 61 23
-25.7722 -12.7697 7.98026 60 74 65
4.66865 14.0259 -28.818 68 59 7
-15.5593 44.2972 -1.73377 70 65 6
-16.6854 44.4165 -5.25606 85 101 89
-25.8742 7.10392 20.1006 48 75 80
30.6298 -26.8497 16.933 80 96 26
13.9814 40.5486 -2.81663 73 89 82
14.0797 37.0243 -10.7935 63 65 62
-25.856 -6.36897 15.59 52 78 78
-16.6801 -1.54398 -15.4437 66 42 18
-12.249 28.3765 6.94636 73 67 0
0.0213184 13.4717 -29.3797 73 66 12
13.3412 -26.7339 16.4946 71 99 20
13.2259 20.8566 -22.7085 73 66 25
3.01262 28.8018 5.61346 66 60 0
-19.1342 17.1649 -27.1658 62 64 9
-25.7285 -0.633827 21.1814 41 36 21
12.3247 24.5534 -19.4891 72 60 27
7.83489 11.7068 -23.7602 42 46 27
4.50021 14.2662 -28.6395 70 60 9
-14.5741 26.1996 -8.4569 14 4 3
5.03285 42.8759 -2.49073 78 74 6
-20.5983 37.6834 -11.3766 72 76 31
-25.8232 21.4643 12.9995 58 80 81
27.4615 -9.6924 -16.603 86 85 59
-11.8001 -14.6431 -13.1443 44 26 5
6.97696 2.50853 -24.8375 79 82 75
20.1809 -26.5115 12.1151 92 115 35
8.70404 16.7414 -26.4615 71 66 20
35.108 -9.40412 -20.8698 69 76 58
-23.9742 10.5647 17.2658 32 83 63
-25.8867 10.1953 17.7786 47 73 75
-16.6642 -4.27199 -10.0676 75 58 34
-18.601 -25.5625 -0.224974 63 81 13
30.2386 0.146576 -18.4158 78 79 19
5.35689 42.8145 -8.86326 73 68 14
-14.8311 27.9346 -4.83652 17 0 1
-29.5336 -25.7979 7.73699 54 85 27
28.1535 -4.2608 -11.1224 54 43 23
-28.3132 -25.0443 -21.2843 26 60 16
-27.9374 -25.311 -6.34834 26 65 24
-16.664 -2.14781 -19.0612 72 44 19
-15.6359 23.9009 11.6797 63 65 21
7.22765 -22.4235 12.3274 73 84 75
-27.7018 -26.3717 17.3093 53 77 54
40.3326 -26.5337 -21.513 59 76 53
-28.3436 -24.992 -27.4068 35 58 22
-24.0535 4.83629 34.198 66 96 105
-25.6683 0.374538 26.4463 59 77 76
-26.2477 9.77045 44.9394 42 67 71
-8.91128 28.3129 6.85866 71 73 0
-30.3163 -25.0358 -21.8503 18 60 18
0.525307 33.3603 3.25502 71 71 1
-6.69497 33.3905 3.81235 75 62 0
40.1477 -26.3974 -6.40817 55 70 15
-17.8922 -25.5257 -2.76755 61 80 13
0.275269 32.2051 3.89757 73 69 0
-17.4652 16.2005 -25.4773 95 74 10
6.48757 -16.0036 -24.8255 53 37 16
-17.2614 -25.3162 -14.3362 60 77 12
-5.0223 30.4201 -15.6986 69 68 11
14.05 37.9871 -10.3307 63 64 64
2.05917 -26.1372 -26.5434 47 55 33
9.17201 -8.80487 -22.8358 71 45 24
7.66455 35.588 -14.5149 95 92 1
13.9878 31.7192 -14.1781 83 83 67
25.9692 -24.3578 -25.4101 53 50 19
-16.0885 20.0362 -20.9538 41 21 4
-18.773 45.6158 -3.74805 62 76 67
-18.6713 17.659 12.337 95 87 2
13.6161 -26.5648 12.2486 85 109 16
17.5 16.7426 -5.3776 81 94 87
31.9937 10.1245 -11.9626 73 73 3
33.3624 7.7866 -11.1936 67 73 52
-14.0544 -14.3307 -16.5584 58 71 67
-23.9846 15.6328 21.9715 78 109 118
22.9128 12.5876 -10.6902 71 66 17
7.62495 14.2703 15.794 68 67 3
40.1362 -26.3941 -0.26081 60 77 17
-5.24593 30.854 -15.5006 70 68 16
-4.3764 -26.2752 12.5952 81 102 35
1.20808 -14.8082 -24.8053 64 64 55
-16.7043 -1.1143 -16.9827 68 40 17
-11.9188 -24.7135 -18.209 24 26 21
8.07141 44.6013 -5.11734 80 95 86
8.97192 -2.50704 -23.3786 71 70 62
-13.9672 -17.0689 -16.7685 63 77 71
-23.7978 5.0415 22.4717 74 107 111
27.3281 -16.0873 -1.2638 62 71 63
-16.5624 -25.7859 7.56037 51 66 25
8.44831 42.9145 -8.74709 73 65 18
5.33856 36.2932 -12.3894 72 73 0
38.8669 -26.8962 -28.4597 65 87 65
40.3538 -27.8247 -19.3333 57 81 67
-15.5924 -18.8641 -17.5179 78 93 80
-26.1969 20.635 30.0636 48 78 85
-20.0211 -25.2002 -22.494 35 65 31
4.17626 23.6452 9.32117 77 68 6
-31.54 -25.8637 -9.34025 64 82 70
-9.63258 -21.5426 -15.8049 32 28 6
-19.9472 40.3853 -7.73721 80 72 1
-16.5514 2.06204 1.77273 67 40 13
-16.4857 7.05764 -3.0931 69 39 9
2.20684 25.9568 -19.0495 68 58 15
29.6724 9.68412 -12.4246 73 66 14
35.1669 -10.1364 -14.6907 61 86 80
34.616 -7.08627 -17.1166 79 94 86
34.6994 -26.2767 -0.162798 66 73 30
-16.1093 -6.6451 6.48413 66 40 14
-8.93111 13.3953 -29.7833 70 66 4
-19.4845 41.1914 -9.72622 67 67 15
-5.08458 22.0102 -22.6824 68 67 15
-13.9824 23.8406 -6.78793 7 0 2
-14.5498 33.7417 4.20573 75 71 2
-16.474 -25.4001 -17.0931 58 78 35
32.8777 3.65071 1.67395 27 17 23
31.6243 -25.76 -27.7318 56 75 14
-25.986 12.1537 20.6206 43 70 78
2.19312 -26.1551 -25.748 49 55 33
27.5464 -19.5475 -0.914423 70 70 40
-24.4808 27.2431 23.5014 66 86 88
-10.9499 13.9414 -29.4722 68 64 5
9.22985 -19.4712 9.91672 50 34 7
34.5285 -13.1813 9.35787 78 85 76
9.46189 10.1143 5.27347 61 51 17
28.4716 7.87759 -14.6331 82 81 8
-11.179 33.4056 -14.2057 72 68 19
-23.6449 -26.0746 15.6661 82 108 48
-26.1576 20.6162 20.4539 51 78 87
-31.3787 -27.2058 -2.94517 60 84 62
-7.22811 -25.757 -29.6083 27 48 13
-10.3793 17.4955 14.5302 77 73 3
1.66785 -27.8491 17.5838 61 73 66
-2.19146 44.551 -5.29895 78 95 88
-26.0768 -21.6265 8.00856 40 31 9
-25.9227 5.88749 28.448 47 72 77
-9.17567 44.762 -7.58535 60 56 16
32.9313 -1.63621 -18.5562 67 70 51
-19.814 12.2452 -29.1721 92 82 13
7.15291 -22.4009 11.7832 77 91 79
-14.9461 18.8783 -25.5383 70 63 13
-16.1288 15.9626 -20.5576 44 27 11
35.1459 -8.95697 -16.1287 65 87 77
-16.3541 -14.4216 -19.8087 71 44 18
-13.8257 41.1866 -9.94154 66 64 13
-9.03433 23.6367 -21.4734 67 66 12
36.243 -25.982 -22.7918 103 125 37
-29.3088 -25.1752 -12.8332 35 73 15
-7.73902 -21.2471 -6.07043 24 27 10
26.2054 -13.5381 4.83876 78 90 81
-24.2681 16.8296 35.8865 30 46 30
-8.06933 -25.729 -29.2432 30 52 14
-17.0858 15.8573 -25.7043 99 79 10
-20.7366 34.9672 2.64344 72 85 81
-25.7566 -24.2632 1.07798 49 65 25
33.492 10.4145 -9.76682 70 75 58
6.84685 20.5836 -23.1744 81 74 2
-2.38692 44.6377 -5.09643 75 88 82
-13.9521 45.7839 -3.2554 81 78 36
-3.29016 35.7082 2.27482 73 72 0
-3.9577 20.9105 -23.5386 66 65 12
-11.8616 22.1992 11.2402 73 76 0
3.57362 -26.37 -26.204 52 60 34
-20.72 19.8993 -23.9465 59 66 49
19.3181 -23.6062 -21.1637 50 56 28
-25.9267 -23.3444 2.97217 47 69 16
28.1519 -13.8328 3.99514 66 42 24
-14.4793 14.2343 -24.7039 72 79 75
-31.2191 -26.861 12.802 61 77 68
9.25792 -4.00161 10.8498 74 54 33
-20.1562 30.7206 -13.5798 97 88 11
-23.9639 -4.18509 22.3461 83 114 117
6.6601 27.3066 6.49672 73 61 8
12.3788 11.7731 17.2241 74 71 1
9.17921 -3.5447 -22.7765 71 43 23
8.94098 42.6272 -8.89096 72 62 14
-11.6372 19.5459 13.1525 76 72 2
-7.46795 22.1336 11.1574 74 76 0
-19.9188 23.4711 8.14754 90 75 6
-13.8798 40.7065 -12.1055 81 84 60
-25.7096 0.51799 16.9899 50 79 80
6.73529 -4.89484 -25.1954 74 62 51
-26.0618 5.49331 48.4631 46 68 79
-0.514854 -26.6955 15.1784 84 108 28
9.2447 -4.8947 11.1221 75 64 50
40.3923 -26.599 3.23643 59 76 39
-16.5056 2.20135 -1.08324 69 41 19
-12.6578 30.5864 -15.6427 68 72 20
-16.1169 5.06439 10.9437 59 48 29
-16.4386 3.7171 -8.15038 74 42 13
28.9239 14.6711 -2.49699 77 70 10
20.9654 16.6983 -7.8717 72 65 21
12.5579 23.2152 -20.6488 71 64 27
-11.0583 14.9098 -28.7103 68 66 10
8.85905 0.633682 -23.2905 74 77 68
-14.3805 21.9643 -23.6497 89 91 12
-25.8579 -25.0184 -27.0084 30 60 27
29.8335 4.55899 3.50308 77 71 2
25.1653 6.45527 2.37152 76 67 0
-14.558 -24.4376 12.0153 53 68 57
18.2908 -1.60507 -20.1073 76 66 20
-0.966423 34.8467 2.56448 71 66 0
4.07049 -18.817 12.9414 56 40 24
7.24088 -23.392 12.3365 72 81 79
20.4267 -24.829 -10.3358 27 32 17
-26.0501 12.7096 25.4548 44 73 83
35.8177 -14.8751 7.95846 80 36 7
-26.2629 25.647 26.2716 53 78 87
-24.3622 -17.3329 4.83876 59 72 60
-8.44048 38.3959 1.12129 70 68 1
6.01707 19.4262 12.0982 75 68 0
0.58923 15.0721 15.6455 66 57 2
-25.6065 18.3452 41.0347 69 81 74
-25.767 2.08535 24.8158 51 73 76
-16.2533 17.0673 -6.48578 66 54 7
-11.4035 16.963 -27.0674 69 61 11
-18.9475 28.0319 -17.7805 67 66 19
-4.58871 15.9755 -27.6179 68 55 12
15.9986 -26.5309 11.4272 85 110 29
-26.1496 20.213 20.153 49 78 82
13.5386 -26.6862 16.0707 79 100 14
-19.9699 44.776 -7.46968 66 58 27
-25.5762 -16.7065 4.97265 77 96 77
-16.1174 36.8215 -4.45533 34 12 3
-19.8358 21.5106 12.1535 86 89 16
24.9314 14.0682 -9.65461 70 61 18
-13.3618 13.056 17.6923 80 73 7
-26.1945 25.5595 19.4567 46 73 71
-8.85879 2.90474 13.2775 74 73 44
-24.2874 15.5607 34.8755 37 66 47
-8.59767 20.5173 -24.0191 69 63 13
-18.4745 24.4 10.0711 85 82 7
-24.9812 6.73557 14.1282 129 145 137
-26.2042 10.931 40.925 21 50 29
-13.4337 27.8565 7.33484 77 65 0
7.31367 0.259014 12.5502 76 87 77
-25.6834 0.332726 21.179 45 28 7
-16.3226 11.7644 -15.3024 47 29 18
-15.7516 30.1734 5.69302 83 84 60
24.6794 8.02691 1.30875 78 79 11
-25.5127 5.25824 14.1631 26 51 30
-7.06728 15.0968 -28.383 68 69 11
-16.5502 -25.4958 -5.38727 57 79 31
-8.79096 3.44708 13.2232 71 73 45
4.23312 -26.0204 -27.4141 62 65 45
-4.24368 26.3596 8.02007 73 61 0
-16.5058 5.42001 1.67121 68 39 13
11.6149 -26.5028 -29.8103 36 54 16
-16.646 -2.01901 -19.9515 72 45 16
-24.2585 25.2869 19.3275 70 109 119
0.752266 38.5872 0.29483 74 69 1
-4.37947 28.2611 6.6304 69 59 0
-4.23309 23.7111 -21.2562 68 68 11
12.7125 26.5179 6.63429 70 49 3
-16.5131 -3.70496 -7.40575 78 54 23
28.7808 10.9829 -5.04369 38 22 1
27.5529 11.6184 -11.2461 73 70 14
30.982 10.3409 -11.9558 73 66 7
-23.9881 15.8167 16.3211 77 115 116
28.7883 10.63 -5.83626 56 41 0
-19.0094 20.9844 -23.8422 66 65 9
-25.9157 8.0323 33.9466 24 41 30
-16.4662 6.81786 -10.0298 69 40 11
-17.8919 29.5111 -16.1817 68 77 27
32.8067 -26.6891 15.9803 77 94 24
-20.7111 -23.3671 2.34303 13 20 9
9.15467 -7.42764 -22.6996 69 44 23
-7.10232 34.9355 2.98808 73 70 0
3.46304 44.4998 -7.83071 66 60 10
-16.4643 7.10537 4.57282 64 37 13
28.6872 16.0921 -3.41409 82 73 13
7.63347 25.1297 -19.7663 99 98 4
33.9767 -25.8162 -29.5445 27 55 18
-24.3006 22.6444 12.2929 61 72 70
-13.1106 44.5483 -4.94916 72 84 76
-25.9382 -12.636 11.0392 53 77 69
-16.9849 22.2188 -21.0833 64 55 6
33.1066 0.335999 -17.2648 71 75 61
25.5255 -11.565 -10.1433 17 1 5
-16.2609 9.14014 -21.7975 78 53 28
27.5653 10.262 0.150948 70 74 3
9.84911 38.5952 -4.17577 63 41 11
-16.2958 40.1304 -8.22595 38 28 11
7.39008 35.6212 1.33945 83 76 3
-15.0685 -10.9925 -17.38 38 44 41
-15.1618 25.4273 10.7755 66 75 64
-23.9865 8.65711 28.1675 71 101 106
-10.865 -25.419 -17.2798 34 56 16
-0.188723 32.4263 3.82053 69 65 0
30.2282 4.30788 3.68451 77 69 5
-9.09398 23.9473 -21.215 69 66 13
-6.30377 28.6189 6.44628 68 58 0
11.838 42.4836 -2.74875 80 73 9
33.8513 -23.5803 13.1619 73 84 76
33.4243 7.22686 -13.4215 75 73 37
-16.2409 -25.7674 7.33095 47 56 32
0.958471 33.7181 3.02486 71 72 1
8.29748 26.4591 -18.7936 74 77 58
9.31673 -1.78381 8.7589 76 49 15
-16.4706 6.69114 7.01312 66 37 12
-14.4893 26.0125 10.2915 68 78 65
26.6444 7.19298 -14.7753 96 94 17
-10.9783 20.5745 -24.0689 69 65 16
33.3395 -22.7154 2.87515 57 51 15
28.1676 -13.6792 1.31406 64 38 7
-16.5624 -3.20679 -8.90874 77 49 20
6.85719 -6.31477 -24.3889 74 85 78
-11.8822 19.144 13.4357 77 70 3
-25.8221 5.20898 21.5131 48 74 79
-16.0059 -18.3035 6.26994 45 29 11
1.98228 -26.1534 -26.813 46 54 32
26.4244 -25.7381 -31.2479 35 54 40
2.69109 26.3943 -18.6728 72 60 18
-10.144 -25.5369 -9.98796 55 70 16
-26.0469 20.2357 31.673 58 81 81
-6.84766 21.1617 11.7993 73 71 3
25.9977 -13.2306 -1.90526 24 3 0
-19.9683 38.2045 -9.29354 102 81 0
-11.64 21.4601 11.7961 75 77 2
-19.0101 -25.4523 9.85484 57 77 35
-26.4314 -25.0187 -24.4151 35 65 23
-20.8288 -25.3191 -9.49515 50 72 12
-15.9312 24.4758 -1.5386 67 43 9
-3.68807 40.4908 -0.452774 74 70 2
13.9908 43.837 -6.8219 71 80 73
19.8923 14.7528 -9.28497 70 66 18
-16.0288 -25.3632 -16.2198 55 75 33
-26.1999 17.4806 35.2301 25 48 47
-24.1042 12.3836 30.8411 34 60 51
-25.9652 -19.033 15.3527 61 79 66
9.59438 44.6172 -6.2617 82 97 92
-8.60121 19.3929 13.1239 77 73 3
40.0601 -26.1554 -20.5984 93 124 75
-26.2866 11.5778 44.5868 44 70 74
40.0973 -26.6836 12.5282 80 96 37
25.2041 15.4559 -2.96281 79 82 10
25.1968 -26.5128 12.0271 84 108 23
-9.57455 -18.4112 -11.9189 44 29 13
-20.6855 36.705 -10.8888 55 64 56
-8.00378 -23.0932 -12.1668 32 35 9
31.8451 4.13045 -15.724 71 60 0
-18.1831 -25.5698 -1.00988 61 79 20
-4.52246 25.5303 -19.7491 68 60 11
-26.0935 -22.8798 10.2805 41 32 11
6.32005 17.3948 13.6227 74 58 0
-12.2815 32.0042 -14.9172 71 75 16
-2.19734 1.29928 13.2021 71 74 49
9.22598 -18.9184 10.458 50 34 10
1.73189 20.397 11.8139 73 71 3
-20.4479 -25.2311 -17.068 55 77 28
-24.0052 8.79281 29.9715 66 98 102
25.5235 4.49718 3.66236 78 65 0
13.1349 12.1272 16.9729 76 72 0
31.0191 4.09741 3.85544 71 66 4
27.8052 -5.13739 -13.6104 67 43 9
-17.3109 12.7269 -28.4815 88 77 12
9.3784 5.60122 -15.2451 76 52 20
-26.0562 12.5479 29.7784 45 46 18
27.5867 -15.3718 -1.06441 65 71 56
32.828 -26.4093 -20.5612 75 99 43
-16.6454 -2.56572 -12.3697 75 49 22
13.6108 18.1241 10.1184 84 74 43
-16.5049 -25.3336 -13.1686 52 71 21
-24.2946 27.6553 19.6122 50 87 76
-0.484283 22.9981 10.1282 71 73 2
-9.63386 40.1917 0.17783 68 62 0
7.59398 22.889 -23.9751 93 91 22
-13.9349 43.4224 -8.53485 71 61 14
11.5696 -26.8641 17.2063 68 90 36
-20.7771 21.0276 12.2158 62 68 53
-10.3064 4.89153 13.3308 75 49 23
-1.19698 27.0032 7.34069 73 61 5
-31.3596 -25.8293 -2.32885 51 71 53
30.551 -25.7652 -27.4693 60 85 16
-16.0767 -24.1063 10.691 35 25 9
35.2948 -17.5228 1.09715 77 76 50
-16.2109 23.3825 -17.7489 45 20 0
-25.9247 -14.489 11.4615 53 68 56
13.4905 -26.5392 10.3898 91 113 23
-30.284 -25.4004 -1.61357 36 69 24
-24.346 22.5953 26.3144 57 85 84
11.6579 44.5092 -3.94539 84 79 11
-26.1593 23.3953 18.8053 44 70 70
-12.823 -17.1545 -15.7886 40 24 3
0.2229 35.1628 2.28812 67 69 4
-27.143 -24.9943 -28.3225 22 57 20
14.2873 36.83 -9.82235 40 39 36
26.7233 9.12787 0.764116 70 65 1
-9.52592 39.3824 0.635976 73 62 0
-1.34288 -25.8897 -29.1559 32 49 24
-20.4598 41.8396 -2.73797 54 46 25
-16.0617 20.8828 -2.90971 69 44 3
-25.8387 3.55915 23.3152 44 45 30
33.2116 -24.2829 -21.2197 72 86 42
23.8032 4.85147 -15.8368 74 65 21
-26.2179 23.9341 21.0086 51 80 88
-19.7633 25.8974 -19.6192 70 69 18
-12.9812 -9.85654 -3.7376 14 11 5
25.7837 -26.5894 15.0651 89 109 33
-12.0302 -12.2811 -5.93135 31 15 5
28.8881 12.1725 -5.78222 42 28 0
-16.4967 6.73103 5.88012 64 38 13
-12.4312 40.9636 -9.95741 73 64 16
21.9385 -26.5446 13.1882 91 113 16
-5.02157 33.0437 3.89296 73 65 0
18.3115 16.6996 -6.16542 90 102 94
-26.104 15.6551 23.782 14 47 16
9.37345 5.31778 5.98877 79 49 15
1.44728 -25.8524 10.4888 15 12 12
32.7623 4.78727 0.91381 13 3 15
-17.2517 23.5695 -21.5585 73 68 1
7.54328 23.6209 -20.7766 90 88 2
-16.971 -25.3768 -17.4153 56 74 33
5.88468 -26.7262 16.6882 79 102 33
-9.69261 -22.3478 -16.739 30 32 9
-16.6821 1.17087 -15.8499 69 41 19
8.0103 42.2566 -2.36656 80 71 7
-16.4023 6.51033 -13.7307 77 60 42
-11.9307 -17.2794 -14.9544 40 23 4
27.3926 6.40603 -16.7224 65 74 63
-14.9339 21.8197 13.3182 73 81 67
-22.1322 -25.0784 -26.16 33 60 24
-9.02717 19.7862 12.8664 73 74 1
-26.2549 23.0898 23.2437 46 77 80
-3.29397 -22.0306 9.36248 8 6 1
1.11185 -20.1504 10.73 3 1 0
-16.5495 -4.19544 -17.5303 73 47 21
-2.79709 -26.3576 12.427 68 91 36
-16.5982 34.343 4.05083 77 73 2
-0.296163 24.6226 8.96555 74 69 3
-16.3975 11.6684 -9.67093 45 29 13
-1.26357 -26.3956 10.1848 44 57 25
16.8526 -26.1754 7.86038 75 95 35
26.4352 -5.49156 4.78187 80 92 83
-1.89783 3.73127 10.5462 25 21 12
25.1312 -23.1542 -1.78899 33 35 6
23.3738 4.96048 3.42224 76 64 0
-26.1147 -24.625 9.31445 40 31 10
28.3816 7.08186 -15.8372 80 84 35
-15.7813 24.9768 9.8162 71 63 0
-27.4746 -24.9888 -26.2118 34 61 21
8.83203 13.3596 -29.1987 67 63 10
-16.5735 -3.52923 -21.7724 76 50 24
-16.5224 0.342857 1.98559 70 45 20
25.0827 16.718 -7.74933 76 69 29
-14.6383 -25.3445 -26.6129 37 61 29
-12.5232 45.4289 -3.92177 72 82 73
-0.0815506 12.8341 17.1769 67 61 3
-14.6347 -22.2571 11.5635 67 80 70
-9.44413 20.9518 -23.7017 68 67 17
-16.0324 22.4525 1.19011 69 49 3
33.5156 15.1453 -8.43075 77 66 30
26.41 -5.36805 5.67402 79 87 77
11.2526 40.7551 -9.81241 70 66 11
-16.4476 9.17036 -5.00166 69 43 8
-16.4676 1.06425 7.29526 62 35 10
30.0438 -26.0636 -1.1876 54 63 20
23.702 -24.199 -22.4779 52 43 21
-18.7642 -25.2439 -23.8936 39 72 29
-30.4519 -25.1233 -14.9413 31 69 12
-30.3158 -25.0155 -26.763 38 66 29
2.40744 20.5513 -23.5657 70 68 16
-12.7649 -25.5004 -8.03896 45 67 21
-11.0317 33.8305 -13.963 69 66 16
-16.439 9.31851 -2.55994 67 48 12
-19.6278 25.5851 -17.6255 116 96 16
13.9341 37.3689 -9.57818 61 58 63
35.1855 -9.40293 -20.493 68 66 23
-16.0347 45.5161 -2.44843 78 69 9
-25.8526 -21.5904 2.58112 50 66 31
-25.7252 10.5509 15.4988 35 63 54
0.320869 40.8703 -0.975639 77 71 4
-12.4791 -25.394 -27.1195 14 21 17
