ply
format ascii 1.0
comment Created by Open3D
element vertex 1405
property double x
property double y
property double z
property uchar red
property uchar green
property uchar blue
end_header
-9.90317 42.9632 -8.83671 70 60 12
1.93163 37.2957 0.936275 73 69 1
-19.5341 -24.9724 1.07159 52 72 22
18.6513 -23.1477 -24.379 63 50 29
31.1424 -26.4274 6.06087 57 63 26
-18.9559 29.5569 -16.1257 74 74 26
-15.0336 -21.7158 -17.4238 78 95 87
26.1501 -18.4896 5.73736 70 71 61
-15.4443 -25.2889 -28.9568 43 66 27
-0.691612 13.7974 16.5749 69 63 4
5.26909 -8.90511 13.1741 67 47 23
-6.12961 42.2615 -1.26495 75 69 3
-19.4497 24.6607 7.50783 86 78 10
24.0925 -26.5779 6.74922 87 98 39
32.3745 -25.393 1.09235 48 52 43
-12.5995 43.1552 -1.33894 71 68 3
-10.4338 28.0578 -17.7439 69 61 18
-16.048 -25.9931 10.9224 39 26 2
-23.8498 5.15616 15.4635 74 112 118
22.9336 15.9621 -3.30425 79 78 10
-25.2573 -2.21903 15.9288 56 78 75
-15.9388 30.7913 -15.5398 72 68 16
-24.3767 13.38 41.3456 56 86 92
-11.7106 -19.9641 -16.1065 37 27 9
-16.7099 -1.46974 -17.3979 68 43 18
-24.3997 -8.60569 20.6853 87 116 113
-24.6066 4.66203 13.8604 93 106 97
-24.1382 16.1244 27.7056 28 65 39
33.3062 -15.4534 2.88208 59 50 0
-6.29728 44.5256 -5.81829 85 100 92
-2.80448 21.3679 11.4093 71 67 0
-19.1943 23.3544 8.2948 95 85 6
-25.7355 -4.31128 15.2508 54 81 87
-13.7561 13.1817 17.6319 79 76 1
-16.0483 19.9622 -21.8214 41 27 3
-24.1362 15.74 28.6043 27 65 39
-23.8696 2.24412 26.0454 67 100 104
-17.7563 43.4316 -1.05648 69 68 7
-13.9499 34.6418 -13.3827 77 69 7
15.7681 1.06856 5.91962 75 72 4
-12.7318 32.4434 4.83078 77 71 2
-24.203 18.3948 27.6464 36 64 50
-7.52252 -21.7062 10.0566 31 38 14
17.9475 -26.6117 14.9166 96 118 26
-5.05905 17.479 -26.3998 68 59 12
-16.6045 -4.27072 -11.0639 77 50 23
-6.86721 19.8959 12.6806 73 73 2
-28.0103 -25.8758 8.85515 65 89 35
-12.2412 -14.0549 -13.6886 42 25 4
-24.5198 13.7655 44.2934 38 60 60
-25.9629 -17.8163 6.92249 53 76 48
-26.0921 12.7565 29.6712 33 39 17
-16.8223 36.348 -12.4274 79 76 2
-11.0307 25.0321 9.27395 76 75 1
-20.0315 39.193 -8.52321 92 72 1
-26.0659 -16.921 13.1887 47 45 27
1.74618 40.8716 -1.0815 74 78 4
-20.7023 36.5301 1.65474 71 85 79
-0.860844 -5.13075 12.9802 14 2 2
33.3248 -14.7946 -22.9311 70 89 75
-24.4901 13.3361 44.0617 55 79 87
-0.749237 24.5861 9.01707 71 68 0
10.098 42.5706 -8.89872 71 66 15
-25.6124 4.13224 15.6563 52 73 78
-20.8575 26.8088 7.92331 72 80 60
8.22532 25.5963 -22.4142 68 75 67
2.45806 44.8307 -6.48015 82 100 90
2.19492 22.8688 10.0173 72 68 0
-20.1939 26.743 -18.8193 70 64 28
-8.31215 -1.34966 13.2517 77 53 28
-18.4284 23.3356 8.38767 94 85 5
33.4221 -22.0134 7.30096 71 60 8
-16.6482 0.17667 -20.2324 75 47 21
-2.04277 20.2174 -23.9964 68 68 10
-14.3076 -8.95571 -16.2194 59 68 64
12.9769 17.2743 -7.20769 82 89 71
-0.59547 23.0354 -21.6612 67 66 13
31.2738 16.5611 -7.68199 72 66 33
-26.1731 16.9638 32.2999 17 34 20
9.10483 -21.2825 3.79136 47 29 3
-12.0762 -14.3625 -13.5406 44 27 3
-22.9894 -21.5816 2.53904 3 4 0
-16.6728 -2.28862 -16.4575 71 49 28
-27.9476 -25.904 9.45461 61 92 25
16.4521 16.7473 -3.86127 86 80 13
24.5792 -25.2898 5.83026 60 48 28
-0.394956 15.4116 15.4491 68 61 2
8.88549 40.1733 1.54419 60 76 69
-18.2121 15.5385 -26.0819 97 77 9
-23.8732 8.32233 18.2242 69 110 118
-8.74295 36.947 -12.2308 69 65 15
2.24254 34.2687 -13.5744 68 68 14
-18.2085 41.2826 0.176136 72 65 9
-26.097 -22.5522 7.15487 42 34 8
-31.1652 -27.7721 12.8101 57 83 64
7.59946 38.1221 -12.2562 94 93 1
-10.4933 29.0986 6.27916 70 66 2
-16.6272 -2.99299 -19.2432 71 44 16
-1.5014 26.8991 7.44238 72 60 2
-23.9807 -4.67226 17.6254 66 53 35
-1.1082 24.5362 9.08073 71 67 1
1.31206 12.2663 -30.0233 75 76 25
27.4545 9.11762 0.760479 70 73 0
-12.7032 19.9589 12.8708 80 76 4
-16.65 -1.53192 -19.7424 71 45 17
-25.1003 18.5451 40.6105 32 47 41
-19.9108 32.1567 -12.6783 114 100 0
-31.5803 -27.2267 -10.6113 62 78 64
-8.12273 -25.098 -18.0155 28 33 13
2.86499 19.785 12.1505 73 70 1
-24.3423 23.4551 26.416 44 79 59
-11.0362 30.3637 5.47101 80 77 8
-23.9626 -13.3589 11.1898 68 94 86
-16.3001 19.6683 13.2228 82 84 4
7.44825 -10.5763 11.4592 86 101 94
-1.02279 1.17461 13.2423 72 74 47
12.1652 -27.8716 17.5156 56 72 63
31.246 10.3976 -11.9054 75 68 8
1.45154 -24.9157 10.7943 50 59 51
-25.61 -1.35784 18.0014 50 77 75
-26.2429 -25.6379 7.04287 43 36 5
1.83207 44.2622 -8.02331 67 59 15
-8.87719 22.8524 10.725 74 74 2
-16.1281 32.964 -11.9602 27 7 0
-17.5524 -25.4226 -7.47783 53 76 20
14.149 36.3247 0.319206 58 72 19
-20.038 25.8724 -17.3446 106 93 32
13.1877 36.2682 0.532825 77 74 6
32.0374 6.32998 2.44446 71 65 4
13.6549 21.7734 -21.8328 62 74 32
5.12275 17.8636 -25.6407 70 62 12
5.11835 21.5163 -22.605 72 73 0
5.35888 4.15097 13.2575 66 40 15
32.8802 -25.7568 -27.6911 35 60 9
19.58 -9.24238 5.28765 69 40 17
-13.7989 16.575 -27.4857 67 59 13
-24.4028 5.93618 44.7954 54 80 91
-26.0002 25.312 16.2177 55 81 84
8.30848 -13.8821 11.1398 73 86 80
17.2136 16.1987 -3.43736 83 75 11
11.9085 20.6632 -22.9838 78 74 19
-16.3641 42.4038 -0.619438 71 70 10
-5.19215 -17.5929 9.6867 3 2 1
-17.9182 32.2358 5.38459 80 76 2
-20.7656 31.3938 -14.3803 69 78 64
3.42532 38.1511 0.312431 72 66 0
-4.05429 -18.5253 9.53255 5 3 1
16.444 17.0313 -4.37874 86 79 16
31.3937 12.0138 -10.8507 75 68 14
32.2579 14.2193 -2.28048 74 74 8
-24.3473 22.5414 28.2897 42 72 60
-16.6669 -2.56055 -16.5046 73 49 28
-23.8302 1.09513 17.3713 83 123 131
18.2842 -11.6889 4.848 1 0 0
31.5265 -26.6599 10.6198 85 93 32
28.3717 4.20224 6.55502 66 72 34
19.3857 -15.1797 4.79094 0 2 0
-24.0952 -20.656 10.6316 61 47 18
-16.4728 -7.97095 -18.6832 69 41 16
-16.3692 -19.7279 -18.6202 52 38 17
31.616 -26.8538 17.1673 66 83 46
1.3884 35.1909 2.17274 71 70 0
8.73555 25.4453 -22.5167 72 80 66
7.69612 26.4761 -21.1925 81 85 17
-20.3461 43.8089 -4.47366 51 51 41
-6.77789 25.1223 -20.1549 67 63 17
-25.9726 -17.1114 15.472 61 80 70
33.7549 -18.049 6.51551 71 25 5
16.7823 16.9909 -4.12462 87 78 12
-20.483 39.3349 1.34642 78 82 44
-14.2236 44.7752 -4.6569 67 80 72
-25.6528 3.89857 16.1639 50 76 78
-12.5531 25.0472 -20.3577 68 61 22
-19.8852 39.0056 -8.74334 97 78 0
-18.4926 29.0681 -14.785 109 110 10
-24.3708 20.2829 30.823 58 87 94
-7.45461 -27.0102 17.6379 54 70 58
9.19715 -20.0868 3.12428 40 29 3
-25.3517 -2.81942 16.4762 59 84 90
0.420879 13.6559 16.6132 65 56 2
-26.0801 26.3312 17.8958 39 64 60
-14.8596 -24.43 11.0946 72 88 77
-16.6006 -4.72303 -21.8691 72 47 20
11.4703 29.5927 -15.4626 77 73 22
32.2278 6.73668 -14.0241 70 69 1
-9.56241 15.5816 -28.1279 68 66 13
-0.0614433 40.3044 -10.3356 70 69 13
33.4296 15.8037 -3.36149 75 73 13
0.655758 20.0693 12.105 71 72 2
-16.8981 -25.4643 -5.79727 46 71 28
-18.8398 28.2164 -15.4776 113 110 23
12.6653 14.3607 -28.2672 72 66 26
19.1148 -26.0918 5.62357 42 48 24
-4.48245 33.0741 -14.3452 70 63 16
17.5584 16.0176 -3.3215 83 72 12
-24.4425 4.57834 46.2984 51 82 88
-16.4225 -3.99813 -1.59702 73 47 19
-15.6271 43.4839 -1.28828 69 62 8
-0.159698 41.676 -1.41534 76 74 6
16.3797 -23.0722 -22.2699 29 37 30
-4.5417 20.2838 12.2764 75 67 3
-24.1127 -4.59044 23.0923 69 82 78
13.9637 42.0481 -7.85427 73 75 76
-20.6356 30.2869 5.88487 70 81 69
-20.67 39.0082 -9.24407 56 51 26
17.2864 -22.1558 4.57985 80 95 74
-16.6478 -2.78379 -18.4272 69 43 15
5.65776 36.8746 -12.0846 76 72 1
-16.8498 -25.5854 -0.341953 62 79 24
-23.4003 -25.0904 -28.8606 23 56 23
-20.7113 30.9169 5.30761 74 86 74
-23.9597 13.433 17.3378 74 103 110
-20.7034 18.2566 -24.8308 58 67 52
33.2387 -25.0265 -20.9848 76 95 34
25.8335 12.3207 -1.02425 74 72 7
7.19977 28.4877 -16.2964 61 58 28
-26.0846 18.5501 18.3288 20 48 31
-18.933 26.8725 -16.616 115 100 10
33.3764 -14.9799 3.0621 61 50 2
5.35812 2.11918 13.2816 65 45 20
-18.9583 26.1603 8.8856 85 75 2
-20.0596 27.5187 5.6259 88 80 6
-9.37573 -20.3101 -13.8127 32 30 5
-20.5595 -25.1544 0.605713 50 68 23
24.6163 -24.717 -26.751 45 47 23
-20.2253 -25.465 -3.8713 52 78 25
32.8815 -1.08006 7.04043 75 69 11
-23.6119 -24.0747 0.53133 8 1 0
26.7804 -12.4419 4.30758 80 92 84
4.00807 -16.3811 13.0177 53 40 25
32.8038 2.58897 4.76042 70 67 0
16.6054 -26.8116 17.0988 87 111 44
-25.6953 -5.48917 12.5697 65 80 72
19.799 14.4495 -2.32147 78 73 11
9.18069 -21.0725 9.6864 48 33 4
0.120264 29.167 -16.0601 68 74 22
-24.1127 12.4086 29.5339 71 79 60
-12.8857 37.4539 1.79705 75 73 10
6.21308 16.5995 -26.6892 71 65 15
-25.9056 -9.95832 13.7697 54 76 74
-18.2626 28.6023 -15.1718 109 108 50
-24.2327 15.9785 32.8704 33 59 32
2.32806 32.6615 3.47062 71 61 0
7.52455 18.4034 12.6555 75 68 0
-1.17363 -19.2717 9.94781 3 1 2
23.0743 14.7824 -2.5587 77 77 10
7.56037 36.9551 -12.0758 82 80 1
-16.9787 35.3373 -12.9597 77 74 1
0.258619 24.7238 -20.1987 64 57 9
-11.8501 27.4137 -18.343 69 61 20
-23.7678 -25.1519 -0.365669 35 48 17
-4.07292 42.324 -1.48221 74 68 3
-24.0773 -20.185 10.8715 59 46 18
-31.3283 -26.9856 0.967361 61 82 63
-8.0386 42.7096 -1.36771 75 70 0
-8.21887 -6.28833 12.7465 56 46 43
28.6721 -26.4997 10.6884 96 113 74
-16.3769 -15.6594 -18.4081 52 36 13
0.303783 33.939 -13.793 68 71 10
-25.8993 -21.7668 15.6625 62 81 60
39.4371 -25.9747 -21.6297 86 102 39
-25.8992 -8.5285 14.633 54 76 78
13.459 19.3966 11.6528 74 69 12
-9.34661 -21.3514 -15.0903 34 31 7
-20.6924 36.7997 1.94369 72 86 75
0.629925 31.02 -15.3105 70 72 13
26.9454 -24.7417 -21.1049 24 31 16
-22.1576 -21.7053 4.88018 15 9 9
-24.3498 26.6559 22.7269 48 78 71
-8.04411 13.4447 -29.7146 68 70 1
12.2131 -26.581 10.8131 88 111 24
37.3695 -26.0949 -10.7078 64 77 12
4.21128 40.1628 -0.885128 75 66 4
9.69802 35.4582 1.41969 80 84 0
13.2784 0.0312576 6.55689 80 70 2
9.18097 40.5519 -1.09163 78 83 29
-24.4229 10.6842 43.96 38 64 51
-12.0193 45.6613 -3.05305 80 78 8
-4.77755 16.9234 14.6512 73 62 3
-15.4072 38.0431 2.5395 69 75 56
33.2606 -26.6866 15.7444 81 100 25
23.1602 0.558784 6.22987 74 73 1
30.08 -24.9617 -23.9121 47 54 28
-26.0774 -16.4288 13.2332 46 38 18
-23.9299 15.7269 12.875 48 90 85
1.45657 17.0209 14.2133 68 62 0
-19.0561 2.03379 -4.28118 70 71 60
-23.9884 12.2732 16.1042 73 103 114
0.986198 13.8235 16.4732 68 59 1
-0.953667 41.6167 -1.31058 73 73 5
-20.093 19.3419 -22.9071 69 62 9
-25.4242 6.7554 48.9647 78 96 90
-15.1148 16.8219 -24.8219 100 84 17
-19.3918 44.3418 -7.9016 65 61 15
-0.117102 15.3449 15.4771 68 58 2
-15.8644 15.2533 -28.6459 65 64 10
-16.7016 35.7023 3.22639 72 75 0
19.3699 14.8683 -2.59261 81 68 9
-25.3361 -2.40826 17.7035 46 68 73
1.13154 -9.63043 12.8557 2 1 3
6.12699 4.09634 13.2641 64 39 17
12.0912 14.9717 14.9693 73 63 1
-26.0504 -17.4197 13.1399 49 56 37
8.97454 44.8523 -4.57215 88 89 64
-23.8371 6.99266 16.8746 60 102 101
-19.6946 39.5633 -8.29372 82 69 6
-16.596 -3.58571 -20.5244 75 54 34
33.3881 -22.3713 6.33778 76 62 11
-24.1822 8.91103 34.6551 57 88 96
-25.2433 -21.2516 16.6725 75 89 81
-20.214 39.0081 -8.6202 89 70 7
15.6568 -15.9449 2.70584 16 16 13
-8.88216 -25.4576 -14.1054 43 64 17
-26.0018 -10.8593 16.8763 60 79 77
-16.6329 1.68047 -19.2527 72 44 20
-18.1366 23.8079 -21.3718 72 73 6
-26.1581 18.6269 29.5509 45 78 86
9.1821 40.718 -1.718 77 78 52
-2.75697 -28.0413 17.5639 59 72 67
12.8393 34.9466 -12.7302 72 66 0
-3.62943 18.3597 13.5699 71 64 2
-24.048 11.493 28.882 61 97 103
-12.959 14.9321 16.4433 80 68 4
-9.48414 21.8242 -22.971 67 68 14
-15.1212 29.0344 6.54092 77 67 1
-8.5245 -17.213 11.4771 75 88 80
-15.2368 19.494 -25.0363 75 71 7
4.41047 15.2745 15.2692 70 59 3
-24.1232 -18.5602 4.08457 35 39 32
-16.6741 -1.01846 -13.3773 69 41 13
-3.60949 35.4246 -13.0381 68 71 14
-7.82446 37.1245 -12.1297 69 65 12
-16.074 37.2786 -6.15237 53 42 3
-5.38848 44.9347 -6.55935 77 91 85
-5.41479 43.359 -1.96861 75 74 5
18.7183 -14.3526 4.54182 0 1 0
5.21829 -19.4663 12.9332 56 39 21
13.6384 6.42836 2.38916 81 66 6
-26.1988 10.29 41.4295 34 59 58
12.7263 0.873581 6.03713 82 75 4
-8.78997 -0.132656 13.3082 81 57 33
-15.5269 -18.3243 -17.5248 75 90 78
-10.9912 16.8207 -27.1425 68 60 11
32.1152 16.1701 -5.61054 81 100 93
-24.0309 13.6459 26.2776 54 75 47
-24.093 -21.1311 8.21978 64 56 21
-25.7258 15.4715 12.6669 39 62 53
-3.68076 16.778 14.6902 73 65 4
-17.6959 45.0442 -4.29971 67 79 69
17.5597 -26.6332 15.0191 100 122 29
-5.82992 23.1175 -21.8042 68 58 11
30.7462 9.56818 -12.4428 75 67 6
-16.0137 31.9112 -14.9639 74 68 14
23.2298 1.91143 5.3861 74 74 0
-20.6178 32.4028 -12.6549 36 46 33
-8.54384 -14.8267 11.7948 78 88 78
16.2449 -19.5568 3.3042 80 97 85
8.10301 0.873604 11.3805 73 88 82
-25.5862 1.51532 16.9301 52 78 81
15.3206 16.9185 -5.15298 83 90 84
-20.024 31.1266 -13.3598 110 99 6
-24.1132 -10.6622 9.71556 60 85 75
32.5945 3.49229 4.23478 69 63 5
-15.9249 21.6837 -24.4081 81 84 6
-16.0518 33.7563 -13.8421 86 81 27
-24.4874 5.41804 48.2516 27 50 35
-31.2383 -25.4532 -4.14353 26 51 26
13.6133 -26.5303 10.3928 93 115 24
12.9133 26.9172 6.33445 66 43 2
21.2927 16.8201 -6.51213 86 100 93
-25.81 -26.7624 17.5696 70 85 77
-24.809 -17.2782 17.7683 71 87 82
30.2178 -24.9682 -22.6134 52 53 33
-3.19657 16.0373 -27.5055 69 62 12
-24.8668 18.5491 41.2435 53 63 58
-16.4793 -5.90083 -17.9846 74 43 18
33.7535 -27.7052 17.4608 60 76 63
-19.8524 39.9319 -8.03186 84 70 4
7.63086 34.9618 -13.4746 93 94 4
-24.0355 -18.3849 7.12772 69 92 57
-29.3918 -25.4746 -0.0825119 41 71 23
-7.75289 21.769 -22.966 68 67 14
-7.07174 31.7861 4.6985 80 75 1
7.45959 22.1676 12.719 69 74 35
-4.52747 43.737 -2.27299 75 69 5
-24.5329 7.82097 47.0509 47 72 66
-16.2291 10.7839 -17.9642 69 60 25
-24.0093 -12.5879 12.3294 75 99 92
-25.9084 -11.5451 13.1385 56 74 69
5.03945 40.1579 -0.953701 73 70 1
33.3897 -18.7321 -22.0105 78 99 71
-12.4631 34.8775 -13.3732 70 68 15
11.4886 1.16859 5.80372 81 73 7
7.5393 24.6316 -20.6272 95 96 2
-16.4971 -8.34491 -19.0916 71 43 20
30.9768 -26.4252 6.33561 57 64 29
-17.6966 21.3645 -23.4792 70 70 4
-16.847 34.5004 3.97979 73 79 0
12.3893 15.185 14.8001 72 62 1
-24.3673 -22.3754 1.57102 53 68 50
14.3356 -0.632645 6.96643 78 69 2
-15.5212 44.4932 -1.84618 69 68 5
-19.1344 20.5539 -24.1906 66 66 9
-0.50001 17.937 -25.8534 67 71 14
-25.3328 -2.5823 15.978 66 85 89
-11.8001 -14.6431 -13.1443 44 26 5
-11.5817 -22.7844 12.8032 54 38 18
-8.50546 -12.884 11.5735 74 88 80
39.9863 -26.3762 0.594379 71 90 4
7.10019 -25.8965 12.4024 66 66 55
8.5224 31.3218 -14.8688 73 67 18
-16.6341 -3.84062 -12.383 75 49 21
-8.53809 23.4222 10.3152 71 67 0
22.8169 -21.7636 5.76467 61 53 33
-25.946 -17.37 15.9535 61 81 70
5.53315 40.1525 -1.00403 77 72 3
-16.6136 -1.39817 -22.4703 77 51 26
-26.0039 -11.8554 16.0629 58 78 71
-8.36447 -16.7576 11.192 58 66 60
-25.769 6.68427 16.1985 48 76 79
-0.343773 -23.4049 9.92365 0 1 0
-24.0748 9.07727 31.1936 60 92 93
-20.1317 42.6578 -8.89394 68 63 17
-8.57115 22.1471 -22.6866 66 64 12
-19.8574 37.7642 -0.15799 80 72 1
-25.7982 14.0258 14.5587 50 76 81
22.743 12.569 -1.17913 74 73 9
-15.7551 42.6278 -0.820587 69 68 8
12.2875 41.4089 -9.45442 67 61 9
-24.2884 22.1549 25.3221 64 95 99
-16.6842 -1.40451 -18.1663 68 42 17
-17.4652 16.2005 -25.4773 95 74 10
-19.5567 -25.5443 -0.294918 49 70 27
13.6837 20.6383 -20.6782 77 79 36
-11.5722 42.4867 -9.09899 71 60 12
-15.8813 31.2255 -13.5147 33 26 12
7.68612 38.9673 -11.3609 90 86 2
2.27664 41.2623 -1.35394 77 75 5
13.502 37.8307 -0.340954 78 66 7
-4.87387 16.7561 -26.9916 68 59 11
3.55 -28.0857 17.5786 56 70 61
-19.9406 32.9765 -12.1735 115 94 1
10.9634 31.1956 -14.8008 75 65 14
-18.969 26.4192 -16.9935 115 99 13
-5.07406 38.2457 -11.485 70 62 13
-25.9698 -13.3831 16.71 61 80 76
-18.6713 17.659 12.337 95 87 2
27.3667 -25.7695 -31.9681 30 43 21
-11.1411 17.4762 14.578 76 68 0
33.6347 -19.3455 4.17085 65 71 67
-16.1066 32.5947 -6.39563 51 33 0
-12.5867 19.1746 -25.2388 69 62 12
16.3376 -26.5796 13.5034 85 110 29
33.3223 -23.7841 8.85473 78 64 5
-18.9248 38.8333 -11.0323 70 71 14
1.16683 -15.0473 -24.676 60 66 59
-13.1706 39.1509 -10.883 79 74 14
-16.5936 -2.42045 -22.2781 74 51 31
-23.8752 4.03765 26.142 70 104 109
-17.7824 15.7234 -25.8909 96 77 6
-16.6113 -4.07931 -22.5329 73 50 26
21.291 13.8583 -1.94897 77 77 11
-10.8692 17.8336 14.3185 77 68 2
-13.073 12.2071 18.1609 77 78 11
-30.899 -26.9374 14.2425 71 86 75
-9.15497 -1.08828 13.2698 77 50 21
30.6751 10.1596 -12.0892 75 69 7
11.8808 -26.2734 5.87405 81 100 32
15.2303 -24.4066 -26.6851 42 48 26
-26.0574 -16.0893 13.5043 47 45 26
24.3469 -26.492 11.0223 82 103 29
-24.3443 15.1619 11.1639 37 66 65
-4.18732 42.962 -1.85121 75 66 4
6.66069 -21.5319 12.8598 53 35 20
27.3706 -26.9154 17.1153 85 102 37
-24.6884 23.8896 29.2264 62 82 80
-15.6218 -19.1374 -17.5187 77 90 78
-24.0853 11.9271 30.9746 39 68 61
-25.274 -17.259 4.68209 96 117 92
-10.3795 18.1373 -26.037 67 65 15
16.7135 -25.7374 -28.8811 33 40 9
-24.0972 20.0629 21.6677 78 112 118
1.12551 -21.0154 10.7198 3 2 0
-13.7136 -10.8543 -15.3097 52 31 3
-16.6085 1.32476 -22.0163 76 48 24
-24.3652 16.3433 39.3473 40 58 42
-16.6096 -4.82075 -22.2668 72 47 23
-16.9986 26.5767 8.43745 81 70 3
9.99386 33.6956 2.27819 81 85 50
-15.1712 -22.8119 -17.4038 77 95 88
-24.4138 8.47185 43.1038 49 79 86
26.4836 4.93377 3.34134 89 79 4
21.3228 13.3563 -1.66016 76 75 9
-26.2375 12.7385 48.1001 52 78 80
-27.5885 -25.4904 0.04702 46 76 20
-23.0626 -25.5669 8.52411 55 57 31
4.55147 25.1235 8.26393 76 66 5
-23.1562 -19.9681 5.59223 63 88 42
-8.88919 16.9622 14.8162 75 69 1
-25.6988 5.4362 35.5902 45 69 74
-16.5825 33.3759 -14.1209 76 69 18
-9.40232 -22.5506 12.7687 54 34 18
12.0115 35.8567 -12.3104 72 72 4
13.4713 30.25 3.70951 67 55 1
-16.9876 37.8943 -11.5727 79 71 2
29.2543 6.29686 2.38932 81 81 4
-14.2558 44.3902 -1.90043 73 67 3
11.2407 -17.6625 1.14083 4 4 2
-8.26295 36.8311 -12.2927 70 69 14
-1.90942 2.0547 12.1854 63 69 61
3.71215 37.215 -11.9435 72 68 8
-25.1391 -1.88476 14.5164 69 85 83
-14.5297 21.8716 13.2796 73 81 64
-24.0332 19.4061 16.2832 115 146 151
-23.9014 15.4103 13.1546 53 92 89
13.8295 32.2593 -14.0452 75 67 30
-14.5541 -20.8902 11.8316 59 71 62
-19.9063 36.4448 -12.3489 70 64 14
13.7712 24.741 7.83456 68 52 5
0.203608 42.4912 -1.90746 76 72 6
-12.4603 -14.2618 13.0116 77 50 20
-25.8663 -23.4489 2.27303 49 69 16
-20.0809 12.307 -29.1504 91 81 14
-6.74461 17.4677 14.3599 75 68 2
-21.2384 -23.9994 6.96235 11 24 10
-25.868 -24.2571 2.1887 47 67 7
38.1218 -26.8019 16.1577 75 89 55
-23.9225 8.50138 17.3545 67 110 116
-24.8074 22.4879 30.4093 66 82 73
-26.1624 18.405 24.9208 15 45 28
30.9969 -27.9545 17.4962 58 74 61
17.9083 -3.17101 8.3479 73 66 0
-18.9414 14.3105 -27.2306 97 78 3
-14.172 39.0657 2.20274 65 74 61
10.5505 15.0517 15.0476 72 67 1
19.4751 -11.7646 5.07431 1 0 0
6.37473 25.7445 7.60954 81 73 5
-19.7494 31.9191 -14.8535 70 72 23
-15.8271 25.0991 -17.9746 50 46 4
9.42868 26.4574 -18.0859 70 62 18
-17.1299 22.1405 -22.7695 72 67 0
-24.0765 -19.3616 12.308 64 50 29
-6.1188 27.8464 -17.7896 65 54 14
-26.0331 -24.4852 10.966 53 73 26
-16.6516 -2.80468 -14.3675 71 45 18
5.50228 36.0364 -12.5329 74 76 0
-11.6087 -14.9729 -13.0249 44 25 5
-19.6472 26.5899 -19.0258 70 65 20
0.162144 12.4099 17.4421 67 62 3
-18.5511 16.9559 -24.9045 89 92 8
5.79016 40.8525 -1.41032 78 70 4
19.352 -23.7082 -20.9109 50 56 27
1.51642 -22.0173 11.666 71 84 77
13.7025 -19.1104 1.94021 3 2 0
-16.5684 -4.96465 -19.6273 74 39 12
-23.9859 7.98785 29.1722 66 100 105
-20.0766 30.5032 -13.7276 106 90 7
12.5256 -26.5731 11.1691 92 115 29
-24.0246 -12.8391 10.3343 70 101 89
30.7857 -1.79018 7.64326 76 66 0
9.87539 23.7695 8.53691 79 73 0
21.5989 13.7975 -1.9048 77 74 9
16.3456 -23.1865 -23.7936 36 42 22
-2.16481 24.9737 8.84208 70 67 0
-6.55367 30.469 5.16487 77 69 4
5.468 29.0312 -15.9526 75 72 24
7.5573 36.4729 -13.4474 96 92 0
-4.87272 19.9391 -24.3535 66 61 7
18.6736 -21.2769 4.7527 13 14 7
-9.63092 -19.9124 -13.8705 32 30 1
-24.4078 19.2257 34.5608 77 105 105
11.0923 33.2736 2.34302 73 68 1
-25.5581 1.7521 16.4347 53 78 80
-20.3014 23.6875 -21.4638 67 66 14
-15.8192 -15.9375 -17.6024 80 83 69
-24.1033 -0.473793 15.0793 50 70 61
-13.7688 -19.0866 12.947 60 43 24
-24.0991 -19.911 13.4299 75 100 74
12.3156 34.3912 -13.0287 74 69 4
7.03272 38.2862 -11.2754 83 75 0
11.6284 15.562 -27.3225 70 69 28
-25.98 -17.4641 15.1962 60 80 68
-18.064 37.1942 -11.9482 71 69 3
-16.136 44.9654 -4.39587 67 80 72
-25.4397 2.91203 14.4314 57 77 81
-31.4405 -25.9271 -17.7044 67 84 77
38.9264 -25.9225 -21.3869 78 100 34
-4.91345 24.0431 9.67809 73 67 2
-18.5277 31.7653 -14.9687 70 66 21
19.2558 -26.6084 14.2955 92 115 22
18.0199 -17.8335 3.99945 3 2 0
12.0311 22.2952 -21.5412 70 75 22
-24.0463 -13.762 11.6904 71 100 83
-6.92357 -24.3072 9.61013 37 48 21
35.8486 -27.0122 17.1579 55 71 41
-26.1069 15.4917 27.0005 12 46 18
12.6028 15.7389 -27.1219 70 65 26
3.70088 37.5889 -11.7596 71 67 15
-11.8702 44.4969 -2.12584 70 68 3
5.86419 3.13326 13.2453 61 41 17
8.33854 1.80113 11.3627 74 90 84
-25.3183 -1.74785 16.0127 52 70 76
-2.79188 19.3044 -24.8194 66 63 9
-19.3547 17.1115 -24.8452 93 87 8
-14.1345 38.7235 2.38679 67 72 66
0.105536 14.4756 -28.6181 69 60 12
21.7549 4.0042 4.07373 76 69 0
-12.8125 45.0462 -4.38919 69 81 74
-3.8276 16.2965 -27.3133 69 61 14
0.076355 19.0816 12.8455 70 68 1
7.25331 44.8689 -3.95591 86 77 8
-15.261 -18.4354 -17.4775 73 88 79
-13.0803 43.599 -1.54904 69 71 5
9.81827 32.0675 -14.3904 75 74 20
4.47374 13.03 -29.581 68 64 6
-24.4289 28.6636 19.4563 73 100 94
-24.0907 -20.8159 9.30475 62 48 16
-13.5887 -11.126 -15.1188 43 26 3
-22.5358 -25.4079 8.89955 40 51 25
16.9551 -16.9831 3.37942 14 0 1
-26.083 17.9867 18.0741 30 58 46
-5.69482 36.7701 1.84772 70 70 0
13.6567 24.4877 -16.6961 82 63 5
7.41717 24.2606 10.5354 93 97 10
21.1462 -26.5608 13.5052 95 117 23
7.16551 15.2299 15.1502 67 64 1
-24.1046 6.34528 33.6777 30 48 33
-25.9973 -16.8528 14.9872 60 81 70
3.16916 -26.7261 17.0855 85 107 24
-4.4855 16.7472 14.7578 73 62 2
-25.1769 -14.4771 6.64824 91 108 93
13.4893 -24.4483 -25.9865 48 52 31
-14.8881 26.7357 9.49757 64 76 62
-24.5906 8.96943 46.9818 58 84 86
-9.80316 42.9985 -1.40458 71 64 1
-24.0409 7.61558 32.0469 48 79 74
-9.71982 -22.2895 12.7962 53 37 15
21.7094 -26.7941 16.8137 76 90 27
33.9031 -28.3551 17.5406 68 88 66
-5.74217 20.2694 -24.1427 67 59 15
-18.6545 26.5178 -19.0942 69 67 20
-16.4241 3.91194 -22.9864 76 53 33
-24.6032 26.821 24.7272 54 70 68
9.52356 -26.7026 6.78404 82 92 49
-16.2488 -10.8222 -17.8651 71 48 28
-26.0871 -20.4015 10.2045 40 33 11
-14.0578 42.6317 -1.00008 69 61 6
-24.5168 14.8877 44.1245 29 49 35
-7.12062 -26.1373 10.5042 62 90 39
-0.0835962 38.1277 0.622574 74 74 2
20.2111 -26.492 11.2299 90 114 33
-26.2051 20.1507 23.5943 39 67 68
-4.05663 20.583 12.0456 71 73 1
-8.59878 -20.4262 11.8393 79 91 79
-25.8533 -17.685 17.3977 61 80 70
-17.3553 15.9098 -25.6936 98 77 8
-25.9739 26.1452 16.2145 56 80 80
-26.1373 16.7881 27.6257 18 45 23
4.14471 44.8779 -7.22205 78 81 63
-21.0034 -26.7735 17.5481 61 82 71
-18.5065 -26.1328 16.525 87 113 47
12.4318 27.565 -16.5748 71 64 25
-23.9759 12.8828 21.0032 51 89 59
-6.85995 33.2393 -14.2898 73 67 16
-13.7766 44.1407 -1.8005 70 62 3
-26.0054 -13.7937 15.18 57 79 72
-1.58058 34.2174 -13.6608 69 65 15
-17.3975 16.7208 -25.0838 96 78 11
-26.1968 17.4538 34.5869 24 45 39
-17.3018 43.1413 -0.946884 67 67 6
-12.9665 21.1053 12.0604 76 72 11
-26.1589 26.859 19.7031 29 55 41
-10.1555 23.9754 9.99401 76 76 1
-24.1126 21.029 20.4716 83 114 119
2.80702 42.6326 -2.18542 79 68 4
11.3724 42.3269 -9.00784 70 64 11
5.64107 28.8274 -16.0913 64 67 26
2.57961 -0.610676 13.2973 69 48 25
-24.8045 -16.9191 5.10566 89 105 89
-17.328 45.476 -2.34554 72 67 4
-25.9628 -20.4893 15.2653 60 82 63
-25.9954 -11.3153 16.8451 61 81 79
-9.07146 23.5398 10.2546 75 77 3
6.90292 17.0475 -26.2977 71 63 14
4.32203 27.1227 -17.9204 70 58 15
-24.2827 18.8342 30.6178 52 83 82
-16.0182 22.3027 -23.6524 79 81 0
-23.7942 2.3924 17.17 88 118 127
-15.4753 -22.9642 -17.4447 76 94 83
2.28572 37.6509 0.706097 73 68 0
-14.7386 20.9156 13.2582 74 84 69
-19.1898 41.5795 -7.13077 30 21 12
26.7838 10.1531 0.219898 72 67 4
-5.23606 44.7356 -6.23092 77 95 89
40.3495 -26.3219 -16.5631 57 77 37
-24.1333 -20.2268 13.9983 77 102 76
16.4239 -16.5103 3.09481 45 34 13
23.5679 -23.2157 5.81476 64 57 37
4.80817 43.165 -2.6339 80 71 7
-3.62371 20.2134 12.26 73 72 2
27.4988 -26.0824 -30.2858 75 101 42
-1.19203 20.4075 11.9858 72 73 2
-12.3987 -13.7532 -13.8442 40 27 4
32.8188 -25.3642 2.30871 51 45 16
-17.937 19.3268 -25.2744 67 72 13
15.5188 -24.2424 -26.575 45 52 29
10.9132 32.5501 -14.0777 75 65 17
-25.9545 -11.2575 12.6726 51 76 74
-26.1174 11.2256 38.758 24 50 36
-15.634 24.2716 11.2693 65 65 18
30.2562 16.2187 -5.64829 84 98 91
-6.18239 42.5855 -1.44695 75 67 2
2.75481 -26.7075 16.8466 82 111 23
13.3544 30.3703 -15.0521 79 76 28
-3.13463 41.7757 -1.23487 73 73 5
-7.48198 18.0112 14.0147 76 72 3
1.39809 -25.5774 10.5207 9 9 7
-26.1194 18.4295 18.5753 23 51 39
8.33437 30.3482 -15.3623 73 68 23
13.5977 36.2292 0.515713 75 73 6
-6.0673 22.1043 -22.65 68 67 13
9.64167 35.2577 3.34323 108 116 58
-26.1598 18.0259 29.7355 30 59 56
34.2443 -17.4948 13.0605 66 79 72
7.72517 26.4632 -19.8527 96 97 20
-23.9291 9.91592 22.1402 74 109 114
6.30037 18.8925 12.455 76 67 3
-9.02535 22.0744 -22.7309 68 67 13
7.85828 18.5504 12.5002 75 72 0
-26.1739 16.6911 31.763 17 33 18
10.9413 30.3252 3.86755 73 68 3
13.7888 -25.3779 5.88538 67 87 27
-10.6483 -9.9977 13.0497 75 46 21
-25.54 18.2548 12.3637 60 78 82
-25.9857 16.9547 15.4118 36 60 53
-13.0422 22.503 -22.4253 72 74 14
16.0191 -25.3547 6.65327 61 79 26
-25.6764 8.00122 15.4749 17 48 15
-24.5397 10.2369 46.1132 61 89 94
-24.0437 13.5054 26.8084 74 83 45
1.68165 43.1409 -2.39379 79 76 8
12.4854 -24.7372 -25.9654 46 57 29
-25.8981 -6.23866 17.2792 45 34 16
5.33598 40.5574 -1.21377 77 72 4
-19.301 15.7621 -25.9868 96 85 5
-27.0752 -25.4045 -2.43881 36 69 26
-16.417 0.121861 -2.47916 76 53 35
7.5472 23.0091 -23.0804 98 94 1
22.6031 -23.7701 -25.4686 55 52 28
9.26444 40.9864 -1.83468 76 75 32
7.54026 41.0538 -1.68651 80 73 3
-16.401 -8.93473 -18.1564 71 43 19
-23.9176 14.8786 13.1849 65 100 110
33.0016 11.8486 -0.868038 73 73 8
-26.2375 -25.0287 -28.8398 27 56 19
-10.1035 44.9013 -2.52534 76 72 1
-13.9116 41.5099 -9.63578 75 59 19
-24.2448 -7.22346 11.1721 78 108 96
22.6989 13.1055 -1.48945 74 71 9
-26.1107 18.314 19.8739 27 51 40
-15.0698 -19.3828 -17.4537 61 75 67
-0.878275 42.0491 -1.56143 78 67 4
-26.0372 17.1479 16.398 36 60 51
-5.34043 43.0404 -1.78793 77 72 4
30.8157 16.8173 -4.4819 85 88 46
11.3958 15.9567 -27.005 68 70 22
9.83779 43.6005 -3.22272 77 75 8
18.3615 5.99177 2.74426 74 64 0
-25.2899 27.9603 22.4881 69 83 75
7.86129 30.7381 -15.1938 72 73 21
-31.2286 -26.0832 9.10403 43 65 39
5.16976 -26.633 16.5237 79 101 18
-23.7923 0.379288 19.831 75 101 96
-26.184 12.1562 48.6776 56 75 81
-16.6218 -3.39325 -11.6333 77 51 26
-24.335 14.2395 38.9886 53 85 80
9.53368 37.9583 0.250107 79 82 1
-25.9583 -11.8268 12.3702 51 78 72
9.30095 -1.4326 10.8503 74 52 32
2.09819 18.4648 13.1422 69 69 1
-24.1573 -22.2177 12.7981 76 100 63
-7.25054 40.9256 -0.402283 73 68 3
19.5283 -26.577 -30.1271 31 48 16
-25.5284 2.06322 16.1819 51 78 79
-4.93338 43.6888 -2.22033 73 71 4
-24.1574 14.2852 31.9892 32 59 34
1.05865 -23.9583 10.4548 9 0 2
33.7531 -18.067 7.94115 67 30 8
17.0162 17.2095 -6.69607 87 98 93
-13.1583 -19.7622 -16.7043 56 69 66
-24.2476 -24.938 11.7517 68 101 43
7.85286 21.458 13.2475 68 80 68
40.227 -26.0926 -21.6811 55 71 28
-31.2601 -26.2984 -3.24425 59 73 59
-18.9596 28.4518 -15.2718 111 116 48
-24.3455 27.961 20.2687 109 143 147
32.1885 -25.9239 -21.7308 59 70 37
22.2155 -24.0203 -22.3767 54 55 24
-18.6604 17.2412 -24.687 88 94 4
-8.28851 20.0322 -24.4212 66 64 15
-24.0339 14.0146 26.185 63 83 50
-10.242 -18.3006 -13.4086 40 32 7
-3.7525 41.2648 -9.80631 72 70 13
-17.0717 40.3386 -10.206 73 73 3
-24.4581 14.1422 42.8337 51 77 82
23.3844 -3.0247 8.38277 76 69 0
-4.46583 14.5729 -28.7151 70 60 10
-14.5521 -7.29714 -16.4499 63 67 66
-7.56534 15.6863 -27.9381 70 66 7
-8.8965 43.9124 -2.01107 75 66 2
7.69002 43.1901 -8.6026 70 63 15
-15.4487 -15.2525 -17.5797 82 92 80
2.87044 41.2597 -1.41059 76 74 5
-16.3764 6.24592 -13.799 72 43 20
-3.74871 39.6549 -10.7107 67 66 8
-25.5635 29.0075 16.7648 61 78 70
11.4915 3.66053 4.17477 84 73 8
-20.0256 12.6954 16.0278 90 76 3
17.4291 -17.058 3.64607 3 3 0
0.886986 -20.0876 10.586 2 0 0
15.6438 1.50443 5.63572 76 73 4
-20.6401 44.7797 -2.84406 75 88 83
19.148 -18.9295 4.72253 1 4 1
21.2953 -26.5503 13.2485 92 112 25
-12.6927 17.8359 -26.3759 68 59 12
-25.9465 -7.13123 16.5312 41 34 11
-16.3536 45.4811 -3.89056 68 81 74
8.51166 -9.20255 11.1808 74 86 80
-25.9391 -8.83748 20.3409 62 82 84
-25.9865 18.3085 15.0407 42 67 59
-13.9568 21.4328 12.0061 81 86 1
-8.49462 -11.6865 12.1672 87 91 82
4.04329 12.3707 -29.9543 71 63 19
34.0123 -18.9115 -22.2416 73 83 73
-4.44944 42.1495 -9.31141 70 62 13
-0.559641 19.4422 -24.6216 70 66 15
-26.0658 -24.2619 5.17318 38 31 7
13.2524 11.2127 17.3498 64 70 13
-26.0946 21.441 17.174 54 78 86
29.2845 -26.0562 -1.24276 49 43 20
-25.3286 14.467 10.9107 60 80 82
-8.47338 38.457 1.08722 70 68 0
25.392 -23.9953 5.95936 62 54 37
33.1935 7.03773 1.9741 75 68 11
-15.7827 -10.6835 -17.6658 90 89 77
-25.6321 13.7819 12.6854 47 77 81
27.8681 -25.3156 -26.3928 45 49 21
-19.3734 -25.5533 -0.812588 57 76 30
34.77 -23.3041 13.2323 71 82 72
4.67306 -0.772224 13.3041 66 42 18
-23.7571 3.03272 15.2132 81 118 121
-14.6347 -22.2571 11.5635 67 80 70
-16.579 -2.96652 -21.2205 77 57 36
7.89453 18.8244 12.2186 74 73 18
-13.9484 39.8183 -12.7871 83 88 40
15.2809 4.1629 3.93297 76 70 4
-23.7731 -18.0789 6.46706 59 83 49
-2.10644 28.0301 6.65566 70 62 1
-18.8549 41.5868 -7.25417 31 20 12
37.3784 -26.5583 10.6523 70 87 24
-25.646 -22.17 1.38376 75 90 74
-16.6522 -2.87758 -18.8126 71 45 16
-24.4589 -21.3814 2.14758 56 77 57
-9.68454 -23.9518 12.7369 53 36 14
-20.6579 43.5635 -2.15652 76 86 81
-20.608 20.29 -24.3483 65 71 24
3.85076 32.3179 -14.5623 69 67 13
29.7443 16.4915 -7.84405 69 63 24
-5.8594 -4.27512 12.9978 72 44 15
-24.3366 18.6558 32.7759 73 102 111
-24.5069 7.32818 46.7901 29 56 30
-13.0044 -12.8046 13.0223 81 52 25
-23.8414 2.03941 21.3072 66 57 47
-6.912 44.4452 -2.49373 78 69 5
7.07962 41.3244 -1.81096 78 72 2
24.2053 -26.0779 -29.4597 68 83 40
-25.7503 11.0636 15.5026 52 75 77
33.6641 -21.9624 -22.7887 70 83 69
33.7227 -18.8359 10.7827 77 91 73
-31.5041 -25.987 -10.1281 64 80 71
-17.7693 35.0979 3.7019 75 73 4
-9.10656 43.5133 -8.52498 69 60 11
-28.8663 -25.0391 -28.1261 38 58 31
13.0208 14.0375 -28.5066 69 65 25
-14.3807 44.8142 -7.44024 67 65 36
20.5632 -26.5411 13.6936 92 114 17
-16.5149 -7.75129 -20.9106 73 49 24
7.94219 31.1398 -14.9884 70 72 20
13.0347 42.7661 -8.6894 68 65 12
-19.3856 41.9349 -6.82947 27 20 12
24.0697 -10.9322 5.93476 69 43 19
-4.49689 -27.5142 17.585 58 74 66
-24.3939 -25.9388 12.7129 68 91 50
-26.0782 -25.444 -1.42451 45 73 23
-12.5126 26.286 -19.3168 69 59 17
32.2637 6.15903 -14.4093 71 69 1
11.8679 2.56418 4.90919 83 75 5
27.2788 -26.5419 13.4451 86 104 20
-16.0474 20.3591 12.7165 77 76 1
-16.6735 -0.15044 -13.9724 67 41 8
-23.2546 -27.1093 17.5664 71 87 79
-13.7427 16.44 15.4381 80 68 3
23.823 -24.451 -21.9618 44 39 16
8.22019 42.3344 -9.06606 71 62 17
-2.31283 32.0887 -14.8392 73 68 19
-4.2617 1.73291 13.0772 77 80 56
-24.3486 16.6752 37.808 37 53 34
-23.29 -26.1045 16.0157 74 103 46
-25.2488 6.36313 13.3531 95 116 105
-3.78386 16.5272 14.8676 72 65 3
-15.9925 15.6253 -22.2919 49 30 12
-14.2885 -26.2752 16.4211 99 121 43
-14.8473 -19.7576 -17.3872 42 51 45
-20.3007 24.2796 -18.6862 94 94 26
9.89428 35.4481 1.20073 80 82 11
-9.38974 -27.142 17.6076 52 66 63
21.6353 16.6877 -6.34626 88 102 96
-26.0466 -15.7429 13.7833 52 53 37
-0.150267 44.0017 -2.78384 78 70 7
-2.88299 16.3864 -27.2042 70 64 10
-23.7883 3.9789 13.9116 68 106 113
-13.0145 20.3201 12.5993 80 74 3
-17.5742 17.8151 -24.2292 90 85 11
-4.46557 13.0329 17.2858 71 67 3
13.5796 10.4998 -0.0284271 75 73 4
-24.3588 18.4195 35.6562 77 111 117
-15.3082 -16.4331 -17.5315 77 92 81
-4.70438 -0.574009 13.1365 73 55 38
-24.1816 -25.7289 10.8411 72 99 37
-9.69996 -24.5059 12.7252 55 38 19
8.30524 -13.336 11.1625 77 87 82
-20.7037 39.9311 -8.74155 60 53 26
12.6516 24.055 -19.8926 74 61 26
9.23232 26.0754 8.45995 90 87 1
33.3085 15.3641 -8.37982 76 65 24
11.5781 -0.883667 7.07895 80 70 4
-24.168 21.3557 20.1195 70 100 100
-15.8487 22.3434 -7.96465 49 31 19
8.26976 13.7905 16.0901 69 63 1
-26.0818 7.02262 48.7764 63 87 82
4.97346 12.1863 -29.9466 65 55 12
-10.0434 45.6049 -3.3554 81 79 22
9.10148 18.1775 12.7771 73 68 3
-0.744484 44.6212 -5.17094 73 89 84
29.4646 -26.392 2.91805 75 93 35
-23.9991 18.0212 15.7807 88 122 121
-16.0324 -10.3104 -17.6807 90 77 63
-4.00809 43.7323 -8.39853 69 59 8
4.24474 -17.6409 12.9858 55 39 24
-2.51638 -26.4415 14.715 83 108 23
-1.79923 12.8167 17.2777 68 64 3
11.3388 1.62159 5.5098 83 75 6
-31.3683 -25.5954 -24.6259 62 84 71
-15.9805 24.6652 -1.75978 58 37 11
-16.6128 -3.2108 -10.9206 75 46 12
5.22229 37.8582 0.333702 74 73 3
22.9624 3.51979 4.36851 76 71 0
-25.7244 -5.14867 12.8839 62 80 77
-19.6046 31.5468 5.84603 81 74 0
31.8273 -25.6257 -22.8956 52 62 34
-19.8071 -23.3905 3.35209 3 3 2
8.4615 38.3905 2.51631 66 77 67
-3.88567 28.898 -16.5359 58 54 18
-13.833 -26.2876 16.0996 95 119 44
-25.1278 28.6052 16.271 62 76 67
-23.9492 -10.5103 11.2019 65 92 84
22.2201 -26.5146 12.7559 91 112 30
-5.22437 27.5098 7.25093 72 58 0
29.9366 10.1139 -12.1538 73 71 10
-10.3855 15.5549 -28.1531 67 63 12
11.9406 -0.202606 6.68816 82 72 5
-25.207 0.573975 15.0654 89 103 93
18.7375 -3.07613 8.34727 69 65 0
-24.3457 24.0915 24.2985 56 85 86
1.54366 -20.7206 11.3406 62 76 69
7.28827 21.7878 12.8133 67 68 18
-16.6567 -2.01752 -15.3394 68 43 11
13.9282 23.8873 8.34274 57 39 8
40.3389 -26.7964 11.3452 67 83 46
7.85114 29.1008 -15.8581 77 75 27
22.7819 4.57974 3.67251 73 65 0
-2.43532 43.4823 -2.29516 78 69 6
1.29037 42.1281 -1.78122 72 75 2
1.60563 18.296 -25.4703 72 67 15
5.61373 16.9813 13.9824 70 63 0
-24.242 14.6334 35.3636 29 60 32
-23.832 -2.66006 18.9658 68 54 37
-4.24522 -15.1726 9.99451 2 1 1
-11.5063 24.3514 -20.9419 69 63 16
-10.874 27.8441 -17.9462 69 60 17
-7.30299 14.4217 -28.9357 67 69 10
19.9436 -24.5461 -27.7153 36 41 17
36.815 -26.3965 3.10003 86 91 11
-16.6022 -2.23489 -22.6273 77 51 24
-25.9955 -24.1759 12.6287 55 76 34
3.17634 33.4307 -13.9975 69 67 9
18.7668 -0.238117 6.73204 76 67 0
32.6807 1.55913 -17.2133 73 70 5
-25.938 -22.3731 14.8656 61 80 54
-14.1719 39.4915 -13.15 79 83 55
-25.9779 -6.62634 17.8217 50 40 19
-2.08655 42.7126 -1.86707 76 70 5
-16.6331 -1.63773 -20.1624 73 44 20
7.64194 25.8512 -21.8369 76 81 48
4.68814 19.5842 -24.2426 70 66 16
-3.27164 16.7383 14.6956 71 63 2
-26.0769 -23.389 6.46694 42 36 12
2.4101 36.9384 1.09302 73 70 0
-1.74722 26.8088 -18.5388 67 60 14
-18.5348 29.3835 6.46648 78 66 2
-17.6039 39.371 -8.85014 24 24 12
-25.9976 -14.3838 15.3959 59 81 72
-13.3621 -24.6416 12.7426 56 46 17
-24.0776 16.7203 22.1621 81 116 121
-3.88608 30.2758 -15.7271 71 68 13
-24.1625 14.1284 31.3096 27 60 38
-26.0779 -23.1232 9.12227 39 29 6
-24.0729 -17.5614 13.8848 74 92 72
8.25806 39.3695 -13.4787 72 78 72
-4.41786 21.9344 -22.7261 66 68 12
-19.7484 21.1602 -23.6487 65 69 12
-16.5873 -2.3274 -21.8812 75 49 25
-26.104 15.6551 23.782 14 47 16
5.23098 41.6163 -1.78401 76 77 5
-17.404 34.6528 -11.6925 31 24 6
6.21757 15.3866 15.0828 70 64 2
18.6839 14.3331 -2.26897 77 70 7
0.952951 43.13 -8.73586 71 65 15
-16.2436 25.4657 -19.9118 76 71 1
-24.3595 12.6156 39.1366 24 55 31
10.5385 13.6107 -28.9585 71 72 20
12.9995 14.1199 -2.19673 73 72 5
-24.2047 -19.8996 3.17117 15 24 16
14.785 -26.5633 12.8314 83 108 28
-12.0521 21.9988 -22.924 68 71 17
-15.5505 -26.1452 13.9078 88 115 51
-8.29254 30.0326 -15.8481 69 65 17
31.5045 -26.1042 -0.843582 63 73 31
-12.0023 26.8382 8.03433 74 67 0
-23.8577 1.89307 19.9048 80 116 121
33.8151 -17.7095 4.7523 65 7 6
-20.7243 26.4757 8.70242 85 76 40
-4.37647 12.3724 -30.2073 72 64 8
-26.1565 22.1028 18.155 35 55 46
0.438488 28.4037 -16.9108 63 56 15
-18.9275 -25.3707 -8.45287 62 80 26
-17.9451 18.0707 14.4515 84 90 4
27.4854 -10.6442 4.27199 76 85 77
-29.2754 -25.9853 15.6582 93 134 78
-2.00565 -24.3503 9.59545 9 10 3
22.5992 -22.5351 5.71345 61 53 32
-6.83562 45.0684 -2.93189 80 69 3
-24.0887 -25.2278 8.24349 63 50 19
6.35893 37.5176 -11.7082 79 69 1
32.1587 0.420036 6.17319 75 75 3
-7.54781 17.3222 14.5013 76 69 3
17.7863 -14.279 4.13256 1 0 0
-11.0193 1.06419 13.34 79 51 24
-16.6414 0.979488 -20.1101 74 47 21
30.2482 12.3486 -10.6798 74 67 14
-18.3834 -25.5624 -0.749302 58 77 15
-0.281342 -19.0674 10.2101 4 3 2
-5.67326 16.9731 -26.8432 68 57 11
5.57042 18.5833 -25.0222 71 65 16
6.63764 3.91981 13.2654 62 38 17
17.0868 -20.203 3.89407 80 99 85
-24.0711 8.14225 32.1483 39 62 58
-25.755 14.3679 13.5816 50 74 79
19.7018 -2.88445 8.29308 67 61 0
-17.0667 17.1893 -24.6961 93 81 12
-2.72444 39.7546 -0.113747 71 63 2
16.6903 3.04285 4.67295 78 68 3
14.9733 4.97749 3.37783 78 63 4
-3.69306 -27.9128 17.5831 60 72 69
-19.4132 33.952 -11.749 118 96 8
25.8783 -26.5184 7.00604 85 102 37
-25.9569 -19.7674 15.3021 61 80 63
-24.9376 27.7458 23.0852 76 93 86
-24.3084 15.5235 36.2303 48 76 66
-9.69261 -22.3478 -16.739 30 32 9
-26.9384 -25.6896 4.14943 54 79 26
-11.5914 26.9314 7.97439 76 70 1
-26.0104 17.5887 15.9413 22 48 25
-12.6947 -8.33386 13.0694 81 53 26
-19.6016 30.6714 -13.6809 121 115 16
32.4794 -25.5195 -31.442 29 40 22
-23.9891 14.9892 12.2499 51 88 92
-10.5501 -13.973 12.9922 74 47 20
29.1678 8.79903 0.925579 72 68 2
-0.619818 2.04804 12.0625 62 70 63
-31.2349 -26.877 12.1334 59 77 63
-24.3232 21.6826 28.7573 36 65 48
18.9639 -17.9545 4.54364 2 3 3
-24.0885 -21.2897 10.0501 68 55 24
-13.3309 45.2019 -2.47007 78 61 1
-24.03 15.8492 21.382 81 115 124
-15.2 -17.8904 -17.4775 72 86 77
-26.1226 26.6509 25.4343 55 73 67
31.9246 -26.3836 3.5864 49 59 28
34.6332 -26.6543 15.5932 82 98 30
-18.2741 21.1691 -23.6482 67 69 11
-15.1279 -19.935 -17.4586 66 81 74
8.31895 23.4263 -24.2687 71 78 69
-11.2323 22.1863 -22.7373 66 70 17
-16.0426 27.9161 -15.8427 40 30 1
-18.5293 11.6413 -29.6397 69 71 43
-4.62056 18.8562 13.2839 71 65 0
-25.7 3.62627 17.8622 52 76 80
-10.6004 17.6889 14.4063 76 68 2
33.4304 -22.0321 8.75703 78 61 3
-26.0217 5.15535 48.0395 18 45 31
-14.4756 -25.3096 -28.5232 53 71 21
-26.1115 17.969 19.858 40 66 61
-1.20407 36.5013 -12.4216 71 69 10
-13.3484 -15.8444 13.0173 61 42 23
22.1636 -9.34734 5.66662 68 42 15
-9.19643 -21.1828 12.8073 52 36 18
27.043 -14.1565 4.28424 75 88 80
-16.1608 28.6128 -15.2364 28 19 7
-25.6714 5.81823 35.7436 41 64 65
-7.71094 -13.3477 10.6514 1 1 0
-12.0446 22.4149 -22.5649 69 68 20
-25.9151 12.5964 17.1559 27 56 45
21.3349 -1.69613 7.61871 72 64 0
-25.789 19.0221 39.747 58 68 67
-19.0275 17.5717 -24.4647 88 87 13
-26.0265 -14.5834 14.367 52 60 44
-23.8242 5.00304 18.5719 79 119 124
-18.6806 32.4807 -12.6371 102 101 7
26.7829 -26.6838 16.1123 86 105 21
7.42995 25.3091 9.41341 103 103 10
-28.0844 -25.5559 1.44827 48 77 24
12.5073 43.884 -8.06129 70 61 11
6.23128 43.2949 -8.57831 70 62 12
-16.441 -7.88522 -18.3296 69 40 12
13.9359 19.0223 -22.2842 69 76 69
13.4211 -28.0015 17.5221 57 72 66
-24.6888 -17.4259 4.74593 87 101 91
-18.596 -24.9189 7.70895 31 45 19
-16.7044 28.666 -15.196 33 27 1
-4.9101 42.3958 -1.45014 71 72 2
-18.7796 27.0819 -16.4447 123 104 7
-6.84342 2.19466 12.0069 62 70 62
-18.109 -26.2672 17.3936 74 100 58
2.2598 32.105 -14.7188 69 65 12
8.09702 38.9818 2.09494 66 76 58
31.6066 16.6361 -3.9142 83 76 8
-25.8098 -18.9202 3.73659 67 82 60
-25.5666 -21.0063 16.7145 74 85 81
-19.2297 22.2171 -22.7489 68 70 12
-4.36972 -23.3023 9.38082 27 36 16
4.34402 23.7424 -20.7666 71 65 8
-16.594 -2.58184 -20.7504 75 47 19
40.4098 -26.8029 6.46282 68 84 56
-24.4066 22.1158 29.1308 54 82 86
-0.948578 -26.5988 16.4824 107 128 20
-24.2734 -13.5925 18.1237 73 99 93
-9.84609 45.0343 -6.996 75 86 77
-24.0821 -22.6034 7.77775 68 55 25
-23.9597 11.9195 23.2187 62 99 89
-16.4337 4.44998 -22.8817 77 52 28
17.6244 -0.454468 6.87651 76 67 0
-12.7201 15.5653 -28.2744 68 57 12
4.03893 27.0053 -18.039 68 57 15
-25.7803 17.7121 12.8985 55 79 78
-4.87704 43.3726 -2.0358 73 71 4
-5.64214 -3.95683 13.0252 76 44 16
-13.3341 -26.2193 14.5642 90 116 50
-0.0985184 23.6121 9.66116 71 69 2
10.7676 42.5649 -8.88111 68 63 10
-20.1831 40.1143 -7.8782 100 76 12
-7.15003 -26.9642 17.6444 56 71 59
-20.8823 24.2955 8.94561 65 78 71
23.5508 -11.2832 5.87933 66 42 19
-13.1869 30.6281 -15.6134 70 65 21
-13.9129 23.6487 11.5343 124 124 18
-9.17114 -3.02238 13.1858 76 48 19
39.6892 -26.2633 -8.41067 64 76 11
-5.25287 35.0942 -13.2439 71 66 14
-17.0373 30.6732 -13.7685 32 28 12
15.3662 -15.2497 2.69003 0 0 0
-23.8903 -8.90997 10.7627 66 97 89
-25.9942 -23.0833 3.99703 50 69 16
3.71424 44.5981 -6.04415 83 100 88
-16.58 -4.0756 -21.3996 76 55 30
-16.5987 -3.76462 -16.0275 69 46 20
8.8249 41.6925 -9.40726 71 62 11
-23.5433 -25.9536 10.5902 91 113 48
1.28555 13.3358 16.7786 66 67 2
-21.292 -25.829 12.3936 83 109 49
-24.3299 26.8273 22.2954 41 75 64
-5.64455 44.2606 -2.48679 77 67 6
-15.717 26.3017 -19.6841 90 87 28
-16.6397 -2.87212 -12.6031 73 46 18
-3.97978 23.6782 9.88356 73 70 3
-15.4411 27.021 8.07244 79 71 13
-19.352 28.7148 -15.0309 114 118 62
17.4259 16.8443 -3.87291 83 74 10
-16.2391 -25.1186 -21.9803 47 44 15
-24.0558 15.2748 25.1104 53 82 57
-31.4463 -26.4887 -18.9975 74 88 81
-25.4236 9.56509 47.127 82 96 92
2.26235 41.9919 -1.77163 73 76 3
8.23254 41.1175 -10.337 70 76 45
-26.0578 -10.1037 15.96 45 34 14
-17.417 -26.1473 16.4409 86 117 44
-10.7691 39.3627 -10.8542 71 64 16
-16.3803 -14.695 -19.8184 69 44 17
-20.6551 30.9402 5.76805 74 84 67
-0.00167847 21.3876 -22.9753 69 69 13
12.685 19.7738 11.4214 75 70 2
2.65658 15.7126 -27.5299 70 66 9
24.9613 11.9817 -0.82708 73 74 10
-9.95294 23.3902 -21.6922 70 70 14
-20.4791 28.0041 7.63754 80 72 21
13.535 -2.52889 8.12682 78 68 4
-15.5428 45.1147 -4.29893 65 79 71
-26.0317 -23.6557 4.89365 40 37 6
-12.9277 36.9481 2.09762 71 72 2
6.66753 39.806 -0.971382 77 68 1
-24.4687 9.05299 45.513 32 60 42
18.7644 -26.926 17.2901 75 94 40
-15.8796 38.2006 -12.7335 76 77 0
-25.4475 4.06036 13.5205 59 76 72
-24.4396 -25.5541 14.5067 62 89 40
-12.7845 36.263 -12.5252 73 75 17
-23.9935 -3.62814 22.9394 74 108 108
-25.9234 -23.6161 2.94158 47 69 13
-16.4087 6.88213 -22.1079 77 51 26
12.6469 28.9035 -15.5457 79 71 31
-16.6724 -2.30379 -17.5728 70 43 17
-26.1525 16.1291 29.9121 12 41 15
-25.2602 -7.12424 11.587 91 113 100
-9.7934 45.3848 -2.91151 77 73 1
-23.8413 5.47369 15.8657 70 110 117
-24.2605 -5.16539 14.6381 140 144 146
27.8732 -18.8794 4.21127 47 36 21
-25.0268 -20.2706 2.85443 91 111 92
33.1582 16.494 -4.87556 69 85 78
-31.349 -26.1004 -5.11398 66 86 76
-24.094 13.5541 28.2285 38 68 32
25.8214 -15.7073 6.0829 60 37 17
27.2974 -24.8088 -20.8034 21 28 13
-13.1677 -14.6992 13.0196 81 54 24
-8.71863 19.6902 12.9209 75 73 2
31.2513 -26.6354 10.3826 80 92 26
38.7227 -27.0849 16.2083 61 75 56
-16.3059 -17.5407 -17.9969 55 36 19
-24.4444 16.5716 39.7827 35 51 38
-12.9343 32.9461 -14.3974 71 68 20
37.1539 -28.1273 17.1229 58 76 60
7.50753 19.6406 -23.9443 79 75 34
-19.4327 15.5144 -26.2342 97 84 7
-24.4268 -25.0337 -28.5956 27 60 28
-26.5481 -26.0222 14.9445 61 87 24
-16.6589 -2.64425 -15.7905 72 43 15
-17.1641 -25.4323 1.27279 63 81 24
-16.4337 44.4158 -1.73426 70 67 6
-25.8657 -21.7843 16.1578 59 78 59
-12.3993 -6.93076 13.0933 80 53 26
5.35285 2.50883 13.2624 65 43 21
2.08784 33.2384 -14.1261 73 65 20
-16.2056 42.9234 -0.922272 68 68 7
-26.9135 -25.8296 7.96 70 88 30
7.61979 22.0876 -24.6975 85 91 27
33.6013 -26.7384 16.5863 86 106 25
1.52909 -20.8845 11.6548 71 81 78
-8.05958 17.8262 -26.2092 68 61 10
8.68926 24.5651 -23.2477 71 76 68
-19.8381 15.8726 -25.9394 95 89 5
9.81713 21.4856 10.2096 80 73 12
-4.57189 43.3437 -2.04095 76 68 5
-24.4298 11.1586 43.6845 44 73 64
-25.7155 -1.32305 19.7545 42 29 13
-22.3361 -23.2971 1.53372 6 9 3
-25.899 10.7339 18.6416 26 55 42
7.29524 38.4156 -0.241905 87 74 4
33.2601 -26.0317 4.19304 76 66 6
-16.087 18.1826 14.31 81 76 1
-16.5855 -5.5089 -19.6902 67 44 14
-24.1791 17.7609 26.8594 36 70 47
-26.174 19.1779 29.9336 46 77 86
13.4853 -1.4616 7.49345 79 67 3
-24.0154 -8.85074 11.2918 82 100 105
-16.0805 43.7728 -1.39815 70 66 6
-24.7673 -25.9682 15.6217 59 79 44
-2.84472 44.8065 -7.47803 64 58 31
-15.3595 -21.8471 -17.4335 77 97 87
-16.6292 -3.21868 -11.953 77 54 27
-7.04007 32.3673 -14.7675 71 66 15
-0.700497 18.4508 -25.4186 66 71 10
13.2439 -26.5567 10.8699 88 111 19
39.4981 -26.5803 7.6537 76 89 0
-24.2784 24.5351 21.9923 77 108 113
-23.9308 8.67676 22.975 70 107 114
33.3097 -25.8396 -21.7076 73 93 32
0.903519 -21.2401 10.5709 1 0 1
-5.00958 17.6666 14.1298 72 62 2
-2.20736 1.66478 13.121 69 77 54
-17.7704 45.5167 -3.84187 63 79 68
-8.57915 -18.0894 12.1234 81 83 68
-16.7037 -1.8242 -16.7188 75 47 23
-8.35164 -25.4658 -10.8986 41 60 14
-11.1413 38.245 1.35946 73 65 0
-13.2734 -15.2344 13.0155 82 56 28
-25.5558 -3.45533 21.3927 55 74 76
-11.5656 17.9588 -26.2317 69 59 13
8.9738 -23.9422 11.0482 61 53 38
-19.1585 1.56448 -6.32565 64 76 66
12.5168 21.4424 10.2602 73 67 1
4.35399 16.3082 -26.9792 71 61 12
10.4245 40.5808 -1.62882 79 75 7
16.5569 -23.0688 -22.576 31 39 24
-24.0031 -9.22112 12.5218 83 104 105
27.1257 10.7232 -0.101486 72 72 5
8.7794 30.4798 -15.2699 74 69 23
-20.1399 25.0276 7.29765 92 76 11
18.5459 -26.4709 10.0727 88 115 25
37.7371 -27.1142 16.7612 57 70 50
-7.16058 23.9623 9.86985 74 64 1
7.19132 -22.4698 11.5373 78 93 80
-23.7836 2.09375 18.3325 81 117 123
-3.723 43.3418 -2.09554 76 69 6
-25.9207 -8.16187 14.4198 56 77 76
-0.706808 22.5571 -22.0623 70 67 15
4.40857 20.2983 -23.6577 71 62 15
33.3356 -23.6561 6.33514 76 62 12
-20.074 20.2481 -24.4951 66 69 11
-25.8838 16.3275 14.0932 34 59 53
16.3436 -26.6034 14.3559 92 115 30
-7.09905 41.3612 -0.660755 72 70 4
-23.8639 6.42565 22.8267 79 114 117
-28.2225 -25.914 9.9343 57 88 34
-13.7536 -18.5827 12.9486 59 42 23
-6.20005 23.2757 10.2925 73 71 0
-15.5528 39.9265 1.49213 84 90 15
7.68134 41.7729 -9.39535 74 68 17
-16.0791 38.0446 -6.05074 51 36 5
-24.123 14.5909 28.0802 36 65 41
-26.0034 28.3688 17.5149 55 84 90
2.43339 -26.6641 15.8967 87 108 24
-25.9544 23.2698 14.6709 32 45 30
8.67663 -2.92638 11.2707 75 87 82
13.9181 41.1008 -9.48625 70 57 23
-26.0293 5.03319 45.9809 40 66 68
-15.1331 -26.2692 16.2809 90 122 44
-18.6634 13.6781 15.1303 92 76 3
1.28357 25.4683 8.26009 72 60 1
-14.1631 -25.3083 -28.0743 57 69 26
-7.1032 25.1107 9.06755 73 68 1
-19.637 41.391 -7.18503 27 22 10
-7.06163 38.2838 -11.4753 71 66 13
-8.90244 -25.4914 -12.5679 43 63 16
31.2602 6.55299 -14.3082 72 70 0
-10.3828 -21.2365 -16.2261 30 27 3
23.6178 0.26828 6.41996 74 76 1
-25.9924 -14.739 15.629 59 82 73
-13.806 34.0145 3.98028 75 71 2
16.82 -26.5098 12.067 91 115 33
28.6205 15.9922 -8.28377 73 60 25
-9.31148 17.4388 -26.5732 71 66 15
-20.237 34.3762 4.30648 74 70 5
-25.9943 -24.8687 11.7435 53 76 27
0.467029 18.9619 12.9081 72 72 3
2.17748 -8.53911 13.0323 73 51 30
-6.2229 17.6785 14.1907 73 66 1
-10.1705 27.1097 7.78784 75 65 0
-25.2175 17.8191 42.5102 74 84 79
-25.6646 5.23064 15.2873 48 74 77
-16.5222 43.8902 -1.42953 69 68 5
3.71026 38.4688 0.102211 75 66 2
-19.6901 -25.9292 13.7483 84 112 50
-0.930056 27.0705 7.28133 74 63 3
-8.29264 33.5553 -14.1125 70 71 19
12.1451 0.905861 5.99279 82 72 5
-3.6507 43.0158 -1.92529 76 71 5
-19.4435 35.4702 3.60578 76 66 2
-14.0878 26.4411 9.48933 80 82 10
-20.5855 42.2654 -6.72321 67 52 5
20.6611 3.1841 4.58719 75 76 1
-5.85149 35.1541 -13.2088 69 68 11
-10.4942 14.0508 16.8942 75 78 4
-18.5977 29.2974 -14.6032 115 115 3
-0.857641 26.5617 -18.6968 68 60 14
3.41833 37.1216 0.905346 70 69 0
-5.64412 20.6169 -23.8462 70 58 15
33.5644 -25.9492 -30.379 85 112 59
16.6051 -16.1566 3.20966 45 35 16
-0.673944 37.9994 -11.6055 69 70 13
-1.88927 13.9122 -29.147 69 62 10
1.7409 33.2534 -14.137 70 62 16
26.6223 -25.6346 -28.0173 43 56 16
-26.2131 17.2615 35.1138 20 36 18
-8.31921 43.9878 -2.0982 73 67 1
-11.5323 20.4865 -24.1332 70 62 15
-6.9215 17.8951 14.0805 73 68 1
-15.9766 31.6582 -13.3285 25 19 7
-8.13953 45.3439 -4.02363 76 84 71
-26.1538 24.9289 24.6893 54 80 91
-24.5534 13.3543 45.4699 39 60 54
9.80513 20.1293 11.184 78 70 0
-1.20472 18.6525 -25.2663 69 70 16
14.9041 -21.7719 3.59518 10 10 10
1.53394 -22.4307 11.3488 70 79 73
-16.29 13.0723 -15.7361 48 32 18
