ply
format ascii 1.0
comment Created by Open3D
element vertex 1403
property double x
property double y
property double z
property uchar red
property uchar green
property uchar blue
end_header
12.4066 19.7101 11.4695 75 72 0
38.1766 -26.5955 9.14389 82 94 15
-26.1036 18.6785 18.5045 20 48 29
31.1675 -26.1763 -1.92718 64 77 23
9.2783 31.396 -5.73576 43 24 1
11.956 16.916 -5.96809 54 63 60
39.1738 -25.8155 -24.484 72 90 32
-16.4325 5.79723 -12.9705 68 54 31
-9.39203 -25.4557 -28.8798 36 52 22
-26.2441 23.4759 28.9715 58 76 89
-3.83623 25.4494 -19.8008 66 60 16
-16.8492 -25.4489 -7.23952 55 74 21
-25.945 4.31131 46.5811 38 63 66
-16.5127 5.32616 1.69676 68 38 13
9.0007 -23.2282 -19.754 50 33 11
13.3039 -26.6636 15.486 75 100 16
-24.703 -25.3758 -3.81941 74 95 53
25.9255 12.7715 -10.5281 71 65 19
39.7138 -26.1366 -13.1419 64 81 11
-24.3957 -26.1824 17.1732 71 99 42
-25.0961 -12.1816 19.3767 71 88 85
-2.81913 32.3062 -14.7293 68 65 16
11.2753 5.92898 -14.7751 89 67 20
-15.8978 32.9071 -14.3914 77 72 15
11.6174 26.7644 -17.5107 72 61 24
5.72123 -17.4061 13.0236 53 41 36
9.39803 10.7004 -16.3286 64 59 31
9.34715 1.2162 9.28115 84 64 38
-5.47952 -16.9204 9.79356 2 2 1
17.9804 -26.4067 8.67342 80 102 27
0.470455 21.2116 11.3091 72 73 1
-24.2395 24.5535 21.2455 67 98 105
40.4339 -26.7327 1.7071 67 79 58
12.1166 25.6537 7.28757 73 55 2
12.3369 0.789612 6.07974 83 74 4
8.89876 -24.5318 -17.423 21 19 20
-19.6091 -23.5983 5.08627 32 36 13
13.9058 40.7055 -9.71495 69 61 30
35.1871 -11.6371 -20.0082 26 20 10
-16.5182 -0.673756 4.37371 65 35 10
-20.1193 32.4308 -14.5411 74 68 32
9.331 -0.909683 9.75351 72 48 11
3.91946 10.682 16.8941 67 77 60
-14.028 23.3753 -5.91049 8 7 4
-26.2905 13.8693 44.9065 20 34 15
-2.67115 24.966 8.8968 72 68 1
-18.9306 -25.2653 -17.6796 55 73 28
-2.56474 12.4861 -30.1333 74 67 9
-7.95834 26.7095 -18.8713 67 56 16
12.4407 29.6074 3.99825 72 59 6
35.7075 -16.45 4.58855 82 34 4
-25.7935 3.35977 31.5346 16 36 14
-15.7096 31.993 5.34778 76 66 0
-16.3242 15.117 4.10387 50 30 14
26.9866 -26.0874 -30.3284 80 106 56
-21.9142 -25.102 -24.5696 34 64 30
-7.99146 -20.9646 -10.0496 29 30 14
9.52333 -7.09546 3.7887 68 36 4
9.20612 -7.10229 -20.0295 66 37 16
12.443 2.51846 4.94726 82 75 4
9.84676 19.8844 -21.0872 88 78 16
-0.274193 40.0322 -10.4796 69 66 9
-11.1454 45.3328 -2.73128 77 70 4
-25.4274 4.73471 13.6295 35 54 33
-26.0255 12.5825 23.9457 31 58 55
14.5649 -22.1078 -15.7867 27 29 23
33.4106 -15.946 1.7936 19 15 37
13.0758 22.558 6.50661 88 66 19
-12.2213 39.7196 -10.6748 65 66 15
0.832359 22.6838 10.2408 71 66 0
28.9754 4.07846 3.83377 107 102 4
27.8234 -8.23077 -12.9979 73 49 21
18.7315 -12.5849 -15.6532 16 20 24
-16.3649 11.8515 4.72864 63 56 20
1.88718 -5.3972 -25.1959 66 43 22
25.7393 15.6076 -8.59492 67 61 23
9.40017 34.49 2.74282 86 93 54
29.1704 16.7745 -3.93937 82 77 11
-12.178 -12.8966 -0.150324 12 6 4
12.86 20.2804 -20.6488 91 83 20
-24.1393 -13.5055 16.8277 78 104 96
-16.4481 11.1148 -1.72967 66 56 27
-8.05727 11.1456 17.3848 69 76 63
-15.1111 1.91092 -23.4447 81 95 91
9.24899 21.5836 -6.73347 74 43 14
-15.9625 27.4411 -2.37571 55 42 18
-7.83007 -20.2603 10.4248 28 36 16
-26.0021 -15.5096 15.1595 59 79 71
17.5502 6.80505 -14.3783 77 75 20
33.4108 -23.0886 3.76507 70 58 19
27.1403 -0.56649 6.90079 77 70 1
1.52012 -19.2478 12.2591 59 66 61
19.8771 -22.2913 -5.36352 31 22 12
-6.30625 31.9259 -14.9641 68 74 11
4.93394 44.5439 -5.94189 82 100 94
-14.0984 -8.61899 -15.5348 56 35 7
10.3438 34.4147 1.74115 78 78 3
-2.37353 17.0677 14.3968 70 63 0
-15.3414 11.6531 11.6002 81 61 67
13.5691 12.6582 -10.6672 87 77 21
39.6938 -27.3155 -27.0874 66 87 67
5.09517 1.98415 13.2871 67 48 22
9.34507 31.4367 3.49496 73 70 0
-21.1885 -22.9928 5.38434 27 33 23
-16.226 22.8204 -16.9798 40 16 1
10.2802 15.7989 -24.6284 86 68 3
9.18089 -13.5473 -19.1062 70 41 20
8.63104 -24.2119 11.0956 72 80 73
7.71738 23.9765 -7.01268 39 23 7
-16.3126 7.72118 -15.6394 69 49 26
9.70315 9.54296 0.115143 65 70 31
-15.7461 17.307 -26.9275 67 60 10
-14.0476 -24.1699 4.01446 4 1 3
30.0686 -26.1319 -3.39854 68 80 11
9.42238 14.0026 -15.1264 68 42 21
20.5525 -23.411 -7.86841 49 44 26
-21.1115 -25.1883 -18.0751 34 67 24
12.4418 2.74815 -17.09 77 66 13
14.9319 2.1643 5.21868 78 72 3
-8.12993 -20.9472 -3.98249 22 25 9
-18.7448 32.5192 5.26631 79 79 4
-16.2795 8.61467 -17.1697 70 46 19
10.871 -25.5546 -19.6534 24 13 11
29.6607 -24.8576 -21.2636 12 14 10
-16.6485 1.52678 -14.6916 66 40 15
-15.3107 5.33541 11.2693 82 95 89
-16.244 -14.989 -23.2529 76 68 53
11.794 17.063 -4.98456 35 48 37
-20.4178 -25.5126 -1.23573 59 79 19
33.5725 15.2964 -5.13087 70 75 59
-11.1839 43.3701 -1.53527 74 67 3
-15.6908 13.1771 15.2929 91 84 2
-17.1409 2.4398 -2.85802 59 40 24
26.1267 -17.6624 -1.94662 20 0 0
21.8738 5.56867 -15.3635 76 64 19
3.41245 -13.135 -25.0326 63 40 16
27.5364 -25.6729 -18.6756 13 20 10
-24.3685 -13.9182 18.3441 82 110 105
-24.4226 16.5904 40.4322 33 58 41
-17.5173 15.6275 -25.937 98 79 8
40.0398 -26.0356 -15.5642 62 81 22
12.7791 25.2711 -16.1298 91 63 4
-8.30949 -21.4938 -12.3123 31 31 5
-8.45616 3.93002 12.3773 111 130 116
-0.554596 38.9139 -11.0896 69 68 14
-9.75731 37.5225 -11.8854 69 68 15
-25.6654 24.6216 14.2169 61 80 81
-16.5487 -4.40822 -22.9662 72 47 24
4.18419 -4.46428 -25.3068 67 40 25
37.7043 -26.3429 0.939762 72 84 9
-25.995 9.87042 35.0533 49 72 75
-16.3423 12.6103 -10.5145 58 51 18
2.79123 -19.6051 12.797 52 41 23
28.0587 -4.28327 -14.3069 52 48 18
-16.2867 16.5685 -3.1489 53 32 16
1.40967 -15.8685 -25.0033 60 47 37
-14.814 26.6153 4.91722 20 6 3
2.48451 1.36522 -25.3112 68 44 25
-16.1586 19.181 -13.2369 67 38 1
-14.6674 32.7349 -14.4979 70 66 14
9.25676 24.753 -15.3493 48 26 2
9.37894 18.6545 -16.5323 71 43 5
7.46766 6.43121 13.1124 61 44 25
35.2037 -16.4917 -15.9149 62 88 62
10.4957 44.5211 -6.04784 82 97 90
9.51838 -26.4582 4.36606 22 41 7
-16.0543 38.0882 -5.60257 38 16 3
-16.1924 24.4748 -15.5052 41 17 0
-12.9505 -25.2376 -17.6314 12 20 8
16.1304 16.8844 -5.29102 81 92 85
27.754 -18.745 -14.5298 56 41 15
-14.8632 1.88549 -23.9261 80 92 88
-21.9673 -25.1095 -28.8417 25 57 25
28.5002 -26.462 6.55188 79 93 31
2.66718 29.9293 4.57651 80 71 6
-19.1653 1.19041 -5.28346 72 78 72
-25.9178 4.25713 47.9196 19 46 36
-7.36882 28.9702 -16.6694 60 55 18
9.29206 23.9108 -10.6249 73 42 2
23.8399 -26.1505 -9.36883 71 78 20
1.58747 3.23823 11.5327 18 8 2
-18.6322 18.5941 11.683 96 88 4
-18.9734 38.5725 1.79034 70 68 3
35.241 -19.8524 -20.4557 40 68 60
-29.9836 -25.5543 2.77477 47 79 27
-13.2624 -8.72726 -8.2416 19 16 5
-10.2571 2.15868 -25.1614 68 43 26
-11.1935 29.5805 5.80832 70 65 14
-17.3187 -25.4468 -6.06791 56 75 25
9.18589 -17.4079 3.41013 40 29 7
33.5205 -14.7155 -13.7647 43 59 35
25.4762 -11.2922 -18.29 72 61 44
34.7153 -10.2916 -13.2551 75 85 78
22.65 3.42456 -16.8237 75 68 20
28.5485 0.858665 -4.13968 32 17 16
25.5515 -16.2209 6.1029 66 43 20
11.4523 -2.51509 -20.4792 74 62 20
10.5047 25.5195 7.40061 72 64 0
6.02515 38.5093 -11.1763 78 71 0
-14.8764 -10.3798 -24.6443 77 65 48
-12.409 -25.7325 0.454128 54 75 25
9.22416 15.3432 14.9208 71 66 0
-26.0351 15.0302 21.6477 13 46 15
31.7575 1.21455 -17.5895 74 70 5
-2.29789 -24.2499 -27.6605 32 41 20
35.2321 -24.9825 -14.87 65 83 33
32.194 12.1432 -10.6954 73 70 11
10.9785 -25.3846 -25.712 53 71 33
-7.05694 0.222195 13.2468 73 46 23
-16.0651 22.7824 -22.6544 79 77 4
9.23511 24.6014 -0.699287 75 55 0
-5.13305 -24.6995 9.54606 40 51 23
9.3001 21.3597 -17.853 46 26 1
3.19912 38.2806 0.260414 73 69 1
-14.7013 8.38058 -24.5445 81 88 76
-14.6315 7.98581 -24.8134 74 67 42
-9.89642 -4.21026 13.1493 77 48 21
28.2442 -3.58199 -10.2843 58 45 15
21.1083 7.62373 1.58656 76 70 12
3.17924 21.4284 -22.7886 70 70 17
10.4484 38.9212 -0.767457 76 76 4
17.3401 -22.768 -18.0657 21 24 8
-6.46274 43.4456 -8.56957 72 67 14
0.279633 -23.3955 10.1412 2 0 0
-24.1197 21.2147 18.2293 75 110 116
-16.6395 1.32309 -19.3258 72 44 20
-3.25624 17.1738 -26.5825 69 64 11
-16.2231 -4.12766 9.58036 63 37 14
19.0984 -14.245 4.72965 0 1 0
14.0707 -26.4719 9.02321 84 108 33
16.011 -12.0987 4.28328 49 47 33
-15.9314 34.7027 1.21066 69 73 11
9.34505 -7.70026 -14.7614 72 42 23
-16.6541 -1.73217 -19.6039 72 45 18
-8.06531 -22.2484 -2.15637 23 31 5
14.0174 13.4984 -27.3494 60 68 60
18.303 -20.9315 -15.5737 16 21 30
9.24081 -11.0387 -14.2524 59 26 12
11.8952 40.2557 -5.75817 56 27 17
-18.3605 28.5199 4.91122 87 66 5
37.3417 -26.158 -6.93031 65 78 6
26.8607 -25.5855 4.18924 39 43 30
-29.5192 -25.9093 15.3115 58 91 38
33.0661 -0.314132 -17.6819 63 59 52
13.6466 -20.5726 2.46039 2 1 2
-27.7605 -24.9921 -25.7339 34 62 19
-14.2228 25.2047 -7.67631 18 0 0
5.68365 39.8223 -0.835785 76 72 3
35.2843 -25.3304 -18.4431 64 82 23
7.43441 25.4577 9.16256 103 101 9
14.1133 42.3775 -7.94734 69 69 69
5.19649 -3.49621 -25.3217 67 41 22
10.1344 -8.65831 -14.4486 81 42 15
7.49619 25.6066 9.8792 93 95 26
-8.36249 22.3611 11.0332 72 67 0
25.0167 -13.9784 6.05877 71 51 23
36.459 -26.6043 10.8971 79 96 23
-16.4978 -1.9156 1.769 71 42 18
0.996841 -7.24112 -24.8474 74 71 61
-9.89748 -19.0897 -13.5236 22 21 2
2.03964 36.3871 -12.4276 71 71 15
2.29138 -18.1826 12.8058 52 39 22
-4.79492 15.9524 15.3216 73 61 2
-18.0387 -26.0818 14.3708 89 116 53
18.7245 3.44247 -16.7524 76 70 20
-0.0755901 1.44815 13.1933 77 82 54
-9.50822 -20.1368 -1.0648 6 12 2
33.0148 -26.0425 -9.64206 66 79 10
-16.4063 9.98858 -13.0015 67 74 38
11.664 16.592 13.8325 74 67 2
24.3744 -22.5246 -18.5424 53 36 24
-25.9581 9.02456 34.8652 43 68 75
9.32938 -4.87338 9.81147 71 44 12
1.09841 21.5274 -22.8189 68 67 10
25.3361 -24.2649 -25.5271 47 47 22
0.917979 -26.7022 14.9343 83 104 21
-16.4705 6.64959 -11.4911 75 49 21
8.73818 -13.1182 -23.5913 69 74 68
20.4591 -26.8637 7.37808 79 97 35
-20.4804 26.4471 -18.9681 71 69 32
-8.48335 6.67304 12.2951 133 154 145
-16.4564 8.66842 -7.62385 67 40 11
-20.0341 31.8808 5.71046 77 77 0
-14.0261 -17.2554 12.8475 59 46 31
-7.9604 -25.4525 -28.5774 26 39 19
23.9716 16.6483 -3.80679 84 76 13
28.2549 -7.34583 1.95927 76 55 29
-13.5234 -25.4228 -11.1315 39 65 15
-17.2145 37.8286 -9.87492 36 31 11
25.7896 -26.6783 5.8381 77 83 33
-16.029 -4.08712 10.6562 66 48 27
19.0704 7.40921 1.75246 71 71 5
-26.3354 15.3271 42.6156 18 33 16
-16.1876 22.6892 -12.8274 66 52 0
12.2519 14.1731 -9.75125 38 18 21
15.8889 -26.6663 15.5688 91 115 23
-23.8869 7.68406 17.4768 79 120 126
-25.2301 -0.926129 24.8605 70 88 79
-12.5403 14.5577 -29.0453 69 61 10
-26.149 20.1475 28.5311 48 75 84
-2.91295 41.3597 -9.75004 70 63 13
-30.1088 -25.28 -6.7206 24 69 19
10.8136 43.2856 -8.48691 71 63 17
9.07153 -17.6972 -16.0489 51 32 14
-16.466 4.44254 -9.56499 69 39 10
9.22835 7.02095 11.3261 69 74 65
-26.0565 11.4258 35.5298 47 69 73
-12.1167 43.8898 -8.25913 68 61 15
20.5346 17.0769 -7.48463 87 82 53
9.09835 -23.7498 10.2628 54 37 12
-16.1163 -10.4597 9.73009 54 34 11
-24.0842 -19.8769 11.7725 65 46 22
30.3646 -25.6909 -25.9699 59 64 14
27.8322 -13.7937 -12.8439 75 49 20
13.5421 17.2828 -7.16631 86 89 82
8.88332 -24.6715 -18.3049 17 12 10
9.28423 -8.2282 -16.4426 68 36 14
25.8273 -18.035 6.06094 71 52 33
-25.9195 -7.04672 14.5676 52 76 78
19.6385 -21.9077 -6.99558 38 26 14
-18.962 36.8931 -12.1015 72 72 12
12.9021 -20.1656 2.01379 3 4 0
34.8728 -24.2083 -23.6318 70 82 67
-16.5382 -2.14491 -9.07061 74 49 18
-7.77609 15.2321 -28.3043 70 65 7
-12.1337 -25.5033 -9.49592 95 116 70
-14.1193 -23.9536 -17.6186 34 37 30
19.0471 17.215 -6.86141 85 98 90
35.5212 -13.2393 5.38601 66 74 62
-28.1218 -25.2627 -9.13774 31 68 15
-16.2121 26.9187 -11.4905 44 20 7
26.4577 -26.4728 7.59821 84 98 38
-16.4309 -14.9676 -22.1871 64 43 21
6.43475 16.7573 -26.5621 72 63 16
10.6356 42.5651 -8.88154 68 63 11
-1.9577 -21.392 9.60051 6 2 1
-14.3215 -22.0655 12.4569 56 53 40
8.72392 -12.0577 11.1306 73 83 75
-13.6009 -8.35779 0.00997162 15 9 3
-25.5065 6.03207 49.241 80 97 93
-12.2883 -25.5181 -8.45435 48 70 28
-9.72164 -17.2869 -10.3304 26 33 25
9.2012 -16.9162 5.40491 48 29 4
10.4333 35.7626 0.997272 77 77 0
27.9288 -18.7771 1.33127 55 29 6
26.5212 15.4586 -2.97435 79 76 9
-6.89165 25.4808 -19.8887 66 61 13
8.4221 13.4278 -26.5983 56 45 0
8.24996 -6.48215 -23.4621 72 81 77
2.17739 34.3344 2.56975 72 62 2
-23.8859 1.33546 21.5579 66 54 38
-8.09966 21.7474 -22.9947 67 66 12
-4.63937 -5.71934 12.4513 12 2 3
27.854 -10.7311 -14.7951 61 32 4
31.3064 -26.0246 -9.91362 64 77 13
-5.33663 44.9959 -4.52211 73 86 79
25.2953 3.55881 4.27547 76 66 0
-20.2619 34.6065 1.73658 85 73 0
-23.8954 9.98351 19.2167 70 113 126
4.18848 -24.0436 -25.0093 46 30 18
9.46138 34.8459 -9.1588 48 25 5
-16.4367 7.28447 -13.015 70 42 16
-25.922 7.89288 22.7797 50 72 82
25.2908 -27.9273 -31.1309 69 82 69
33.1152 2.53534 3.29128 71 86 82
-2.68557 15.0164 -28.3143 68 65 8
8.88582 -22.3331 -23.2782 56 41 26
-1.29234 -5.25116 -24.5355 20 1 2
13.2175 14.4248 15.2878 72 63 2
23.2778 -25.5669 5.65863 63 59 32
-14.0004 33.5041 4.31874 77 68 1
-23.9931 10.6071 24.7123 72 108 111
-16.6412 -2.23104 -11.506 75 51 21
-1.54424 -6.13939 12.7038 1 1 2
21.1902 -26.3559 -18.2904 74 73 46
19.7473 -26.3526 -29.5935 37 52 14
-17.9414 -25.2645 -29.3347 32 61 31
2.88445 33.1926 -14.1292 70 71 18
-18.0717 15.1992 16.4785 84 72 11
-7.36912 14.8524 16.2188 73 70 0
9.3583 34.4731 -10.5359 53 33 11
4.55714 31.8972 3.65129 74 74 0
3.65487 16.9049 14.1714 71 62 2
10.5744 -21.3683 -14.2923 3 0 2
19.8491 13.5749 -1.77542 77 75 10
10.262 33.5365 -11.3574 96 82 0
-9.04036 37.8745 1.46079 71 72 0
4.64535 38.8606 -11.0359 73 71 5
31.1043 8.94424 0.868736 67 71 5
32.9663 -25.2716 0.973755 54 64 54
-7.64139 29.1493 6.07092 67 65 0
29.8632 -25.7125 -15.6601 33 34 21
-23.8988 -1.33405 22.9199 75 108 111
-8.60869 -21.1893 -13.0773 32 31 3
-24.0527 15.4444 23.5759 57 87 53
-5.49723 21.5176 11.4679 72 67 0
-15.3201 45.7568 -3.46488 76 82 66
-16.2367 18.4446 1.12152 69 37 4
9.5092 2.84855 4.85468 86 69 17
-1.85324 22.8251 -21.8831 66 67 14
-9.67907 -17.3736 -5.33822 20 17 5
-23.9798 13.1163 22.1639 55 92 65
6.46206 -26.212 -29.3278 45 51 18
-6.14049 -4.52585 12.8627 67 41 16
-9.00626 -7.54292 -23.3099 52 59 60
24.8862 -24.7005 5.88473 61 53 34
-16.2618 3.56721 10.3943 63 37 14
-16.2373 23.2606 -13.6018 43 20 1
-10.7328 18.493 13.8418 80 69 1
12.7863 38.4532 -3.36446 87 70 15
-25.8751 7.47024 19.7195 46 75 76
-13.6431 -25.5191 -6.8855 53 73 21
28.059 -26.1247 -13.7331 62 58 17
-16.0702 -4.8327 10.2306 63 39 13
-16.0864 21.5861 1.43648 67 39 11
19.5905 -21.7984 -7.93685 42 31 15
40.2552 -26.5659 5.07311 63 75 27
11.6712 -9.83657 -15.0997 71 40 22
20.4127 0.566362 6.24665 75 72 0
9.34939 15.6399 -24.7917 84 67 3
-31.4566 -27.2486 -14.7464 57 75 58
-8.60471 0.0269814 13.301 78 56 31
25.5169 -26.5126 10.016 85 108 28
17.8086 4.03343 -16.3336 78 70 19
1.37805 -11.9679 12.8398 28 21 18
16.8388 3.86541 -16.4226 78 72 17
-9.12433 -5.61142 -24.1912 57 59 56
-10.9168 -20.1864 -15.7527 38 29 21
-4.02432 26.168 -19.1787 67 59 15
-16.5168 -7.15171 -19.3123 70 43 17
-15.716 24.46 -2.22688 52 35 28
4.85968 2.15371 -25.3069 67 41 24
-24.078 -17.3746 7.6557 71 94 65
7.52063 5.91413 11.7381 78 93 83
17.9588 5.70612 2.9513 76 64 0
-3.70206 -26.6808 -30.035 49 70 52
18.6554 14.2555 -9.6495 74 73 20
-1.70131 19.3343 12.7628 71 71 2
4.46728 20.0759 11.813 74 62 0
-19.2709 37.259 -11.8883 72 71 15
10.4499 -22.0341 -14.5592 3 1 4
13.4843 17.6964 10.301 89 71 35
13.7434 23.1999 6.8199 80 88 74
-25.8827 -6.8802 19.4424 62 83 83
8.34615 26.4365 -18.7715 75 78 57
10.3181 16.9972 -7.67005 14 8 13
40.3377 -27.7272 -13.4749 70 87 78
-14.3757 -6.19929 -2.03311 53 27 3
-18.6726 -25.8837 11.4114 73 99 39
-24.0928 20.7926 13.3611 67 96 91
-16.6379 18.6454 -23.5774 91 88 8
-20.104 34.0518 -11.5379 106 89 0
-20.7225 30.9921 -14.8901 72 77 54
9.17844 28.0546 -9.62107 67 55 4
18.1963 -20.938 4.51905 46 50 37
7.31833 22.1554 -21.7288 81 78 1
-17.9782 -25.5359 -2.26234 59 78 15
-23.8826 8.30304 17.7044 70 113 120
-24.2959 11.5287 37.0297 58 89 101
-6.01793 44.0534 -2.32794 74 68 2
-23.8854 -11.3942 11.1024 64 90 78
-16.4071 12.0503 -3.11897 45 29 18
12.0419 43.9016 -8.07037 71 60 11
12.1399 25.9022 -15.8173 93 67 4
21.1536 14.9922 -2.66574 78 78 12
4.52208 14.1967 16.0115 67 59 2
14.0181 28.423 4.72227 65 54 24
-10.9585 27.0516 -18.6248 67 59 13
9.23186 -9.99733 -15.9907 65 34 13
-26.4886 -25.4124 -3.32306 37 68 28
-0.637993 -24.3804 9.8205 5 10 3
-20.7411 18.453 -25.247 59 71 55
-3.61617 45.2729 -3.89857 85 84 44
23.6326 -1.41696 7.46522 75 64 0
10.0023 30.0154 -13.3294 97 85 8
26.4494 -26.0333 4.63103 41 49 41
6.51082 29.2617 -15.8496 79 72 20
-0.383785 7.73994 11.4886 0 0 0
35.1595 -25.8105 -25.3668 79 100 37
33.6911 -15.1843 9.36988 68 19 1
8.46003 -5.0852 11.2462 74 87 80
-19.4337 11.8262 16.6146 90 84 26
-16.2599 17.2624 4.33479 68 55 1
-8.87927 35.3372 -13.1226 69 68 14
33.8693 -16.3074 -22.3782 65 80 74
11.076 36.3609 0.637173 77 73 2
-24.0238 10.033 28.8198 67 97 102
25.4501 -14.8203 -10.6671 21 7 3
-23.9583 1.00079 26.8536 83 115 112
33.1369 13.1952 -9.90237 78 72 21
36.9758 -26.4827 6.63554 91 96 21
14.1731 -21.7748 -14.9862 35 36 19
7.00953 2.01786 -24.4447 78 87 82
-24.1806 15.8063 30.6202 30 63 38
12.1148 1.99372 5.29046 83 77 5
26.1538 -26.5334 13.1503 90 108 38
-26.0298 11.3604 28.918 46 67 70
35.2068 -12.8697 -16.8193 75 78 57
-26.1289 16.2496 27.4185 13 45 18
27.4249 -14.3074 -11.1184 68 72 54
-23.8501 2.18493 21.9523 61 54 40
-17.23 -25.4969 -4.51914 57 78 14
-5.28544 41.1563 -9.89212 68 68 12
15.7103 -0.96389 -19.6511 72 72 18
22.9713 -24.6507 5.6992 68 65 39
33.7668 -18.1291 3.36311 55 20 9
21.8739 -26.5312 5.52588 79 84 40
-16.2889 16.0988 -13.6743 49 29 12
24.4346 -24.0531 -25.3409 48 52 17
24.0331 -26.5489 13.9531 95 116 21
-15.957 39.6221 -4.11404 34 13 4
-26.2633 21.8138 29.3944 46 75 84
24.9042 -25.969 -28.2341 48 53 38
-11.7216 26.636 -19.0134 67 61 15
9.20736 -14.8867 1.65962 59 33 4
7.592 23.759 -23.6252 78 80 43
-26.1693 13.373 34.1888 39 69 72
2.72386 36.2864 -12.4755 71 71 13
31.8623 12.2211 -1.03082 73 74 8
29.1283 7.90536 -13.5639 79 75 46
-26.1475 12.6994 34.8635 45 68 77
-11.3387 -22.2154 2.21251 5 8 2
28.7172 6.28139 -6.20932 66 58 52
24.255 4.43979 3.75098 75 67 1
8.88559 -24.7033 -16.4931 17 17 22
-16.2625 16.7049 -0.542216 48 31 13
-16.1074 20.1434 -6.60851 69 38 6
10.3258 -26.1281 -23.5779 46 55 33
9.34089 -0.272614 7.18891 74 49 6
-12.6643 -25.2513 2.65096 53 65 22
36.0765 -26.1807 -3.53037 68 83 7
12.7018 14.0864 -2.16151 73 74 5
-14.6434 -21.9836 11.5808 67 80 70
-10.0458 36.256 2.44742 74 63 0
-9.78143 -2.82936 -25.2169 71 49 31
9.09453 -18.7883 -19.669 53 33 14
18.53 -23.1533 -24.4929 62 49 28
-1.27128 2.89295 11.2129 47 43 34
-15.1727 42.8092 -8.87166 71 69 21
9.52669 -28.072 17.5352 56 71 61
-23.3124 -26.0643 15.7354 79 109 48
2.74451 -4.41798 -25.2824 65 42 22
27.4494 -17.5033 -16.7609 77 70 46
0.486092 17.3135 14.0615 70 70 3
33.5818 13.584 -3.21151 72 81 71
-11.2334 0.568707 -25.1926 65 42 21
-23.0931 -25.0566 -26.0409 31 63 25
-10.9379 31.1429 5.29548 79 74 0
-18.9788 0.62476 -4.76119 72 71 59
13.5832 24.8039 -16.4053 86 61 4
-26.0039 -24.1349 12.1833 53 75 30
-8.64961 40.0986 -10.4784 73 66 14
13.0831 19.3552 -24.0071 73 64 19
7.47779 -8.77673 -23.5212 71 84 78
-24.3379 26.0703 21.2998 51 81 77
-15.1571 29.2066 6.38194 75 66 1
18.7005 -26.2619 7.25723 61 78 28
-31.4674 -26.5997 -16.2635 71 86 79
31.4176 -26.4764 6.44221 55 61 26
-31.2163 -25.5829 0.910549 31 54 26
21.0607 14.7145 -9.26984 70 65 19
-8.89714 44.8494 -6.37539 78 92 85
-23.9979 11.8091 16.4812 85 128 130
-25.7361 16.011 45.6409 77 89 82
-16.4948 6.95014 -7.90779 69 39 9
-13.806 -0.046608 -25.1343 71 49 31
28.9167 -26.0975 -5.48791 67 81 12
-14.7124 -12.3251 11.2551 85 96 87
-12.6572 -10.8623 -11.0508 45 18 9
-24.9158 14.2734 47.8137 58 77 74
-16.0438 32.1153 -0.777388 43 19 0
-20.0211 -25.2002 -22.494 35 65 31
17.1947 -14.3501 3.84788 3 1 2
33.5189 16.1609 -5.43941 70 83 76
0.38098 27.8646 -17.4852 64 61 14
25.7948 16.6991 -3.83685 84 77 12
0.160622 -22.2225 -23.3366 29 34 23
-23.9574 -3.50978 22.3799 74 102 104
19.6093 -23.2942 -22.978 51 61 35
-9.72042 11.9357 18.0653 80 78 5
18.6807 7.31408 -14.0213 76 63 18
-23.9829 8.53377 28.862 64 99 105
7.43031 10.236 11.7978 74 87 80
-10.1729 34.444 3.49986 73 64 0
-8.95339 28.4737 6.74178 69 72 0
-8.921 -18.8562 -4.90401 22 25 6
-16.4979 -1.0863 4.65259 64 35 10
24.8205 -27.2283 17.3695 54 65 34
32.9845 11.038 -8.91035 85 79 15
4.13317 -8.64607 -24.9417 64 41 12
28.5775 3.86359 -12.6937 52 50 38
16.8188 -15.5939 3.39043 18 3 0
9.20781 -13.1086 -17.8451 70 40 13
-16.0207 38.737 -5.573 32 11 2
-14.4909 40.8106 -12.3899 62 71 63
-16.416 -19.2335 -20.6512 55 37 20
34.0688 -13.316 6.85016 84 91 42
21.3101 -7.99298 5.5429 68 41 13
-11.4025 -13.565 -9.1386 34 19 7
31.644 -2.25591 5.29331 25 8 22
-18.0123 18.3196 -26.1355 65 63 6
33.2039 5.9188 0.621712 52 55 44
26.4752 2.90525 4.65731 88 83 7
-18.6203 27.3154 5.63923 86 71 11
27.7102 -9.95668 -11.1286 72 71 25
-19.9284 14.6228 14.5951 93 85 0
-28.7462 -25.9167 9.5538 52 86 31
9.21654 -18.0037 10.7143 52 36 16
-22.3543 -23.0877 6.24097 62 83 32
13.7955 41.5741 -9.2691 69 57 14
6.05818 35.2694 1.6883 75 72 0
-25.9641 7.33763 29.1085 47 71 78
-24.2418 20.3361 26.7853 39 60 42
1.07415 2.28754 12.2766 55 61 57
-23.9661 9.60173 24.1405 85 116 121
-7.2065 -14.1384 10.4311 3 0 2
7.1881 -18.3833 12.7955 66 65 53
9.12482 37.7039 2.87951 66 72 68
17.5711 5.89037 -15.0271 78 65 18
-16.5876 -2.57565 -22.2019 75 55 38
-11.4077 -23.5554 12.7715 55 39 17
-31.405 -25.3459 -25.3425 59 82 68
40.4048 -27.3255 7.47263 68 89 76
-26.2029 21.7657 26.5112 24 44 26
-23.9648 -3.2963 22.887 76 111 113
-24.605 3.96252 13.5951 69 82 73
28.7185 6.09598 -5.14894 62 56 50
-25.929 15.2497 15.9437 51 76 82
-15.5739 26.2706 -8.74673 69 75 63
-16.6393 1.84649 -17.3561 70 42 18
15.4562 10.4087 0.0531845 73 71 4
-16.1648 17.2835 8.74899 67 56 1
-25.9924 10.7111 23.5843 44 75 84
33.2563 -25.2892 -21.5508 75 96 33
-26.0361 15.5451 19.2646 49 76 83
-16.2473 17.5599 -11.5342 68 42 3
-30.3249 -25.0836 -17.8665 28 70 21
4.46548 -11.605 -25.0007 65 45 18
20.9226 -13.3105 5.38146 66 45 19
-17.415 33.3485 -14.1445 71 75 17
-31.4441 -25.3182 -15.7291 35 60 29
-5.08833 -22.6702 -25.4294 30 38 17
7.46514 24.5234 10.6232 88 91 34
-23.9929 -12.3325 13.0319 73 103 97
-18.9007 21.388 -21.2537 109 100 8
-11.6397 -15.2236 0.267899 10 5 3
-11.3292 -25.7004 -1.71006 47 67 25
-31.2515 -26.6395 -3.4417 58 80 66
9.56497 30.6267 -15.1378 74 77 22
-10.7525 -15.8617 -3.61539 19 21 9
-20.3005 36.6835 2.93362 71 70 22
-14.6059 -7.5742 -16.6576 61 69 65
-23.9481 11.5679 19.455 56 98 74
21.2243 -15.055 -17.6904 70 44 27
-11.8625 -12.4336 -8.42305 36 17 7
9.09004 -18.203 -20.4767 55 35 15
13.6121 29.3057 2.04876 85 78 42
7.1036 -26.6704 14.2036 86 100 26
30.8244 15.6557 -8.39908 71 62 19
8.93723 -26.3127 -23.2179 23 22 20
9.82039 -10.5589 -13.9293 73 39 24
-24.1612 10.4962 33.5756 28 50 37
-24.1715 -22.2371 13.278 75 101 65
-24.2111 18.8064 28.5451 31 61 39
37.6095 -24.8597 -31.4085 12 14 12
10.6079 -28.4371 17.8498 54 68 58
-8.99965 -23.6586 -23.442 32 35 41
9.42626 17.7176 -4.51789 70 36 5
1.76375 7.81702 -25.2282 70 48 27
22.7306 -15.3606 5.73498 74 52 25
9.6665 -16.2842 1.98682 6 2 3
-5.30648 39.4892 -10.7993 71 66 16
28.0034 -19.5524 3.94817 37 17 8
-16.1589 10.8705 -21.7596 58 42 26
-24.1715 -12.4422 17.7072 78 105 100
32.4895 -0.0208139 6.45149 74 75 1
-26.3049 13.8283 46.9911 52 78 79
11.6053 0.224735 6.40171 83 72 4
2.74497 14.1786 16.1311 68 67 4
-9.58315 20.878 -23.7691 69 68 15
-23.8566 1.66736 25.1512 73 105 112
-26.2298 10.3535 42.9094 19 43 15
12.933 36.2677 0.577862 76 75 4
3.51096 43.6747 -2.83313 79 79 7
-25.8291 5.25807 22.5919 47 73 79
-8.07241 1.19675 -25.4897 66 68 58
-11.0712 -25.9357 -29.9304 40 62 35
-16.3573 13.4872 -10.8932 57 44 14
0.125164 44.9839 -6.86442 75 92 87
-5.61305 24.5328 9.38072 74 62 2
-7.03063 23.8968 -21.2135 69 66 18
-10.4839 36.1059 2.54661 70 65 0
35.5027 -19.9788 4.46436 81 97 93
25.6664 4.84995 3.40928 77 65 0
-0.250408 41.2007 -1.13118 75 71 1
34.3557 -18.2516 13.0331 69 82 74
-14.9372 -21.1505 -23.8343 76 92 87
-24.1824 -7.4086 16.3315 69 59 48
-24.2045 21.7732 20.6688 50 75 58
20.1687 5.43926 -15.4423 75 61 19
40.3955 -28.1824 11.7317 66 89 78
-10.5249 -25.4418 -15.9165 48 65 15
20.6761 12.4406 -10.8456 71 66 18
-8.24886 -23.7695 -14.038 28 33 7
0.963184 24.7527 8.78379 72 63 2
31.8912 -2.74165 8.25139 76 72 1
11.9324 34.7578 -10.5563 91 78 1
-7.76014 2.11608 13.0288 66 73 55
10.9218 8.54967 0.966293 81 76 4
9.17363 -11.6988 -17.7134 70 40 11
-16.3582 -15.2155 -18.7561 57 37 16
9.08509 -24.5351 10.0606 56 38 10
9.36204 8.71432 10.5006 77 50 19
-19.6911 21.8822 11.878 86 88 15
-4.72273 22.2695 -22.4558 68 70 17
-19.0017 -25.2353 -22.8202 40 73 36
32.884 0.367702 3.96682 52 51 51
-25.7204 1.13348 24.9062 53 72 75
-14.1852 23.6817 -22.0226 84 83 14
-10.3224 -25.6005 -7.10735 38 63 23
-16.5074 5.76304 5.30152 66 37 13
-14.1665 31.4339 -15.2142 71 73 18
9.21055 -11.7588 -15.5854 61 35 14
12.9128 6.17336 -14.6808 83 72 17
-16.3535 -11.7551 -18.2174 68 43 18
1.49215 43.5762 -8.46789 68 65 12
-29.175 -25.7437 6.09952 55 83 28
-15.3388 -9.90005 -17.5923 75 90 82
27.621 -26.15 -12.8728 61 58 6
9.39429 4.40243 7.11765 75 49 14
6.79584 27.1343 -17.7321 70 61 24
-13.3225 -11.0756 -24.8982 68 45 21
35.4871 -17.7438 1.39542 81 68 7
9.38959 19.0994 -8.48924 75 44 8
-16.2731 12.2978 -17.1317 60 52 27
9.40743 12.1236 -16.0623 53 38 21
-16.0622 30.3691 -0.821751 44 22 8
35.1562 -24.7239 -21.168 61 75 30
-19.4329 43.4546 -8.45131 69 57 19
-16.704 -0.0600243 -17.8001 71 44 17
-1.13175 36.5417 1.61362 72 65 0
36.5754 -26.1804 -4.44228 67 84 5
34.6342 -25.628 1.07704 80 81 57
22.4911 -20.2691 5.71157 62 53 31
-26.1819 17.1653 31.4535 31 54 58
-18.9218 -25.4248 -5.40108 54 74 22
33.5018 -22.19 -22.7797 81 100 73
9.19956 -12.7461 -19.9317 71 43 16
-4.03821 -19.3771 -22.5153 2 0 0
-23.8699 7.72262 19.8615 114 154 158
27.4934 -13.8239 4.22164 74 84 74
-15.9255 27.9083 -14.0351 28 19 5
-16.0301 -25.7655 -24.4312 9 32 1
-8.8348 -2.41391 13.226 80 55 30
0.391941 20.6771 -23.5383 70 70 13
-16.1739 19.5366 -9.99905 67 37 3
-24.0321 16.2859 23.2976 84 98 83
-16.4728 6.27915 -8.04349 70 38 11
25.9421 -20.7205 -10.974 60 50 24
26.3045 -6.09185 6.00738 63 48 25
-0.518639 28.4395 -16.9301 60 56 11
3.48292 5.42973 13.2156 66 42 16
-26.1506 16.4217 30.0483 14 40 17
38.8042 -25.7995 -23.9688 78 98 31
-26.107 15.2807 25.4457 13 45 14
34.3909 -16.2541 1.04368 56 62 60
21.5359 -16.5649 -17.846 71 44 25
-28.0624 -26.0803 15.2666 54 86 39
21.4886 16.246 -3.47513 82 73 11
-25.6621 16.1291 11.5801 49 73 73
-13.0557 -16.1537 13.0132 59 43 20
-26.0815 10.8138 47.4318 48 70 73
8.92752 -24.2938 -17.0073 52 33 10
6.29035 -23.002 12.7974 56 38 20
-5.74129 43.2475 -1.88522 74 68 4
-16.3762 -21.6685 -18.8535 55 38 18
14.1678 -10.8031 4.35552 55 30 9
-16.3025 32.9688 4.84027 77 76 0
35.0402 -18.7906 1.0807 76 80 70
-29.2827 -25.3191 -4.95653 27 64 20
-26.1747 22.4269 24.8345 26 56 39
-12.7587 -10.1531 -7.78769 21 16 6
-26.1595 15.8215 32.0314 16 39 15
-9.05245 -11.8144 -24.1619 84 97 88
-16.351 31.3412 3.50599 98 92 26
9.41172 16.8249 5.83853 63 48 14
-26.1129 12.357 35.8514 25 47 32
-19.1279 28.2355 7.43201 80 76 4
28.1457 16.1924 -8.12303 71 62 23
-16.3019 13.3591 7.32077 53 37 14
9.26585 -12.4328 8.66821 67 43 13
34.9053 -13.4515 2.9432 65 77 66
-26.0003 -12.6937 16.0664 60 80 76
7.60143 17.7568 -25.6352 71 65 19
-8.77274 -21.3827 -23.0744 27 24 20
-13.267 32.7684 4.69479 76 70 0
-25.3617 24.2885 13.2241 62 73 68
-26.0365 16.7898 16.3746 46 70 67
-14.5402 -17.8825 -24.8592 58 45 33
11.6455 6.85154 -14.1401 88 80 19
-25.9889 5.23829 45.0841 36 62 68
-24.0909 9.92757 32.0311 30 57 51
-3.45859 43.1507 -8.74409 69 64 6
-19.3251 12.254 18.2724 87 87 35
9.19671 11.7441 10.8885 55 40 26
-23.5117 -20.2892 6.19389 61 81 39
-14.6081 -24.3429 11.6818 61 77 65
4.23508 16.3608 -26.9469 72 61 14
-1.42394 -26.3918 12.5196 63 85 17
-12.1797 -11.8102 -9.896 38 19 6
-18.3096 21.2032 -23.6161 67 69 12
-20.655 44.4071 -7.33045 67 79 65
-9.64553 -13.0362 -24.9283 67 47 26
-28.5848 -25.7684 6.63797 58 81 25
-12.6948 -25.4119 -15.4129 51 67 16
17.2382 -27.6079 -30.0474 53 69 60
-18.3052 19.8872 10.799 93 86 1
-25.8492 -12.6955 9.07398 55 78 66
-0.108562 38.1636 -11.4958 72 69 7
9.14943 24.0565 9.60663 88 88 2
19.5356 3.69221 4.27409 73 70 0
13.1197 -25.4011 5.55215 75 93 24
27.0727 -13.7857 -16.691 79 86 68
9.85556 7.7523 -13.3463 53 38 20
33.4488 -8.38361 -15.3815 69 90 83
13.7159 -21.0108 -14.0484 53 57 49
28.4466 -26.1464 -3.03539 66 81 10
25.4481 8.64301 -13.1343 65 58 14
-1.46707 23.028 10.1804 70 70 1
-13.3787 -0.893219 -25.1342 68 45 25
6.87818 -19.7512 -24.5738 60 55 47
-13.424 -9.07319 -12.9868 51 32 7
35.0352 -26.091 10.4333 76 72 0
-11.0774 -10.1734 13.0466 76 47 22
23.4665 15.0925 -2.72273 80 81 13
-6.77483 16.7462 -27.042 71 65 9
-17.8168 27.3957 -16.2453 72 69 11
-24.2441 15.6079 33.7099 77 115 83
-15.9194 21.5385 -4.33057 72 44 9
-10.7842 -0.2472 -25.2179 65 41 18
-11.1343 34.8032 3.34816 75 71 3
6.33142 -0.083065 -25.3251 67 44 25
-9.30782 3.49929 -25.1516 72 50 29
0.773865 11.4333 -29.4792 61 69 60
22.5515 14.2764 -9.56382 71 67 22
2.09792 -23.7479 12.4867 55 40 23
-14.8946 -26.1643 13.0859 116 135 88
9.4091 12.4083 6.72396 57 42 22
15.245 -22.6976 -18.1495 30 29 12
4.11924 -7.84887 13.1735 69 43 17
-16.0953 34.4789 -0.997019 47 38 16
-2.14495 -22.5263 9.53894 4 5 2
-12.7038 44.3398 -7.97142 69 68 15
-12.1061 44.5466 -5.02375 69 85 76
-26.0207 -12.0758 14.4593 46 33 11
-26.0121 12.0434 26.7409 45 44 29
10.4858 36.787 -7.34136 67 34 1
-26.127 15.954 27.0407 14 48 20
-16.4291 3.19599 -4.64988 74 37 10
-11.3223 -15.7696 -0.373426 13 6 3
-16.1976 19.0223 -7.50112 67 37 2
8.29622 26.9456 -8.93219 28 44 38
7.72324 -21.6363 -23.7292 68 80 75
9.38832 12.8657 7.55079 56 39 21
9.43634 10.57 2.75685 60 51 21
9.41397 12.3291 -14.3772 47 31 23
-0.513783 1.8153 13.042 62 67 51
4.02372 42.7029 -2.32232 80 73 5
14.2839 9.59672 -12.5798 88 84 20
2.26465 32.5342 3.54074 71 62 0
2.08201 2.15089 -25.3229 66 43 23
-20.2227 17.1364 -27.2122 63 68 15
-16.6642 0.862488 -14.3042 69 40 14
-16.0923 32.4092 -5.31715 49 32 5
35.5727 -26.1789 -2.73203 65 79 0
-24.2408 19.3212 28.1323 39 64 45
13.4196 43.7905 -3.61844 82 78 11
9.26939 -12.5684 7.86245 67 40 7
-12.7822 -25.6338 -2.35378 48 69 26
-26.2897 16.2662 39.8365 17 34 17
-1.16482 -17.5088 10.2002 2 1 2
-16.4923 6.5864 4.01305 66 39 14
-31.419 -26.7421 -20.4238 74 89 81
-18.4678 13.6244 -30.0377 68 63 12
25.317 -1.75954 7.66832 75 60 0
-23.8385 6.1744 17.2198 73 113 117
1.53996 -15.7779 12.1623 54 61 52
25.2892 -26.1087 -7.72654 66 82 21
-10.266 -26.2643 13.0687 103 115 58
29.3818 5.94844 2.58743 79 77 1
14.3134 -11.9408 3.8101 0 0 1
-18.9732 43.5559 -8.37366 69 59 14
0.0642319 25.0943 8.61525 71 62 0
24.6012 -15.272 -18.4775 73 43 24
1.54888 25.2695 -19.668 65 58 14
-9.11103 -15.5349 -23.5997 82 95 87
11.5929 -26.5642 10.1161 91 112 32
-21.086 -26.0182 14.9952 115 143 77
9.27874 1.39995 -20.6347 81 59 34
8.46247 25.4218 10.6189 71 79 63
26.922 -26.4819 10.2759 92 108 33
-31.4956 -25.7897 -8.46727 61 80 70
3.73601 -7.57663 -24.9586 65 48 26
-13.1302 -12.1101 -14.5081 35 20 5
0.734779 15.9123 15.0491 67 56 1
-16.9748 24.9567 -18.62 52 37 13
-16.4052 6.17989 -14.9729 70 41 15
-16.523 2.05465 -0.168888 69 39 14
9.30028 22.0489 -17.3269 44 28 1
9.32664 14.4911 9.12702 63 40 21
11.6683 20.3331 11.0952 77 73 3
-1.10667 34.7812 2.60884 70 63 0
19.0762 13.0699 -1.48412 77 72 9
-0.720497 39.1343 0.0981522 74 66 1
-16.5401 -6.20306 -19.2525 68 42 19
26.968 -12.2165 -11.02 80 92 85
-23.8372 -3.47874 20.1506 71 82 68
-23.9783 -17.3319 11.226 62 46 20
-25.9005 -18.6194 16.5892 65 82 70
-11.0737 41.8135 -9.49299 75 64 8
-24.0657 18.2774 22.171 65 96 86
33.5024 -12.0516 -12.9322 44 66 51
1.28431 -19.0031 -23.6645 52 64 58
35.185 -17.5706 -19.7516 46 60 51
31.7093 7.47576 -11.4598 90 85 19
-24.0138 6.3844 32.1246 38 58 43
35.2598 -22.6816 -14.4712 67 83 41
2.23213 17.1699 -26.3447 69 59 14
27.7292 -9.7901 -16.2791 60 40 19
-5.04369 32.6394 4.09985 73 64 0
-16.5075 -7.64586 -20.5131 69 45 15
-22.9756 -25.0685 -25.5126 34 63 29
-16.1903 16.4823 8.26482 48 32 15
33.8483 -17.1474 4.82365 63 9 4
-14.9087 -24.5501 -24.6342 71 85 72
-8.46798 4.95453 12.4911 121 136 120
-26.2119 21.9328 25.6375 23 49 27
-23.2451 -25.4597 -0.718647 57 78 27
-28.3585 -25.9575 11.3001 69 103 52
-15.3442 33.1917 1.81796 97 116 71
32.7685 -3.85991 -18.6838 55 55 54
-8.74667 -4.68518 -24.8226 60 43 28
-13.3284 21.3624 11.8149 79 75 0
9.27534 4.25707 -21.779 77 51 25
8.1095 11.0992 -23.5479 44 40 22
9.26047 -6.11897 -17.5858 65 33 11
25.6108 6.58232 2.26152 76 69 3
10.5257 17.3673 -7.09205 23 13 13
-24.0197 -8.21545 13.1036 81 108 106
19.9771 13.0775 -1.47902 73 75 9
-22.3288 -26.1599 16.7922 82 111 43
12.2974 15.5115 14.5846 73 59 1
8.95657 22.5961 -24.7889 83 89 63
32.8606 -25.3598 2.3737 64 58 22
9.10568 -14.3708 -22.3186 69 47 26
-1.89439 2.34284 11.4329 64 76 68
-17.7831 17.7874 -24.27 89 86 10
1.88393 36.5529 1.3691 71 70 0
22.7357 -23.9127 -18.2714 54 35 24
17.9861 16.6183 -5.63571 87 98 90
-25.9345 6.31616 27.7344 45 74 75
26.2272 -26.6754 15.9435 91 109 21
10.6116 -0.639694 -19.2947 77 64 14
2.98129 -21.94 12.7074 55 43 24
15.1631 5.02172 3.34792 77 63 3
6.49149 23.6541 -20.7201 81 75 1
-24.054 -12.4963 10.0677 69 101 90
-0.35244 27.9126 -17.4743 63 61 12
11.0026 11.3467 17.463 62 65 2
9.43625 18.8731 -3.06078 70 39 4
19.8567 2.61966 4.95627 76 74 0
-16.4623 6.1884 -5.13599 68 38 9
0.670368 -26.4313 11.885 20 29 15
31.2909 -26.2258 -29.8456 42 55 26
12.0773 -23.2769 -15.7759 34 39 31
14.3987 -26.5972 13.821 84 111 32
-1.61869 24.6869 -20.3085 67 65 16
-15.1621 43.3387 -8.5511 71 70 24
-16.148 -24.1283 9.17612 31 20 1
-16.3831 -20.0205 -22.4039 57 41 23
-1.79756 20.0033 12.3196 72 73 4
-24.2587 25.5838 19.0411 65 106 111
10.3858 18.3294 -22.6548 96 87 8
-6.81709 -12.3208 -22.2808 6 2 0
40.4289 -27.2299 10.9998 71 88 77
17.8776 0.184151 6.47639 77 70 1
-14.279 5.85196 12.6657 59 62 54
1.51846 41.5272 -1.44303 77 73 5
-26.1627 15.7397 34.4815 25 47 34
9.29754 5.41992 -21.2568 80 52 25
7.61564 25.8675 -21.73 78 83 41
34.1376 -19.0698 1.07301 51 54 54
12.7851 28.8974 2.18452 130 111 78
-16.4147 -3.08632 3.24012 69 42 14
-13.6951 -22.7595 4.80665 9 0 3
-18.7475 -24.616 6.98964 34 37 16
20.4614 -23.4613 5.34337 36 38 22
-24.4315 11.3891 43.8573 54 82 83
-19.6372 13.0883 18.023 86 75 13
-16.0823 -8.37805 6.72433 64 37 15
-16.2237 22.2344 -17.792 37 18 0
9.26206 -9.49905 -15.1333 67 38 28
-14.9149 28.8618 -8.19486 48 43 9
33.6979 -16.6955 4.37494 50 1 0
-8.72705 -10.292 12.9568 71 50 20
-24.8833 -14.4938 18.6061 73 88 83
-25.7777 4.12055 21.5295 47 75 76
-16.0831 -5.62606 9.7368 64 45 24
-16.1037 34.9724 -1.83054 45 20 2
-26.0147 -15.155 12.3517 45 39 18
-23.8938 3.217 13.9628 86 119 123
-25.5909 -14.0378 18.747 70 85 80
-1.36817 37.8784 0.868419 74 66 0
0.197258 12.9695 -29.7367 71 67 10
7.58507 38.0478 -12.4374 94 93 1
-15.1265 4.37094 11.232 84 95 89
10.6995 -20.7032 -14.0264 0 0 5
-24.2918 25.331 20.7202 65 99 106
-14.1553 17.1847 -26.972 67 56 10
-4.98999 29.4062 5.51833 63 62 21
-7.77474 -26.3019 14.9063 81 109 45
-16.6347 2.3463 -15.818 69 44 19
6.20927 27.3056 6.53469 72 62 2
-15.3351 23.5963 -23.8465 68 76 66
-7.50416 25.429 8.84264 73 62 1
-24.271 16.3554 34.9312 37 57 42
27.8882 -10.0984 -13.9918 67 39 14
8.98538 -25.4699 9.09548 54 37 21
37.443 -26.205 -4.16921 66 81 5
-20.539 43.1134 -0.933224 81 80 45
27.8499 -2.54299 -18.4132 80 69 3
32.234 16.2691 -5.33582 78 92 84
-16.3083 11.1135 -16.0391 48 30 14
18.3719 9.37538 -12.8745 79 76 18
8.19638 9.31537 11.4661 65 79 73
-15.7818 39.7988 -10.5817 77 79 2
-9.91869 3.73507 13.3427 77 49 26
25.79 -25.1361 -11.6001 49 54 25
9.40656 11.892 8.78388 75 69 24
-19.0044 36.0408 3.23274 75 71 1
-2.3093 -22.0044 9.51578 4 4 1
-13.7803 -10.1966 -24.8853 70 45 21
-26.0626 11.0128 37.2668 42 60 60
23.7223 -6.72441 5.87408 68 44 25
27.5344 -26.4763 10.237 87 107 24
-24.1095 21.25 14.7155 85 116 117
-17.1339 19.031 11.357 94 90 1
18.6606 16.1631 -3.42096 83 75 10
-26.1401 19.2573 20.3751 20 48 29
9.49009 17.4767 -7.41348 51 31 15
8.91887 -26.6034 10.9808 47 59 50
9.30031 -0.909006 10.8651 72 51 31
19.7137 -24.8691 -17.6027 29 40 29
34.8081 -26.555 11.0967 54 62 34
-17.0155 26.0787 6.52496 86 72 6
-14.5907 33.7202 -14.14 88 85 48
7.26298 -1.46566 11.9198 78 92 85
-15.5547 40.5999 -12.5264 74 82 41
33.4447 -22.8973 12.5899 80 75 14
39.1253 -26.885 -28.0969 68 90 65
32.3504 15.3424 -2.97882 76 77 11
21.0337 -24.8326 -17.9758 48 33 23
-15.2816 26.2425 -16.7559 51 35 1
-11.2295 -3.44391 -25.1857 65 43 22
-11.5692 -16.9624 1.28469 11 9 0
11.6422 17.9756 12.8247 74 70 2
-10.8748 -25.944 12.7835 60 59 22
35.6265 -26.1255 -5.8474 64 79 5
-14.759 8.13276 -23.8515 77 92 89
-24.1665 19.5757 25.1374 50 80 74
-28.5246 -25.1858 -12.7487 40 71 15
-16.5718 2.77983 -12.5057 69 41 15
0.908409 16.6816 14.4936 70 60 1
-9.41285 -4.164 -25.2176 72 50 31
34.809 -26.0355 -12.9366 75 92 19
27.1228 7.81764 1.99355 104 102 38
23.0455 1.88635 5.40711 75 74 0
-25.9039 -24.0337 2.95264 49 69 12
-4.40573 14.912 -28.4374 68 58 10
-16.0986 22.0358 3.1262 67 37 12
-25.4494 -1.30681 15.9117 53 74 76
-25.646 4.87846 35.5092 46 67 72
-13.5591 14.3127 -26.8128 97 63 6
-6.34984 30.4305 5.15799 77 74 6
7.52295 21.2267 -22.7164 85 82 3
-4.0332 34.5672 -13.5185 69 64 14
-25.5332 -2.45784 18.9588 37 26 8
-16.3482 14.5847 -5.53362 57 35 21
-15.9708 -13.2035 6.01075 64 40 18
5.96298 17.6305 -25.822 72 64 17
5.47983 16.8011 -26.5348 69 61 13
9.27386 29.4122 -10.3908 49 29 1
25.9477 -10.7795 6.11753 66 43 21
11.2727 0.852905 -18.3608 76 67 18
22.2336 -12.9205 5.65452 72 48 22
9.0606 -20.3423 -19.6961 49 31 10
-5.47286 11.8536 17.967 75 74 6
-20.86 24.0021 9.02722 65 78 68
-16.6239 2.65012 -14.7769 67 40 13
26.7758 6.06277 3.1468 93 84 15
8.56889 30.7315 3.8896 76 73 3
-10.2298 0.446659 13.3242 78 50 25
15.8427 4.4841 -15.9851 81 70 14
-16.0176 21.0184 7.97977 47 28 0
9.27333 21.1488 -23.0774 86 85 11
-10.4695 -25.5351 -9.56708 54 73 16
7.6828 16.7776 13.9925 71 66 1
10.0151 31.2526 -12.6653 112 110 25
28.6716 -4.15428 -19.3745 68 54 1
9.29989 -13.3834 2.88833 62 34 8
4.74988 37.2105 -11.9024 74 73 2
-26.2549 11.8639 42.4704 40 65 66
-9.72006 -8.35238 -24.8262 67 47 22
-19.5884 24.7755 9.91164 87 81 7
-2.46061 -1.92365 -25.2254 70 42 23
33.4564 -21.7383 9.07861 77 63 14
28.9439 12.3563 -1.06621 73 75 7
-26.0067 28.8276 18.9963 53 73 69
-26.1602 19.3031 35.3611 46 77 86
13.5972 13.4827 -26.5749 66 55 0
22.6284 -26.8637 8.26855 92 108 38
5.52305 41.1202 -9.79976 73 64 13
-25.8808 5.01122 26.2056 50 73 78
-7.7579 -14.7464 10.6889 6 1 0
-16.9231 -24.3416 3.53995 57 77 19
-20.9297 -25.9263 13.497 78 109 48
26.2977 -21.1728 -1.16065 61 65 59
-8.67107 -24.0648 10.681 61 72 64
5.91702 -26.3935 -25.5724 64 65 44
9.09568 35.5095 3.66516 68 80 64
35.3176 -23.895 -19.43 67 78 30
-5.80135 15.8704 -27.7436 71 60 10
28.2012 -11.1359 3.89168 73 50 32
-26.0085 12.2063 22.5605 34 66 69
-16.35 -22.1635 -20.0894 57 40 20
5.70089 36.1104 1.25941 74 74 6
-21.8832 -25.1485 -21.1088 33 67 24
-8.63564 -25.5782 -0.0578709 47 57 28
-0.648388 -22.5388 -23.8431 29 35 25
25.7569 -24.1322 -24.1308 69 51 21
-0.897846 1.09545 -28.0934 69 75 67
9.25823 8.36949 10.9452 73 51 27
-7.32188 -7.0791 -23.3318 6 5 15
13.7132 15.8649 -26.9161 64 63 34
-10.5725 22.1208 11.2841 74 78 0
-12.689 -10.7449 -2.96548 29 10 5
-24.1516 -10.5942 17.9864 78 106 105
-25.7185 -0.636185 19.8199 38 32 15
4.51476 2.16339 13.2794 68 41 19
12.0347 29.3881 4.09439 75 66 10
-28.8907 -25.7473 5.65994 99 126 70
21.8671 9.69234 0.521608 72 72 11
3.81011 15.2913 15.3023 69 59 1
-4.7403 -6.39568 -24.1668 4 3 13
27.6142 -21.0771 -12.2116 78 74 9
-8.36657 -24.9408 -16.9954 30 34 11
24.4351 -23.119 5.92406 61 55 39
-16.2224 18.3695 -10.2277 66 36 4
-25.7863 -5.68111 18.6083 48 41 28
12.6509 36.1295 -12.1218 73 64 6
-1.51355 23.9648 -20.928 67 65 16
32.1403 -26.3885 2.91999 43 53 26
-26.1672 28.5028 20.4165 52 72 76
6.98951 3.27222 -24.7348 76 83 76
9.36313 0.38028 6.5198 86 65 15
-20.9108 -25.6984 11.115 82 105 51
20.2566 -8.91221 5.39543 68 43 12
21.7075 16.8876 -4.00699 85 76 12
1.82129 -26.6789 14.7697 86 107 24
-23.9866 9.97577 27.1408 63 100 103
-26.2006 23.172 21.3076 52 79 84
33.2386 -25.2634 -20.5824 77 98 31
15.0476 15.2084 -8.96192 74 69 22
11.0961 -28.4039 17.7957 37 42 36
9.11791 -23.3931 5.80492 47 32 4
-12.6974 -26.3089 16.8074 86 115 44
-13.0015 -25.7197 1.42656 59 80 31
-14.9318 -18.0983 -23.8815 78 92 84
-10.3479 -15.7061 -8.14358 23 21 6
-16.4781 3.59792 -2.22732 71 44 14
-0.284542 -0.420494 -25.3189 66 40 21
10.2628 -26.1078 -19.9274 45 34 31
1.67479 13.5778 -29.2448 71 70 14
7.78237 -13.3718 11.3196 75 91 83
31.9991 -26.081 -6.71898 64 78 0
13.8683 22.4734 -21.068 67 68 33
35.2252 -11.5085 -16.7003 70 71 48
-23.7944 -26.6052 17.5657 64 84 69
9.37436 18.6385 3.87548 72 42 10
9.23302 27.7445 -0.281302 50 23 3
-30.4245 -25.2526 -6.02735 29 64 19
13.9444 32.0291 2.17246 74 86 64
9.27625 -12.5353 9.36454 70 48 18
-14.126 1.52498 -25.136 72 48 28
-3.46479 41.0675 -0.804901 71 72 3
2.32023 5.6328 -25.2765 66 41 22
36.6322 -25.8429 -29.7894 77 101 39
27.4353 9.17442 -12.8004 73 68 11
-24.57 8.40563 40.9801 83 111 114
16.168 -27.7867 -30.1183 50 70 53
35.1611 -13.2935 -14.0093 71 82 65
-8.9585 -22.918 0.0447578 22 16 16
19.1747 -19.9062 4.81287 2 6 1
-25.4007 -2.82533 14.1731 64 83 81
12.8035 -27.3746 17.5829 58 73 62
16.2651 -27.1421 17.5254 56 65 50
-15.6722 12.4524 18.1552 81 83 7
10.0406 22.3334 -18.9409 82 69 4
39.0984 -25.9493 -18.267 74 91 35
-14.257 -9.98797 12.549 74 68 51
35.7354 -15.8868 9.32285 85 33 12
-16.2238 -3.14173 9.86929 62 37 13
5.24497 0.948608 -25.3152 68 42 21
26.7242 -24.8103 -20.9932 24 33 17
-23.9531 4.68216 29.4158 69 102 106
-19.7777 44.4818 -5.46922 84 100 89
9.33786 14.02 9.39498 74 48 25
-14.2701 0.773235 -25.0992 72 47 28
-14.5349 29.691 -5.64597 54 43 0
13.3908 28.0317 -16.0018 70 62 18
9.85195 23.02 -18.2553 85 72 30
26.412 -26.1362 -6.3442 67 81 10
29.6051 -26.1702 -1.98657 65 79 29
-4.47146 30.5444 5.01442 77 77 7
-6.02066 27.8167 7.07258 71 59 0
28.6575 6.24246 4.46995 81 88 44
-24.0518 19.2834 17.8499 88 120 122
-16.4722 -3.46666 -5.9817 74 48 19
13.894 -23.5665 -20.6673 9 17 7
-15.8381 39.6634 -12.1224 78 79 2
27.6561 -22.4217 -0.145232 52 37 7
-26.1113 11.85 34.2276 38 55 48
-17.8282 11.5357 16.6735 93 90 46
-15.6982 24.5254 -8.85031 68 60 52
-25.2381 2.15094 14.7843 59 79 75
-9.71123 -25.6219 -6.53515 41 65 22
-24.5541 21.0907 31.0649 71 91 93
-15.275 31.4146 0.895506 41 25 18
16.7581 -7.45335 4.87762 69 41 14
12.9291 1.99292 -17.6116 75 69 13
-15.9527 17.4465 -20.9919 64 57 15
26.3027 -19.2437 -10.8919 69 58 22
25.6095 -25.6492 -2.51064 41 45 9
26.4873 -25.9037 -29.5277 84 103 41
10.3816 16.9451 -4.45909 30 18 1
-25.9594 -7.86174 19.8204 64 81 81
28.5479 2.14371 -3.47031 49 30 12
-26.1981 24.1776 20.025 53 81 89
-24.4915 -25.4264 -1.56806 54 80 25
27.8564 -6.88793 -9.40236 80 78 29
-5.32421 -17.6094 9.70255 3 2 1
9.26571 27.7101 -10.3881 65 44 2
21.2516 -18.3454 5.50484 69 49 23
-23.9475 10.4267 17.62 23 74 46
-19.6601 30.5018 5.89046 87 89 36
-24.2116 23.1737 23.089 65 102 109
-26.1332 15.3108 31.3783 11 41 12
12.645 -22.9767 -15.9033 25 31 22
-4.09317 36.6569 1.79111 72 66 0
-13.7699 -9.99237 4.70881 1 0 6
27.6083 -27.2338 -31.1046 89 101 94
-15.997 22.2925 7.5542 63 63 29
2.02009 29.711 4.7003 79 75 11
-25.8833 4.84835 28.188 49 73 78
1.84638 35.3503 2.03812 77 64 0
-8.80547 -18.836 -5.82758 22 26 4
-18.8877 13.5264 17.6693 87 81 10
-16.4287 -9.83586 -18.6206 68 41 16
13.9239 -16.4448 1.5328 73 85 75
10.7832 -26.664 13.0483 85 109 26
-14.3851 7.29289 12.2391 70 83 78
-17.8635 36.9417 0.290916 78 67 4
21.4194 -26.0801 5.01868 59 47 29
-14.906 34.3589 -14.595 112 122 17
-12.5986 28.7059 6.69081 78 66 2
-10.0509 -16.2634 -7.92785 21 19 8
4.08419 4.57222 13.2588 67 44 18
-23.8347 7.42368 18.1897 69 111 118
9.15885 22.4838 -8.56144 50 30 17
7.07653 -14.5621 -23.7114 69 79 76
31.7445 10.7086 -0.140488 71 73 5
19.4711 -23.8848 -26.8023 68 69 46
-24.3842 -7.22187 18.6683 110 129 122
-15.9994 40.9504 -4.66843 39 22 1
24.8536 -4.97253 6.1619 70 56 37
-29.5229 -25.0064 -27.2421 35 61 22
-15.9288 23.2321 0.604515 75 59 10
11.3447 19.6297 -23.8858 72 71 19
25.3619 15.72 -3.14805 81 81 12
-27.5698 -25.1072 -17.835 31 65 18
-24.6196 -6.23487 12.3073 56 71 64
22.7972 16.8544 -6.60386 86 99 93
-2.4386 -26.4079 13.834 79 103 22
-9.09363 -6.76186 -23.4231 44 51 51
13.0532 43.9383 -8.01315 69 62 10
11.083 -25.4036 -23.9792 46 53 25
-24.1315 -20.6909 13.4606 77 102 74
9.82701 11.3493 15.2938 78 70 2
-27.7642 -25.4275 -1.65818 42 72 29
-15.2308 -8.70022 -23.4221 82 94 87
-8.94774 11.1188 17.3176 65 76 64
9.42374 12.41 4.26373 52 32 13
1.37356 -19.9531 -23.3666 31 37 32
-16.4843 9.95948 -12.0516 67 73 36
-10.0056 34.7757 -13.4185 71 70 18
14.3779 -23.1786 -19.2858 13 13 8
-25.6228 9.54947 15.5318 20 47 14
32.1866 -25.5138 0.765504 59 62 44
11.3827 44.1898 -3.70428 85 74 10
39.9398 -26.3035 -11.5807 62 74 15
-23.7736 -1.66393 17.0157 80 117 121
13.8244 29.1226 3.56025 82 91 68
-24.1661 15.7709 28.9635 62 100 71
-5.07757 18.3961 -25.6475 67 59 8
12.4686 37.1914 -9.18828 86 69 0
-0.372387 -16.9584 10.5156 0 0 0
-24.5774 14.2935 46.4903 53 78 84
5.77385 36.2115 -12.4437 71 66 0
-16.7849 23.1761 8.70971 100 87 5
-17.0498 20.2524 -22.8445 114 106 12
30.0669 12.6658 -10.4691 72 64 14
-3.3871 29.1259 5.76639 66 60 1
-17.1575 32.6508 5.09344 78 77 0
-0.16914 -1.32859 -25.2532 69 40 21
-24.3262 11.1802 39.2661 49 80 82
10.2306 -11.0683 2.79962 56 43 24
-25.9468 -8.48415 19.9972 63 82 82
3.32974 28.7747 -16.3301 61 53 18
-12.8491 19.5088 -24.9565 67 64 15
9.22664 4.70799 5.18075 79 49 14
-15.9918 25.2669 -20.748 81 78 0
33.6158 12.2225 -10.1348 83 86 61
-16.18 -25.5632 -2.50299 54 78 25
-16.3789 -4.0304 3.77602 71 41 12
-15.9805 -24.1326 6.18427 37 23 9
6.39728 26.8673 6.82851 74 63 3
-15.8585 28.0272 -2.46363 51 42 23
-26.0739 11.5761 31.316 19 36 22
-16.156 19.5425 -5.91025 73 43 1
-0.916523 -24.0134 -26.1619 37 46 24
15.5375 12.9768 -10.5042 78 75 16
39.5294 -26.6605 12.3065 79 94 21
5.39169 -6.78896 13.2171 65 44 16
-24.4069 16.1593 41.2618 30 49 35
0.0659561 -24.307 -24.6617 29 35 28
9.38788 19.3494 -4.12637 65 35 5
28.268 -0.850645 -14.5954 50 31 19
-27.9737 -25.1341 -15.5889 34 66 19
-13.8178 4.10336 -25.0658 70 47 30
-28.5499 -25.2913 -7.26637 22 64 19
-20.4808 24.6794 -20.5312 69 66 22
-14.3407 22.7025 -23.7804 118 124 14
-9.88397 -27.0096 17.6143 52 67 60
6.84819 -3.1722 -23.92 73 84 82
5.15602 17.4746 -25.9849 70 60 14
-13.5754 -8.36762 -1.79453 13 9 6
7.41829 -2.08637 12.5697 99 116 102
4.07933 -5.44304 -25.2501 65 39 21
-24.5027 27.2205 23.6834 69 85 85
28.2524 -11.6505 0.765678 68 39 3
-16.1364 21.3079 3.31445 72 58 8
9.99197 29.3235 -13.7107 115 108 28
11.8614 24.6219 -19.4835 73 63 23
13.6345 38.7431 -8.38518 86 61 6
-13.8859 24.8802 9.5223 82 87 2
-15.7192 -9.24903 -17.6568 92 95 81
-20.6018 37.2992 -11.6153 69 74 31
-4.52129 -5.57321 -24.6667 3 3 11
1.51782 -17.6833 12.1867 62 69 63
-26.2271 23.2213 23.7143 32 60 55
-16.803 2.46926 -6.89056 58 31 16
-24.1816 15.9945 29.9733 28 62 36
10.2033 15.9556 -7.92441 7 3 14
27.591 -26.4803 9.64361 86 106 32
-24.0224 10.6319 28.3466 66 98 107
22.7281 -2.85526 8.31742 76 70 0
4.94066 -21.391 12.8421 56 39 22
-16.1213 32.7291 -1.43264 42 19 2
4.7981 -17.9078 -24.9878 50 34 16
9.24664 -13.9746 -15.2955 73 50 27
-16.0483 -15.8925 6.96634 46 30 8
0.362415 4.97457 -25.2398 67 40 24
-24.5794 11.2757 47.1324 65 90 94
-7.4092 -2.41965 13.1872 73 47 20
-24.3831 20.7997 30.1641 58 87 92
-6.43364 -25.0783 -28.4529 24 38 14
-16.1421 21.0667 5.63336 44 25 2
-16.2639 16.1702 -1.00798 47 29 14
-15.0524 38.3507 -13.935 67 78 69
-31.4119 -26.758 -23.6818 74 89 83
30.4856 -26.1571 -2.44542 70 80 20
40.0723 -26.3287 -26.4021 66 85 53
11.3649 44.5152 -5.30117 81 95 86
-13.7875 11.9349 -29.0061 86 73 15
9.28902 -9.95813 8.83413 71 45 17
-24.0768 16.0773 24.3121 65 83 53
-8.4792 -23.6165 -16.0192 33 36 19
3.32927 19.911 12.0375 71 70 1
-5.26142 -2.16836 -25.2235 69 43 24
8.78501 -11.2152 -23.5343 68 75 65
-25.7405 -0.80183 20.3104 41 29 13
21.0885 -26.5904 14.8191 96 116 37
13.2093 9.57561 0.504498 80 75 3
