ply
format ascii 1.0
comment Created by Open3D
element vertex 1408
property double x
property double y
property double z
property uchar red
property uchar green
property uchar blue
end_header
-13.8521 36.1961 -12.7333 83 81 14
35.3438 -21.3219 11.9855 86 79 0
-16.1121 -6.90013 6.68699 66 40 14
9.44527 10.5288 3.10527 54 35 10
-15.8892 22.0147 12.5236 67 61 0
10.0007 21.2547 -22.3687 79 79 11
-31.1778 -26.1639 11.9331 37 65 37
-10.4155 42.7943 -8.95116 73 64 14
20.3041 -23.0274 -9.28412 46 35 19
-12.5194 -26.1614 13.042 92 113 51
9.39938 17.9513 -0.495317 75 39 3
2.90113 14.2894 -28.6924 69 68 15
-11.5348 -25.5836 -5.79938 50 69 24
30.7366 11.6387 -11.139 76 70 12
-0.0639534 -8.52558 12.5879 0 1 2
9.65018 37.9555 -3.97796 57 34 11
13.4077 -26.61 13.4452 88 115 8
35.2401 -13.9783 -17.6774 79 76 51
9.34398 18.5936 -18.8038 75 58 4
27.0764 -25.4441 -11.6667 60 56 8
2.74884 -17.013 -25.0424 46 32 13
-4.12642 20.2591 12.2669 73 70 2
26.4613 7.35693 -14.3088 69 69 19
-11.9237 -4.13732 13.1603 80 51 25
-16.5029 -1.09726 0.316528 70 43 15
3.24492 44.7914 -7.41705 74 70 44
16.4638 -26.1969 -29.2689 34 46 7
28.711 7.34317 -8.3182 29 14 16
8.44628 -4.86488 11.2608 75 87 80
28.3081 -2.01043 -12.8047 58 46 17
27.6239 -19.5038 -12.2244 76 73 9
28.6332 4.06711 -7.48725 64 53 49
-22.9635 -25.0615 -23.781 33 65 26
-23.9075 -0.101063 18.8377 78 113 116
28.5605 2.93208 -5.93024 63 57 50
20.9022 12.8824 -10.5256 73 66 18
-5.93955 25.4693 8.73929 72 59 0
4.81257 -14.8909 13.0752 69 46 24
35.2171 -22.6823 12.7472 86 80 17
-15.8933 22.5016 12.0146 66 60 0
-26.058 17.1694 18.8562 50 77 81
2.28868 29.2518 5.0931 67 66 32
-26.1662 17.9805 34.338 42 75 84
-11.8623 -25.4444 -12.961 48 63 18
3.45118 -26.7108 13.0323 89 93 34
-20.6637 43.3317 -6.59916 63 45 23
17.8296 -2.15314 7.89717 75 68 1
15.2906 -24.4995 5.65246 53 73 23
-19.2385 21.1307 -23.6997 67 67 12
28.2911 -5.41349 -1.82286 78 51 19
-24.2262 19.0588 28.203 32 62 41
9.46617 14.5991 -1.07076 55 37 14
-10.5545 40.7645 -10.0934 70 59 12
-15.8785 -25.2819 -27.6832 41 67 34
-16.1798 25.2049 -14.6794 39 18 0
32.9532 -26.3717 7.02525 76 64 4
-11.645 -15.4079 0.474846 5 8 4
-16.4931 -1.22155 -0.814095 70 44 18
-15.9553 33.9647 4.20719 75 66 1
7.28672 -10.8204 -23.6384 72 80 75
-24.24 20.3891 24.7558 42 66 55
-18.7861 -24.6789 7.2276 34 40 8
35.708 -26.5466 6.23673 93 96 39
-25.5392 -25.4336 -2.43747 60 84 36
9.23057 16.174 -21.8629 48 28 15
9.29488 17.7451 -20.4015 63 37 3
9.24976 23.1491 -23.02 88 88 5
21.9433 -26.5004 9.96819 84 108 23
25.4032 -13.9726 6.09884 68 46 24
22.333 0.00258636 -19.1425 74 71 21
13.382 42.5453 -8.7864 68 61 6
28.3595 -3.3159 3.31395 48 30 22
-26.218 14.1237 39.2505 42 68 78
19.0098 -26.6336 -30.1745 32 53 15
23.898 12.1175 -10.9868 71 70 18
-10.1302 22.4656 11.0322 74 77 1
-26.0576 19.2823 39.1759 45 59 53
-18.8414 15.8633 -28.241 67 59 12
28.0759 -5.06746 -10.9622 76 53 25
-2.03224 27.996 -17.4653 67 56 18
6.74142 -17.2549 13.0234 55 43 18
-4.2099 22.0149 -22.6416 68 71 13
-16.5038 -8.34727 -20.8345 72 48 23
28.3365 -27.2522 17.5023 58 72 52
16.5986 -17.4392 3.17184 46 38 23
-23.7951 4.28056 22.3123 71 89 78
33.3542 -16.6725 3.23643 56 19 0
10.6409 18.9934 12.0788 72 75 6
-16.2229 24.6902 -12.7659 43 18 4
-16.2711 16.1602 -13.3369 48 28 10
9.3149 32.1471 -8.08349 62 42 3
-24.5174 -1.53857 24.1711 30 53 50
-13.457 -9.18287 2.42658 37 25 3
6.96326 -18.825 -24.4552 71 74 68
9.53401 10.5456 -0.0183601 54 38 11
35.2519 -20.9032 -20.2202 39 65 63
8.01959 -9.99792 -23.5448 71 82 75
-24.3016 -21.1845 15.96 78 101 80
28.1708 -3.68585 -13.5179 44 27 21
-26.049 14.3319 24.7732 26 47 17
15.5845 4.6203 3.6327 79 64 4
4.85653 26.8413 6.99413 74 61 4
-5.51653 21.4058 -23.1936 69 63 12
6.65446 -23.97 -24.7411 50 37 25
-23.8276 1.27087 17.8591 80 121 128
9.41695 12.7483 -13.3335 66 58 27
35.4038 -26.203 -13.258 71 88 30
-16.2189 18.2335 -13.7633 69 39 10
0.868842 24.6559 8.85836 73 64 2
-25.5776 26.6723 25.7404 60 73 67
-16.4605 8.093 2.58736 69 42 17
32.2351 -25.9362 -30.0613 74 101 39
9.29738 5.82096 -15.228 74 49 20
10.3405 -18.1105 1.83489 4 10 1
0.591925 27.0245 -18.2301 67 58 13
-12.7904 -25.3987 -16.9243 39 60 18
9.39671 18.0636 -2.33716 68 37 0
15.4059 -25.9063 -28.6052 39 47 13
-7.34579 -22.7265 -6.335 27 31 9
23.0403 -26.2969 -29.5661 40 57 16
-23.3979 -25.4693 -0.853796 52 76 28
9.37511 33.3932 -6.73458 74 48 4
-20.5942 23.4413 -19.591 64 60 25
9.41176 15.0571 -11.5927 54 35 16
-25.9783 8.99377 33.7961 27 41 29
-20.6866 39.5924 -8.82663 61 47 17
28.1404 16.6447 -6.55882 88 99 92
33.3592 16.6023 -7.44778 69 64 32
-23.7697 4.41886 14.2954 51 88 81
-24.0625 -16.2857 14.3974 72 92 78
-12.7871 11.5545 -29.3845 84 71 3
9.38464 33.4626 -1.99558 53 34 10
23.9637 11.8857 -0.76297 75 73 10
-9.19679 44.8817 -6.38909 78 92 86
10.4401 -25.8416 -19.1663 25 14 9
-2.31506 20.1333 12.2482 71 71 3
-6.93283 18.3441 -25.7409 69 62 11
22.4835 11.7247 -11.2925 69 64 16
-16.677 1.76151 -15.8871 70 45 21
18.5625 -20.1984 -6.14557 44 33 19
-2.62736 36.4189 1.80619 72 65 0
-11.133 44.6098 -5.88062 80 94 84
-16.3477 2.99374 9.93117 61 36 14
-17.8373 -25.3967 1.09394 63 80 30
-6.56332 -23.3501 -24.8279 13 18 9
-19.8716 23.0658 -22.0161 65 67 10
-9.66195 38.7699 -11.1805 73 66 14
25.6864 -12.9017 -17.9219 65 67 54
-4.54894 -13.7948 10.1911 2 1 0
-19.0743 -25.1436 -26.7043 39 65 31
31.5342 15.3972 -8.55129 73 66 18
-14.0424 37.296 2.86749 92 99 61
-20.7468 20.067 -24.0174 60 68 50
35.2657 -19.5383 -19.1182 65 80 72
9.38617 33.831 -7.13694 76 64 4
-20.1917 28.0882 -17.6719 68 70 24
-25.3191 8.92979 35.8972 50 66 64
19.7807 5.45467 3.12936 75 66 0
34.2254 -22.5243 1.04399 56 59 55
-24.0802 -3.37232 14.1285 84 117 115
-19.1399 -25.4182 -6.54018 49 73 21
-25.8927 5.47284 24.9079 45 75 80
4.60134 39.0404 -10.9295 74 72 8
28.3208 -10.5352 2.19859 72 44 18
7.03299 -19.4144 -24.2618 68 78 75
-21.6886 -25.4393 -2.47619 57 79 26
-16.248 -4.54002 3.02298 68 59 44
25.625 -11.8572 -4.04195 24 6 0
-0.656399 26.405 -18.8108 69 61 16
8.94147 40.5053 1.32646 64 79 75
0.150681 37.8909 0.730549 72 67 0
9.33509 32.7695 -7.40764 79 62 3
6.67199 -9.1339 13.19 67 47 25
-24.0673 -6.71722 13.1928 84 110 109
-18.9525 43.9655 -8.11777 67 62 15
-25.2043 -22.7599 1.20845 91 110 92
-6.28195 27.5868 -18.0491 67 56 16
-11.0235 -25.455 12.6584 56 46 20
-15.4728 6.19424 11.2504 79 96 91
-24.0227 14.9654 24.4715 54 85 54
9.41228 10.6982 4.07754 51 35 12
35.7967 -13.7287 5.61433 77 74 12
27.4543 -24.5664 -14.5079 45 27 5
9.37856 33.2876 -3.30244 67 42 4
-25.9536 -12.5091 12.9823 44 52 40
19.4649 -26.4607 9.72744 84 111 28
13.0249 30.4488 -15.0281 75 77 26
1.8292 -8.94347 13.0154 64 48 27
10.4556 36.556 0.554733 79 74 0
10.435 16.8202 -7.70546 15 6 13
28.6842 5.73594 -3.83432 33 16 13
22.0856 -26.1497 -4.808 47 44 34
-7.41006 43.7554 -2.02493 72 65 0
28.3729 -1.80357 -10.3808 56 39 20
-3.25931 -19.2319 -22.4183 1 0 1
-9.40088 -22.2403 -24.9333 48 33 18
28.6877 6.89998 -4.1957 31 16 19
-18.3252 42.5708 -8.95457 68 65 16
-16.0494 14.253 -27.0348 96 78 5
12.2344 13.7457 15.8426 75 65 2
25.7206 2.98521 4.62713 78 68 0
-24.1473 -10.0801 17.8191 78 110 111
-16.0857 19.5554 -20.9382 40 20 0
-25.4346 13.0497 48.8621 76 92 86
-19.8779 22.66 -22.3703 66 68 10
-16.4051 11.5195 3.66525 45 28 13
9.63353 -26.7418 8.5856 120 138 54
-14.6693 38.7314 2.33698 66 76 67
12.8171 14.2986 -28.3027 68 65 26
18.5279 -23.6675 -18.915 34 41 27
33.3519 -15.167 2.89698 58 51 0
-24.0148 2.35552 33.0094 59 80 83
-16.0946 -21.0254 9.40961 39 25 3
20.4752 -21.2876 5.40681 39 36 25
-7.2629 15.9219 -27.729 68 67 11
23.3884 -26.5013 11.23 86 109 19
34.6385 -18.1266 -14.7612 83 100 89
28.0119 -9.1995 -1.43888 73 72 40
-23.7995 1.79677 20.9273 65 72 66
-22.7776 -22.3908 2.06277 8 2 4
-16.6287 -3.921 -12.4712 74 48 19
-12.1809 27.1551 7.82547 76 66 1
7.97218 21.7502 -25.2617 69 82 71
-24.5709 12.5385 46.7325 46 70 69
25.5579 -19.9306 6.07992 62 50 34
19.8772 15.6213 -8.6463 70 64 21
-15.6875 41.0093 0.0966606 92 95 4
35.3122 -20.6901 12.8634 78 75 25
-15.8378 26.095 -20.1321 86 84 17
19.6462 -21.9077 -4.87424 29 19 9
-27.1344 -25.3818 -3.66861 29 65 20
9.2663 25.303 -12.4039 49 29 5
6.66358 -7.68034 -24.8563 66 57 40
-24.7972 -3.33706 23.7174 73 90 88
-10.3681 28.6189 -17.1841 62 61 14
-4.35289 23.5033 -21.4315 67 68 8
40.3782 -27.3489 11.815 72 89 78
21.8891 16.9081 -6.59901 87 100 92
21.1946 4.88406 3.48705 77 65 1
12.4394 15.1078 14.8499 71 62 1
31.9336 8.97457 0.85812 68 69 6
-26.0122 -25.2672 7.31119 38 30 4
26.3081 2.67292 -17.1419 79 73 1
9.26543 27.5178 -12.2403 49 28 1
-26.0025 11.5671 22.197 46 72 80
4.80919 20.2107 -23.6813 74 67 17
35.2547 -17.9864 -19.1791 62 87 73
33.8604 -17.5133 12.4786 84 67 8
-16.4194 6.04137 -15.4734 68 42 15
-10.7122 45.0529 -2.55793 75 69 0
-13.3122 20.4168 12.5651 81 70 7
-30.3237 -25.2673 -10.0511 28 67 17
-26.1708 18.6723 28.1185 18 46 25
24.8679 -14.2046 -10.03 58 34 10
33.476 -14.5703 6.89983 73 54 8
-7.04218 44.4274 -2.47549 77 69 4
7.68345 39.9479 0.111913 77 71 11
33.2197 3.65007 3.39491 71 85 73
-24.0316 15.7454 20.8961 85 120 125
-25.9446 -21.0988 3.81883 49 68 25
28.0653 2.71353 7.16594 59 69 57
-22.9606 -20.3199 5.35711 62 88 35
-25.7277 9.60243 47.081 71 92 89
28.2734 -24.5573 -23.9558 39 43 22
-23.8593 7.12733 19.0671 77 118 125
-16.6296 2.67087 -15.848 71 46 21
-14.5777 -18.6195 -17.2564 30 36 33
7.45185 9.57229 -23.8016 63 72 67
-16.1723 20.1226 1.07571 72 42 1
28.7016 6.46835 -6.39458 59 44 39
-16.0431 -18.0022 7.03066 41 28 5
6.68579 4.66991 13.2673 61 40 20
35.2764 -23.426 9.61821 84 76 2
-25.976 8.45735 26.6952 46 71 77
9.40685 12.6322 8.94094 77 67 29
13.7742 28.9199 2.94223 81 92 82
-24.0678 -6.82628 12.144 83 105 98
-6.92435 40.1331 -10.4638 70 71 19
-26.2178 26.0555 19.2602 36 62 54
-22.3275 -23.4731 1.38523 7 12 1
-8.90831 41.4995 -9.69474 73 63 12
-23.8617 -1.02433 20.578 63 52 33
-17.656 22.9407 -22.1276 72 69 3
-18.4296 31.0328 -15.3591 73 71 23
21.6495 6.64742 -14.6152 75 69 20
39.5944 -26.2493 -10.1491 58 68 3
15.4565 16.7172 -7.9137 76 61 25
-7.95795 27.5135 -18.1669 65 56 14
35.3637 -15.5406 12.8479 66 73 62
-17.6717 -25.2909 -16.6347 55 75 32
13.9884 26.8711 6.15984 54 47 18
-20.3007 16.2232 13.4975 95 88 2
13.7842 29.8042 2.30866 80 92 74
19.8297 16.7157 -5.28943 84 94 86
23.4553 -0.94698 7.18836 72 68 0
-26.2115 23.8995 26.6673 52 82 91
15.9721 -1.34005 7.41226 78 62 3
0.299549 32.2815 -14.6585 70 72 13
-24.399 16.2103 41.2125 30 50 36
-20.7773 20.0366 12.9511 64 67 57
-26.0884 -22.9451 7.89921 36 32 9
35.2052 -12.4866 -15.053 61 85 77
-25.8714 10.1629 46.9683 63 85 85
0.450812 45.1178 -3.85719 86 80 17
-25.8589 4.85005 30.0104 47 71 76
27.9201 -9.7556 -15.5809 61 36 19
26.8929 2.16185 -18.3446 126 125 2
-10.6738 -16.3254 -12.2333 44 28 0
-13.4936 -19.9948 4.95621 10 3 6
-16.3115 10.8036 9.15255 44 27 15
13.8684 21.0391 9.56878 79 96 67
14.1958 35.641 -10.0984 71 51 0
10.9941 -25.0314 -17.6809 29 26 17
29.161 -0.328766 6.73236 76 71 1
-20.2781 -25.1158 -28.5751 32 60 23
-25.5051 -2.11114 18.315 47 59 60
-16.0936 -13.4734 9.01896 64 40 18
22.4171 15.2731 -2.85255 80 77 11
-26.7 -25.1301 -15.2551 40 71 24
33.959 -15.9568 10.92 75 24 0
-0.11381 14.6558 15.9484 69 57 3
-7.15388 -24.0474 -24.9792 24 34 23
-25.9958 -23.1687 4.01984 50 69 16
-23.7624 -2.19501 18.0981 83 117 117
-14.0733 43.3458 -1.34124 71 66 7
12.2458 19.185 -24.2493 75 74 18
-24.8318 27.8761 22.642 73 91 88
-14.1521 38.8963 2.29617 66 73 64
-14.1051 -20.0654 -17.118 58 67 62
20.2505 -22.925 -4.73474 29 18 11
-4.40551 41.6284 -1.0536 74 66 3
35.2186 -18.0912 -20.1614 63 76 70
19.3528 -21.4428 -5.54922 52 49 29
-16.1271 -24.9484 -18.5827 48 37 21
34.5728 -6.88259 -20.3726 68 77 76
30.7519 -0.60067 6.86893 75 72 0
10.0671 43.4539 -8.40755 72 70 21
-16.2854 16.1748 -11.4472 47 29 12
22.8764 7.51307 -13.9493 69 67 22
-1.31108 32.7082 3.76651 72 66 0
22.2149 -26.1798 -19.4531 58 51 24
-10.3913 38.7319 -11.2009 70 65 15
28.5747 2.82653 -8.93633 33 14 16
1.44241 -10.7998 12.883 31 25 19
33.5889 12.5815 -2.15067 71 78 67
25.9491 -10.9671 -17.3392 73 80 63
-24.1127 10.8951 31.9069 28 56 48
31.3947 -26.057 -0.731918 56 62 23
24.5813 -23.9585 -24.1564 57 52 28
-20.8063 26.1303 8.90189 76 79 61
2.38374 -26.6649 13.2439 117 123 62
-9.01348 -22.3117 -23.5006 57 66 65
-16.5471 -8.17702 -21.8496 74 51 26
18.1864 -1.31264 7.38841 74 67 0
0.535946 -20.7971 10.3924 3 0 2
13.9178 14.2102 -26.0803 54 46 4
22.0926 -0.868484 7.12331 72 71 0
23.884 -25.9382 -28.0239 40 49 23
25.7551 -9.4925 -17.8446 68 70 57
-7.34304 16.2394 15.2479 74 65 1
21.3798 15.681 -3.12343 80 78 13
-26.0301 27.6585 17.5221 39 63 58
-25.8962 -13.9427 8.9426 56 77 63
40.3302 -27.4101 -17.7549 68 87 80
-9.18833 -21.7281 -15.2966 34 31 3
8.18002 25.0582 10.8823 68 80 69
9.22161 -15.7781 10.5896 58 37 16
-4.0044 44.8244 -6.39787 79 96 90
-16.3602 13.3753 -6.02222 58 44 20
-23.872 -25.0972 -20.3186 32 67 26
28.8029 -25.3863 -31.5697 33 51 33
13.4376 -10.1726 4.37348 70 40 13
23.2412 -17.5745 -18.258 72 44 23
15.3966 -10.5133 4.65158 68 44 17
28.0265 -5.90648 -6.86301 64 60 37
20.1379 -10.8271 5.35408 56 35 13
35.2233 -13.3116 4.00549 72 86 74
-16.1452 20.2388 -20.3379 38 20 4
-16.2346 17.6979 -14.3058 67 38 2
-19.3045 22.3953 9.04474 92 91 3
9.32679 20.2765 -19.9319 46 24 1
26.2906 -9.47233 4.8162 77 91 82
-7.80994 2.23391 12.4599 71 77 65
-31.1194 -25.2657 -7.61733 18 64 22
20.3139 7.93242 1.41482 76 78 8
13.6301 -18.723 1.787 10 12 7
27.0793 16.4689 -5.30184 84 97 87
-18.5528 -25.0856 8.24657 26 34 22
-13.0582 23.7104 -21.4075 70 69 19
7.28894 15.3915 -27.6301 68 63 13
9.37231 33.7714 -5.21763 72 47 6
-7.03466 -9.00317 10.7986 2 1 0
-11.9437 -26.279 13.7543 96 120 54
1.59259 -26.6662 14.3689 86 104 31
-16.5105 -0.798935 1.59579 68 44 14
19.8393 -2.57058 -20.6976 75 64 22
31.3074 -2.69275 8.20458 74 70 3
-13.4871 33.6291 -14.0037 72 61 14
9.38592 33.6522 -8.20897 57 31 2
-16.046 -11.4407 6.75118 60 38 10
-16.0887 31.3211 -8.19118 34 18 11
-3.11007 25.1704 -19.9879 66 65 17
27.2417 13.684 -1.84393 77 75 10
-24.3025 15.4366 36.4989 50 79 69
23.4094 -14.1426 -18.1577 75 45 26
-21.091 -25.3482 -7.15488 59 79 24
9.38443 33.2159 -7.81033 74 53 2
18.2966 -19.7847 -6.3445 45 35 19
6.62072 14.8479 -28.0843 69 66 8
-16.0226 17.6415 -19.6881 69 60 14
-17.9154 30.8323 -15.4872 69 78 21
-1.66116 -17.3307 10.1198 2 1 1
-14.1806 22.9055 11.2359 84 88 4
11.1359 -25.1038 -18.4597 24 16 10
28.2937 16.341 -7.9992 70 60 22
-15.5376 27.6429 -3.09098 20 13 10
17.2272 10.8143 -11.9548 83 73 21
-25.6103 -0.00901794 23.8845 56 74 77
-25.9025 -9.51821 14.0631 54 77 76
-14.0135 23.9429 -7.69832 12 0 0
-24.1682 7.93462 34.5464 55 88 90
-16.0501 -20.5713 7.5659 42 27 7
-27.0395 -25.0294 -22.4534 25 60 21
33.8204 -13.6369 7.42299 85 86 27
12.0935 -24.0855 3.61094 69 91 21
10.5233 14.6319 15.3412 72 67 2
8.39406 26.9671 6.60737 72 65 0
9.44554 21.3302 10.5738 87 92 37
9.33589 20.8148 -17.3027 59 34 4
-15.0827 -26.2954 16.836 93 122 52
35.3149 -23.1581 6.94215 54 51 1
3.43694 32.8415 -14.2947 70 62 14
-16.1998 44.6395 -5.93161 82 95 90
-26.0579 14.2339 22.8582 13 46 18
-26.013 13.1141 19.7929 14 48 25
-25.6941 -4.07382 13.7627 61 83 82
-16.2559 17.1609 -14.8489 65 53 5
-24.6578 16.3637 12.3151 35 52 56
-23.2178 -21.007 2.81921 5 1 5
9.27833 23.3345 4.49597 51 29 6
-12.2845 4.37255 13.3556 80 53 27
-16.4845 5.45285 7.69482 65 37 14
27.8909 -25.6451 -31.8245 33 43 20
31.0069 12.2635 -10.71 73 68 9
-25.9796 -16.1035 9.32023 53 75 57
7.3698 24.5435 8.86066 92 93 5
-16.0692 19.1189 -21.4972 37 24 0
-28.6119 -25.9231 9.86871 51 83 34
-12.5529 18.3504 -25.9541 72 61 18
-16.461 7.73356 4.0047 66 39 14
16.6172 -12.2147 4.3822 22 8 0
10.7006 19.7531 11.4864 75 74 0
33.599 -25.7741 -28.9992 17 45 11
-23.9816 -14.7674 10.9884 72 98 81
13.8338 32.9551 -11.4866 89 78 10
7.54391 43.32 -2.91707 81 72 8
-13.2797 -18.6871 -16.5086 58 64 58
27.8203 -10.774 -16.0697 50 30 18
-0.600914 -18.906 10.1329 3 2 3
7.53098 -19.6077 11.1728 80 93 88
8.27041 22.2368 -25.0943 76 80 72
-14.0077 -7.114 -1.98653 54 26 4
-26.2267 17.089 35.7323 17 33 20
-25.9481 -16.3443 7.90805 55 76 55
14.0274 12.1102 -28.1725 46 48 22
6.38645 15.978 14.6645 71 63 1
-15.6964 30.6494 -6.95956 83 78 74
9.36332 38.4318 1.40838 73 79 0
32.0543 -0.00747299 -18.2513 80 84 26
-16.1066 17.4254 -17.9739 63 43 1
29.3397 0.573593 -18.2697 82 77 22
-1.8378 17.5382 -26.2358 65 64 10
-26.0889 13.0311 29.9607 26 39 17
29.6819 16.5405 -7.80783 71 64 26
9.48074 35.0676 3.57764 87 98 64
9.38212 33.9595 -4.35094 74 56 2
15.1219 14.5965 -2.4342 76 77 8
-26.0355 20.9583 15.6976 56 80 86
33.2313 -24.5381 -22.8124 80 98 41
9.188 21.2766 13.0939 81 87 34
-24.2353 12.8219 35.0004 56 83 90
-9.68839 3.41475 13.3321 74 51 27
-17.1523 -25.5798 -0.599339 63 79 28
-24.1122 20.6219 13.1572 73 102 100
28.6795 5.56218 -6.43129 60 46 41
-26.1201 -26.0161 15.6682 48 85 31
-29.1 -25.2997 -5.67707 31 66 20
4.26397 13.1736 16.7311 66 60 1
-24.4174 19.5418 34.0215 74 93 92
-24.9173 -25.0272 -28.0184 29 58 23
-16.5773 3.23671 -20.1754 75 48 21
-14.44 45.4117 -3.99724 68 82 74
-20.048 22.9917 -19.7711 96 84 8
19.9753 -22.4461 -5.41002 30 21 12
-15.3927 38.3137 -13.958 66 75 67
2.74235 19.9624 12.0403 71 68 0
-25.9667 7.42865 29.4661 47 71 77
-20.1393 18.08 12.1554 96 91 1
33.2916 -24.3004 3.05948 71 63 24
3.71125 38.9222 -11.0225 74 65 13
33.261 -18.2832 -21.0686 79 100 75
-13.1559 -9.82371 0.540016 16 6 1
-13.1781 5.04539 13.3495 84 61 37
0.383089 18.3967 -25.4426 69 68 14
9.41064 14.7788 7.00207 58 37 20
-25.4519 2.29009 15.1501 59 79 76
9.3702 37.5813 2.25405 71 79 2
-1.6981 -26.3082 11.1563 70 90 31
26.8176 14.6398 -9.2413 71 62 19
11.3423 39.9713 -5.46617 55 31 9
-25.4612 5.33365 13.9162 21 50 21
14.5467 12.8882 -10.4931 83 76 20
-5.08264 -13.771 10.1464 1 1 0
-15.0857 16.1346 15.7262 82 76 4
-26.1612 22.3001 19.5808 25 41 24
-16.3651 13.2305 -11.0296 57 48 11
35.1089 -26.1473 5.48214 84 85 53
9.11463 -21.5875 10.7463 53 37 21
-16.4799 -3.95005 -5.4453 75 49 17
36.1815 -26.1375 -5.73411 74 89 16
-23.7974 -21.0087 6.5462 62 83 39
-14.3772 14.978 -24.6875 70 80 70
-16.4103 -3.11077 -2.94424 73 47 16
9.41087 37.368 -6.51855 61 45 3
-19.0296 44.4933 -5.57529 87 104 94
18.9046 13.9363 -2.01557 79 69 9
8.92229 15.0881 11.2271 67 66 47
-0.593826 -26.3634 11.5009 26 32 2
-9.1057 -13.9192 -24.6354 72 67 53
22.418 -14.5645 -17.935 68 39 22
-2.10358 13.7627 -29.2655 70 64 10
-12.6392 -18.0763 3.59216 51 40 11
-21.3665 -25.2402 -14.0963 62 80 25
-16.444 -3.61724 1.25617 70 45 16
20.0844 0.0172882 6.5885 75 72 0
-19.5477 -25.228 -21.8019 39 69 31
22.2533 -26.3282 -29.1119 40 56 14
12.8251 14.8396 15.0142 72 62 0
-3.57287 44.5005 -5.60715 88 106 98
40.4014 -27.7326 -7.69547 62 82 68
13.6121 -24.2502 4.71788 67 85 15
37.6783 -26.569 9.2776 79 92 14
-16.2173 40.3664 -10.1355 76 81 10
-6.32684 -26.347 14.5909 78 103 45
-26.015 -25.6307 15.224 50 68 44
3.32492 -17.0846 12.9524 54 42 25
-14.8484 24.2112 11.7629 69 79 66
35.181 -9.91793 -18.8541 27 19 15
-8.23861 -21.3212 -22.8912 11 6 7
9.43522 8.25104 2.58477 75 48 14
9.25823 22.4936 -23.3022 87 88 3
-16.0404 28.968 -10.4999 40 20 1
-1.33113 33.947 -13.8236 70 68 12
19.6625 -11.631 5.13703 1 0 0
-6.58428 44.858 -6.39637 78 92 84
16.1227 -26.4786 9.75245 84 105 24
-16.1065 20.9361 -20.2309 36 17 7
-0.454842 -24.5106 -26.7204 41 48 31
-19.6488 30.502 4.12868 80 74 9
-21.5857 -25.3642 -6.41356 60 80 23
-2.19239 -16.5302 10.157 1 1 1
-16.372 10.0852 5.37813 50 43 18
-22.015 -24.2393 0.919317 39 50 29
-10.6696 -15.7507 -4.75174 17 19 9
-25.8064 -13.0149 8.26742 57 78 67
11.1606 1.04685 5.88183 84 74 7
39.3252 -26.3516 -1.99075 82 99 16
-7.39344 15.4681 15.796 76 70 2
-9.98643 31.2204 -15.3416 69 70 15
27.9144 -8.93978 -14.2877 72 38 5
19.4139 -21.5355 -6.5202 50 46 26
9.35229 32.0601 -5.30031 48 27 5
9.17942 25.4428 -19.5789 84 85 16
-24.0618 19.4882 20.617 78 107 104
-25.4805 1.9782 15.5357 57 79 79
-6.44964 43.9856 -8.2213 70 60 10
-5.21587 28.9692 6.063 69 64 1
3.80557 21.4677 -22.7008 70 66 15
13.8334 18.1246 11.2262 79 86 81
-25.9879 -15.6218 15.6851 61 81 73
21.2 11.7369 -11.2969 73 72 18
10.5535 25.9408 7.13579 75 61 1
24.9832 -24.2289 -25.6408 45 49 22
40.3284 -28.348 12.3094 67 82 68
-16.4563 2.47547 -10.2956 72 43 15
-16.3286 12.2961 -15.7393 48 30 16
29.9852 3.50233 4.19196 79 73 0
-16.089 35.8217 -7.93754 34 12 1
33.2724 -25.3118 -21.787 73 93 35
-24.3081 23.9175 23.8006 72 103 110
-16.3474 14.9552 -5.7103 50 31 20
31.7499 -2.57464 -19.6865 78 72 29
-18.1573 14.4644 -26.9883 95 75 3
9.96234 -15.9072 0.243706 8 3 4
-24.083 -23.7007 7.46487 57 46 21
-8.66648 18.3268 -25.8389 70 61 13
-26.274 12.2988 46.0994 27 49 42
4.16697 30.4936 4.30265 77 75 3
20.9675 14.2429 -9.58884 69 65 19
-24.2575 18.5556 30.4322 41 72 61
28.4334 4.91408 -16.0138 81 85 0
-23.9156 3.79024 28.0696 70 102 106
-12.5117 43.1946 -1.36241 73 66 2
33.2393 7.73689 -12.9594 69 67 40
-25.836 5.83229 34.778 43 68 75
-16.562 2.52318 -22.3614 77 49 22
8.98616 20.9045 -24.5599 82 92 18
-16.9454 44.8046 -6.23452 79 95 84
-7.92596 32.6822 4.30171 75 75 0
-12.2204 28.1889 -17.6464 65 58 13
33.4427 -21.8064 4.53337 62 53 6
26.0471 -10.756 -4.05604 62 40 3
-8.84373 27.3897 -18.3038 65 59 14
28.5904 -1.57605 7.53261 75 64 1
-14.4255 -25.4635 -8.41327 49 73 16
20.7609 -2.64151 -20.7316 77 74 26
8.00934 40.9473 -10.3241 79 76 36
0.88771 41.8904 -1.61205 74 79 3
-23.8122 4.36559 18.3659 78 115 121
-9.31242 26.841 -18.8098 68 57 16
-16.4545 7.57775 0.422681 68 39 11
-17.8166 29.6219 -16.0571 70 78 26
28.7329 9.1114 -3.92898 37 22 1
9.43667 14.1325 1.97948 65 42 18
-26.0508 12.3582 26.3316 47 57 48
-16.5276 3.6154 3.06 70 46 22
20.5299 -23.423 -5.74357 41 37 22
9.30148 2.7706 -21.4485 77 51 27
9.38707 18.6221 -3.68966 66 35 0
-15.5719 23.7859 -2.44265 49 48 39
-7.57191 30.7947 5.15975 79 79 4
9.38985 34.2661 -7.53683 70 52 5
-9.30626 27.5815 -18.141 66 63 15
-8.01524 42.28 -9.2443 71 66 14
24.8772 -5.89659 6.01891 72 49 20
-16.4405 8.63681 -4.05175 68 40 12
33.64 -27.1395 17.3905 51 64 38
-19.6094 -25.4691 -4.15913 55 79 31
-25.8593 -5.85971 14.0948 54 78 83
9.37244 33.7067 -3.06811 55 30 1
-2.89941 30.7056 -15.5454 73 72 17
4.63366 27.606 -17.4641 67 57 16
20.2523 11.7072 -11.3275 76 72 19
19.369 17.2051 -6.84566 86 99 91
-24.3641 -22.6379 15.8881 74 94 67
26.5537 3.95841 -16.2666 78 75 4
28.7934 3.38268 -16.519 82 83 2
12.9811 10.1455 0.176735 79 71 3
-17.8103 40.1296 0.796204 72 63 6
-7.95507 -25.3444 9.66414 36 48 24
37.37 -25.7345 -26.9662 67 85 34
-27.6271 -25.923 9.81619 74 96 32
-23.8437 -2.65681 15.2582 80 117 115
19.2353 -21.4455 -9.84342 56 56 34
-23.8717 8.10889 24.0385 68 105 111
14.3758 16.6983 -3.79679 82 74 10
-10.2151 -1.03437 13.2805 79 50 22
-19.5326 19.6313 -25.0282 65 69 15
-25.7488 -25.0218 -24.3093 36 64 23
35.4034 -21.9523 5.37077 63 57 2
-16.6358 -0.219887 -12.6091 69 43 15
-23.889 6.61121 14.2155 23 66 40
9.24147 13.2863 -21.5094 68 51 22
13.8679 25.9648 -16.4863 64 71 50
33.3793 -25.6889 -30.8332 54 56 46
20.7591 -23.7823 -6.01996 50 49 29
16.4205 0.428276 -18.7597 75 70 17
33.282 -25.0075 9.52382 80 66 7
-13.5303 -8.55122 -1.25657 17 7 0
-25.4993 -1.18647 15.8848 54 76 75
28.7713 -24.6098 -22.13 33 33 17
-16.5974 3.37212 -19.4771 73 45 21
-16.5125 4.86906 -19.9266 73 47 20
-5.90559 13.4792 17.0551 76 69 4
-24.8478 3.0424 47.7892 81 103 98
16.8108 -1.7598 7.67044 79 65 0
13.7831 14.0265 15.4647 75 68 6
-14.3618 26.5261 -7.02989 17 1 0
-1.80069 24.6489 9.05558 71 67 1
9.70734 -0.675156 -19.2313 77 69 35
37.6253 -26.4983 7.5777 84 94 12
12.5016 30.0952 3.82787 71 58 0
-19.9611 17.1418 -24.8486 95 86 5
-13.0132 28.1055 7.17397 73 64 4
-16.4086 10.2718 -3.21709 46 33 15
-9.39751 32.819 4.34019 75 75 0
-11.0033 -25.5785 -6.32035 46 67 26
-2.92669 -26.4478 15.2697 86 111 30
-25.0715 21.5034 30.8883 70 86 84
-0.856387 -17.675 10.245 3 2 1
24.0345 -26.4011 5.77976 65 60 20
-16.1077 23.3108 -10.435 67 38 6
-25.9606 -25.1177 -17.0622 34 66 19
-16.2351 -10.4149 -17.7947 72 51 34
5.76705 20.1723 -23.6715 72 67 8
-0.312086 -7.85049 12.6 0 1 1
-11.4449 -20.2062 2.02553 4 6 1
12.7566 23.5707 8.73206 77 65 1
-20.2818 43.2033 -4.3447 36 25 12
-12.246 13.6634 17.2339 78 71 6
35.4548 -21.2467 6.22172 78 74 5
25.1846 -13.6635 -10.2385 24 2 0
38.2633 -26.1755 -7.32143 63 78 1
-26.1845 21.3014 24.0619 23 44 28
-8.3678 32.7331 -14.5473 73 74 17
-16.0666 21.9763 4.34323 46 22 7
7.08696 18.1946 12.9149 76 65 0
-7.54681 36.6743 -12.3903 70 69 17
9.24892 17.8267 -21.903 44 22 10
-16.4212 28.4709 7.07105 80 70 0
13.4822 15.6704 -8.62657 77 74 20
-24.3832 12.2119 42.1226 36 65 55
0.501276 43.2491 -8.67104 72 70 19
-15.6168 26.0706 9.73606 63 60 3
16.11 16.6466 -7.99765 67 61 15
-20.7037 40.4088 -9.15063 63 63 57
9.15725 25.4433 8.47755 99 97 8
34.06 -6.80323 -20.2244 65 79 73
-16.5698 0.367123 -10.6934 69 42 18
27.0607 -26.5697 14.3403 88 106 17
30.1595 -25.3475 -31.6829 27 43 29
-21.5198 -25.4254 -2.96682 56 80 23
-16.3433 14.8037 -9.26201 54 33 21
-20.6437 42.0187 -1.13837 73 85 77
24.1891 -24.1582 5.80751 64 59 40
-25.9858 10.4239 37.8824 64 78 74
-16.112 -8.51383 8.80006 64 46 22
-19.8723 38.3304 -11.3191 68 65 14
-8.52198 -26.396 16.5047 82 111 38
-12.5618 23.5596 -21.5673 69 67 15
0.0395908 21.2872 -23.0646 68 67 12
-13.6031 36.8161 2.16167 80 75 8
-23.5274 -25.2568 -10.7718 45 73 21
26.2279 -24.737 5.27729 67 77 67
33.2648 6.6809 0.262751 68 75 59
-24.5542 12.1306 48.4477 65 89 91
-3.66323 37.1633 -12.0927 69 72 13
9.41231 14.5869 2.46585 62 41 20
-11.8629 20.8032 12.2451 74 77 3
-3.91136 41.5875 -9.62205 69 67 14
14.1556 29.8289 3.54058 59 45 12
-4.7472 15.817 15.4106 73 64 3
-24.2422 7.11002 35.6581 51 73 74
1.00737 -2.50966 13.2624 67 41 16
26.447 16.7688 -7.6835 78 71 37
-16.2839 36.1929 -10.3913 47 39 48
17.8094 -26.5158 11.4906 90 113 22
-10.6454 41.3089 -0.401546 70 64 2
-3.8196 2.23079 11.6657 67 77 67
-16.5237 1.41051 5.73002 64 34 11
5.70887 39.6988 -10.5739 74 68 0
14.1085 37.9865 -0.571637 68 69 6
-16.5716 4.34758 -19.7113 73 45 21
23.7474 4.71323 -15.9321 75 64 20
22.3392 -19.2336 -18.1114 53 38 22
-18.0229 1.84692 -1.94788 79 82 68
-16.7747 -25.386 -9.97386 59 79 24
22.3651 -15.8146 5.67542 73 51 25
35.6197 -26.4043 2.28996 81 85 4
6.69542 26.8176 -18.0052 69 63 22
-13.4027 32.4748 4.86452 76 75 1
-14.0431 25.9314 10.0547 87 93 26
-8.69306 -20.7876 -12.7855 31 30 10
35.4159 -21.7621 7.33256 72 66 3
-14.1068 -0.527805 12.7726 72 58 39
23.5924 -16.3834 -3.94995 18 1 0
-17.1433 16.793 -25.0063 95 78 12
5.88188 38.8495 -10.9888 76 70 0
-16.0818 31.8099 -6.18829 32 13 7
-6.43378 -18.39 -22.2573 5 0 0
21.4981 -26.5495 5.05686 58 65 28
19.7574 -26.5033 11.78 92 118 31
13.7706 14.6128 13.1864 65 78 65
5.94978 42.7257 -2.46944 79 70 5
8.86273 26.4916 8.28663 88 95 61
-16.3917 -25.4644 -24.8847 45 75 42
-5.32549 28.3007 -17.3237 62 55 11
-1.47805 21.7753 11.0481 70 71 1
-11.4816 30.7467 5.46791 79 78 5
-12.7314 -25.6132 -3.83202 52 73 21
-26.1201 13.5441 33.2673 16 41 15
-15.7622 27.5408 -14.6045 12 5 1
-24.5184 -25.1522 -15.4082 35 67 25
32.9502 -24.4766 2.46178 80 72 33
19.0306 -24.8256 -28.2234 35 42 15
-18.2809 25.6291 9.22887 85 75 6
0.554951 33.5416 -13.9981 68 71 14
9.35032 34.3479 -3.25528 51 31 13
-10.105 -18.7497 -13.5933 27 25 1
-9.17649 -19.2871 -2.83984 19 23 5
-11.8017 -14.1154 12.997 76 49 18
-14.42 -26.2252 14.6825 92 119 51
40.2926 -26.7489 -18.4744 68 76 61
13.8476 19.2996 -21.9539 65 69 41
-15.61 26.5847 -20.234 93 98 51
-24.0197 -8.92126 13.4912 79 111 104
-7.65979 34.4242 3.31419 73 74 0
9.45926 35.5823 -9.35421 48 24 7
13.4067 33.9569 1.77898 73 69 0
9.40479 35.0895 -6.85513 71 56 2
-15.6826 -16.5037 -17.5677 79 89 75
9.41141 13.8097 2.92641 68 45 20
-26.2327 22.1933 29.6966 50 79 86
9.32248 31.2608 -7.27858 45 28 3
21.6515 11.5972 -11.3787 73 68 19
4.83501 -17.7519 13.0005 55 39 25
-25.816 2.85327 26.3261 52 74 76
1.24171 40.6071 -10.1528 72 73 14
7.62894 37.9217 0.636559 75 65 1
-13.489 -9.62754 -13.9853 53 31 7
-17.5219 43.5745 -8.37944 69 68 12
-2.38091 30.3623 -15.6706 71 66 17
35.3418 -26.0838 -8.6174 65 80 3
35.3038 -23.4286 5.40914 72 67 0
-16.4213 -14.5097 -21.3467 76 54 29
11.494 29.8904 3.96523 73 57 1
-13.0202 22.9035 10.7285 75 77 2
35.3737 -20.702 11.7316 84 81 18
39.7069 -26.7752 -27.0452 73 96 67
-25.3691 10.5765 14.7298 43 46 45
34.198 -24.0019 -23.6642 75 86 77
35.0381 -25.0324 -21.9958 67 82 20
-24.0758 13.291 28.6009 71 74 38
-7.05736 35.0522 2.91521 73 70 1
-14.8608 -14.472 -17.2981 23 29 22
-15.9547 -10.4551 10.6532 68 46 21
-26.0005 26.8197 17.3588 40 63 54
18.2603 -19.7045 -8.9747 35 26 20
-22.5059 -25.1975 -15.1801 43 67 27
9.1891 25.8791 -20.2205 89 93 20
-23.9995 0.904888 15.281 84 121 124
-14.8861 -21.641 -24.1264 77 91 84
-6.71267 -21.8099 9.70601 31 40 15
-13.2732 43.8702 -1.67983 72 67 4
-12.4932 30.0518 -15.8498 70 74 18
28.7383 -25.292 -18.2158 21 30 11
-9.90002 -25.7058 -3.25912 52 68 16
40.0863 -26.8216 -26.0799 67 86 67
11.7429 35.7823 0.916061 72 73 2
-15.6227 40.6025 -10.2705 78 77 19
-16.8024 21.2382 -23.5674 73 67 0
-16.8253 29.0939 -16.8039 62 65 19
26.8002 3.07804 -18.0933 126 128 21
35.303 -22.2968 2.35734 80 70 1
-19.3336 -25.811 10.482 63 86 38
-12.2454 -25.6459 -2.40537 74 98 52
12.1589 14.8948 -9.24345 34 13 20
-16.5062 -3.71235 -7.6906 77 50 19
-24.0329 13.3549 26.2874 52 77 50
3.54719 27.5626 -17.5817 67 56 17
7.71691 26.3998 -19.7469 97 98 21
-18.7595 25.1207 -18.0712 119 104 17
-26.2088 21.4177 30.1625 51 81 86
31.5841 -25.7712 -19.446 45 55 34
-20.699 35.6361 1.41355 59 61 43
1.47718 -25.9808 -26.0391 47 54 29
-24.4836 16.9454 41.5144 58 88 94
-16.1733 18.9648 -12.5374 64 35 4
-10.9212 30.0271 -15.8781 72 70 21
8.90948 23.6903 -9.01104 66 68 56
28.5392 1.77057 -7.98869 51 32 30
9.82214 -26.4334 -23.4926 46 58 37
-4.69252 39.7559 0.0577898 71 67 1
-16.1462 -22.9769 10.2396 27 16 0
4.49461 15.2724 -27.8154 71 61 11
12.253 32.3403 -11.8436 94 88 2
10.0061 34.6023 -8.80791 57 33 12
9.43638 36.3903 -8.67394 52 34 17
-10.2666 -8.52538 13.0823 76 49 23
29.488 -25.0064 -24.6678 47 49 26
36.4446 -27.0321 17.0816 52 67 44
-26.2155 -25.913 12.1168 59 81 29
3.99572 -6.20921 13.2273 66 44 17
12.3691 -26.6751 15.4721 71 98 18
0.530127 28.0686 -17.2662 66 62 14
17.2103 -0.881325 7.1272 77 68 1
-16.5606 1.47522 -22.6379 77 49 26
9.33703 -26.6629 5.78268 91 102 51
27.589 -24.5219 -24.6297 41 44 25
21.8603 -25.8654 -9.29905 45 39 24
-24.0668 -6.45436 12.5152 83 107 101
9.82172 34.3654 1.88097 78 80 1
-4.45803 1.15355 -28.3596 69 77 75
9.45681 9.71549 0.447072 53 46 18
-7.15325 28.4627 -17.2459 62 53 17
33.4876 -21.0654 7.99855 73 90 72
21.9656 4.87654 -15.867 73 63 18
-14.968 39.0466 -13.5146 67 74 66
-24.8652 22.7054 30.2701 67 80 76
-19.4918 31.9887 5.62089 78 75 0
-24.2513 15.6773 34.0866 25 65 34
9.41579 13.2281 4.11008 62 46 18
-24.3825 -16.462 17.6015 86 109 100
-25.914 5.59993 23.9089 38 32 14
-16.1886 22.5396 -14.5098 45 22 1
-15.6151 -25.497 -25.1755 62 88 44
12.2869 9.42387 -12.9383 48 26 27
-25.9609 14.127 17.4707 49 75 80
-11.7659 26.466 8.29229 77 70 0
25.3676 -20.5732 -18.3961 64 58 44
-12.439 -11.9903 -0.34903 17 6 3
-8.71403 45.3844 -3.97317 75 87 75
-25.6639 12.9208 14.9726 45 73 85
23.6865 16.4059 -3.62307 82 78 12
9.39583 19.2773 1.39446 74 42 4
-24.4538 5.07926 44.8382 60 88 98
35.2188 -13.4187 -15.3147 77 78 60
-23.2317 -20.5434 5.90382 60 84 38
-24.2509 22.1435 25.0234 58 86 87
-16.1117 37.1471 -8.0904 27 8 2
-6.61316 -26.3761 15.5229 80 108 34
-26.2442 16.8241 38.504 21 33 18
35.4333 -19.5928 11.8958 83 81 35
35.4872 -20.5411 4.04104 81 97 89
-16.513 1.50521 -10.3332 77 57 39
-16.3484 -12.4526 -18.1912 69 43 19
-29.7329 -25.2369 -11.6416 36 70 11
9.53662 22.6658 -21.5108 87 87 16
27.4959 -25.9042 -29.326 74 99 32
-28.9565 -24.986 -24.8 31 61 22
-14.8477 26.4292 9.94221 65 75 57
2.13365 -17.9486 12.8042 53 40 22
-18.5785 12.7196 -28.6045 92 77 10
-1.844 13.215 -29.6577 71 67 10
1.13972 6.33683 12.3998 0 0 0
-25.9433 4.22624 47.7691 29 56 54
-16.4118 10.6472 0.673168 44 30 10
7.14341 2.14037 13.25 61 39 17
20.7419 -25.0697 -20.0232 55 55 29
-16.4274 16.4211 -25.2342 98 78 15
38.6342 -26.265 -4.58156 67 82 9
13.6299 36.3501 -2.12495 79 72 28
-25.9481 7.99975 25.9823 49 70 69
-16.1614 32.6651 -10.1061 32 9 0
2.55521 20.8216 -23.3292 69 67 14
-16.3157 14.4631 -0.329941 54 34 17
-21.7704 -25.1991 -17.8399 35 66 24
9.40196 16.0126 -15.091 52 33 12
9.39976 15.151 5.09038 52 34 19
25.8565 -9.90946 -7.27304 35 9 1
-8.15372 -18.0746 10.9038 26 34 25
-25.0554 -24.0187 0.311121 90 108 89
33.9048 -15.83 9.64935 69 13 1
33.4478 9.6829 -0.872987 70 79 71
-24.4034 11.9522 41.1987 28 61 32
-10.0474 -22.8133 -17.4757 20 23 17
-8.35028 -14.608 11.2158 57 65 57
-12.4375 -25.5687 -5.8098 47 69 26
15.9746 8.86419 0.930584 76 74 3
6.34982 24.0239 -20.3902 80 74 2
-12.9078 -11.3634 2.43683 64 56 29
35.4196 -21.1536 9.95978 85 79 14
17.6385 16.6646 -3.74677 83 72 10
27.012 -26.5365 13.7678 88 107 15
28.3174 -8.23059 0.478527 74 46 14
34.6001 -17.0737 1.01532 66 73 73
23.367 -26.2903 -6.13821 85 90 44
-13.9349 30.9456 -15.48 71 74 15
-1.88618 41.709 -9.56686 70 62 13
-16.4501 1.56863 6.86611 63 35 11
-12.3344 -18.78 -15.9237 35 24 6
2.91195 35.2321 2.01585 72 74 0
9.46844 12.9288 5.05678 69 57 25
-12.7663 -16.8524 12.9846 60 42 20
9.42865 13.5997 2.44466 63 43 12
-24.2295 26.27 16.846 70 102 111
22.9513 -26.4074 -5.86372 57 62 21
-24.0367 -8.35854 12.1567 84 107 103
-23.3491 -25.0954 -21.0354 33 62 25
-16.0873 -9.70696 7.18927 63 37 14
2.6649 -1.6954 13.2878 70 46 22
-16.711 37.3617 -9.95274 40 29 7
26.6919 5.58619 3.01956 95 82 14
-14.871 2.09168 11.2666 83 94 84
-23.8295 2.28681 23.5109 76 106 113
-20.0349 29.1052 4.70427 89 89 36
17.3831 -13.5394 4.13932 2 0 0
-16.2978 15.0868 6.66244 49 28 15
33.1219 0.370415 -17.4464 77 80 56
31.5324 -26.1023 -5.31358 66 81 0
-31.4678 -27.1816 -16.9086 66 80 66
-24.6409 5.4203 43.9986 77 106 109
13.4737 39.9448 -4.20645 85 72 11
-9.24489 42.0699 -0.913963 74 65 0
-18.8935 13.8766 -29.8654 67 64 9
24.3414 6.47782 2.38675 75 65 0
-28.4313 -25.3921 -2.21141 37 68 26
-16.4027 -16.6278 -21.9845 57 39 20
18.2289 -26.9898 -30.1232 49 72 45
32.7758 -3.58199 -18.5492 56 59 52
-20.7134 26.178 -18.9071 71 74 58
36.0131 -26.0863 -9.482 69 83 10
-14.8969 -26.2506 15.2459 91 115 51
-24.0034 13.9675 13.0731 77 111 114
9.38545 9.61222 1.41333 63 53 19
28.1948 -2.87618 -14.0638 40 26 19
33.1797 3.96494 2.41107 71 87 82
-16.7461 12.432 18.1872 86 85 14
-7.00076 32.5114 4.32867 74 67 0
-14.0052 30.5547 5.6629 79 74 0
25.8675 -24.4784 -22.009 22 35 22
7.35214 30.3802 4.12238 78 72 0
-24.5114 -25.0699 -20.8876 27 62 19
-15.6024 36.3261 2.93767 70 75 27
-17.9728 15.7779 -25.8666 97 78 8
-16.0633 21.6955 1.99953 70 42 5
27.4625 -1.43188 -19.699 78 70 27
-29.8878 -25.0196 -26.513 36 61 24
-10.0917 -17.4387 -2.64547 15 16 1
24.2769 12.3616 -10.8217 70 67 15
28.4459 -0.245701 -11.0965 62 39 19
19.5095 16.5066 -8.02239 68 60 20
6.9763 6.05163 13.2597 64 40 17
-5.67628 35.8305 2.37698 72 72 2
10.747 16.3564 14.081 73 65 2
-23.8772 7.18956 24.0453 65 78 73
-24.5551 12.0961 47.0119 59 83 88
-9.00272 44.9501 -2.64456 80 72 5
-16.1683 3.67387 10.6997 46 46 32
-13.0093 4.17617 13.357 83 57 33
12.7584 -1.87436 -20.1436 75 60 15
-3.48441 41.5975 -1.10229 73 74 5
1.95945 44.5268 -7.82586 64 57 15
-8.47238 -25.5796 -9.94779 42 64 19
33.6136 -19.5464 9.55017 78 88 75
9.40942 33.9298 -10.3017 45 23 3
-25.9912 4.59576 48.2798 21 49 31
-19.048 38.9041 -8.97847 24 10 3
10.5008 17.1279 -4.76315 33 26 8
28.5164 1.48457 -9.6023 60 47 2
20.1186 -22.6477 -7.10957 39 29 18
20.6648 -21.8944 -3.54496 17 15 7
-16.4305 -3.4752 2.78002 71 46 24
-21.8336 -25.8538 11.9415 87 110 50
6.52337 44.681 -6.30911 84 101 93
9.4022 18.051 5.82738 72 40 7
25.2065 -15.4831 -10.5595 38 22 6
-19.611 44.7952 -7.44896 65 56 22
2.34607 -11.1306 13.0186 73 51 27
13.9081 42.2813 -8.81763 71 62 25
3.50242 4.48916 13.2085 66 43 16
10.3322 21.1164 10.4875 82 77 1
-25.7963 -4.95321 15.7183 54 80 80
-21.3891 -25.6181 -29.7552 23 53 22
-16.4265 27.8496 -18.0027 71 63 19
-17.4 29.9175 5.82473 81 82 46
-25.8532 24.5421 14.9553 59 86 87
-15.4215 44.2095 -8.00768 66 61 14
6.31095 31.5884 3.63749 75 76 0
-24.1748 8.38141 34.3043 51 80 79
-15.2544 28.3027 -15.0126 43 37 4
-16.1122 25.2932 -15.7143 39 18 3
13.9887 39.7078 -1.43002 80 57 1
28.7478 6.61825 -7.57336 44 29 29
2.83959 44.7261 -4.90023 80 94 87
26.4208 16.3225 -5.9536 92 106 98
35.4651 -19.4029 10.9965 87 101 94
-7.42823 -25.4189 -7.05714 32 47 14
-27.3972 -25.005 -26.8909 35 62 22
-26.0295 10.2722 26.1817 42 30 22
21.9975 -26.7885 8.79559 83 106 20
10.8533 -24.923 -16.9085 32 32 24
-8.49394 -12.8344 11.5328 72 88 80
28.6215 4.21616 -8.8665 31 14 16
9.3294 31.5146 -8.33581 52 33 3
24.385 -15.6549 -10.0792 58 38 8
-16.32 15.3662 -5.06207 54 34 20
33.1461 1.19502 -16.8214 70 77 61
-23.8618 3.52499 22.9491 64 54 41
-16.1773 19.6303 6.59259 64 40 5
-31.2917 -26.9353 0.559425 59 82 62
5.74854 -14.0617 13.0977 67 45 24
1.93956 -27.5603 17.5823 62 73 65
-14.0576 35.769 2.88506 91 95 6
-23.9869 14.8667 21.7612 74 108 95
-16.2879 15.7926 -0.0884933 46 27 15
-27.5653 -26.0844 14.974 60 92 32
-6.31384 14.3987 16.4605 74 72 4
-26.1171 19.678 33.303 49 78 85
-1.567 38.9803 -11.0661 70 59 11
28.2012 -2.05961 -14.8024 63 51 13
21.1937 -24.6541 -7.52917 47 34 18
11.1235 -26.6731 16.067 85 106 28
5.43002 -14.4597 -24.9541 63 45 19
-1.85984 38.9551 0.277214 70 66 0
11.5119 27.8443 -16.3436 69 58 22
35.4383 -19.7791 11.4584 84 101 90
28.7198 6.08699 -4.8249 42 27 22
-19.2879 28.3107 7.38226 82 74 3
-2.99269 44.7283 -7.61775 61 57 16
21.9556 14.967 -9.10378 72 68 23
-3.51424 -15.3925 10.0762 1 1 1
1.89262 17.6223 13.7662 73 69 4
-19.0448 -24.1935 2.07323 62 78 24
36.8307 -25.7419 -27.5313 73 92 33
-1.37466 44.0307 -2.72242 76 69 4
27.0176 1.58712 -18.1738 105 112 24
-3.71383 1.89161 12.9716 67 72 54
1.56957 26.3559 7.61358 74 60 1
-24.8318 25.7012 27.2256 58 71 66
-16.5585 2.99041 3.39637 66 38 15
-25.8354 14.784 14.4714 52 76 82
24.1793 -13.151 -7.94059 60 34 11
17.819 17.021 -4.83363 85 90 80
16.4167 13.4474 -10.2221 78 69 21
-26.3036 15.2061 41.9121 16 31 14
-15.6681 29.9585 -14.1824 83 78 45
-0.363113 -24.3719 -25.9654 39 48 28
1.74421 25.5995 8.14977 72 60 4
29.6579 2.95467 4.5184 81 76 3
32.3745 -25.393 1.09235 48 52 43
28.786 9.44711 -7.05338 47 32 0
23.2506 -26.567 14.8327 92 114 21
-11.4705 22.8125 -22.2035 70 70 13
-23.8733 5.83766 24.4078 61 61 53
-19.7862 30.4743 -13.7922 109 102 1
-6.76316 -19.4289 -22.4781 3 0 0
4.02185 -17.6133 12.9771 55 39 24
-16.0281 14.2436 -22.1122 64 45 25
-8.67678 43.2156 -1.61069 73 67 3
8.89713 25.9822 -22.0067 73 78 60
24.76 0.108559 6.50488 75 73 0
19.0217 -20.9268 -8.61279 54 53 30
-25.8619 -23.835 15.1465 61 81 53
38.7153 -26.1996 -8.28066 68 80 10
-16.0785 20.9169 -12.7944 64 38 10
-15.0567 -25.3506 -26.7044 55 73 30
12.5578 7.38287 -13.7593 86 75 17
-2.04088 42.5276 -9.09682 72 66 10
9.41494 17.1093 5.34359 75 58 7
4.10223 28.6019 5.71181 70 66 2
7.61426 22.1134 -24.5828 88 94 18
12.9467 -24.7354 4.7914 72 90 22
23.4167 6.54147 -14.7097 73 74 19
-13.2854 -23.558 12.8121 55 41 19
15.0468 15.4523 -2.94883 79 77 7
-24.9452 -3.00816 14.2984 126 152 149
9.44946 34.9666 -2.16226 62 42 22
28.591 1.93396 -5.1643 62 54 48
33.0519 -26.9584 17.0956 79 100 52
13.9114 31.3048 2.52996 79 91 60
-25.6399 16.8331 11.7231 48 69 73
-25.9631 -14.4959 16.5667 63 81 74
-18.593 24.0885 -18.9971 118 107 15
-26.9445 -25.4381 -1.15297 41 70 28
-17.3299 29.4534 -16.2792 72 75 30
28.1221 14.2673 -9.44764 70 68 19
-31.5097 -27.0221 -13.743 68 84 74
-24.1323 21.6172 18.9565 106 139 141
20.3193 -23.0313 -7.38252 40 31 17
40.422 -27.7005 -21.8094 61 79 66
-25.6085 -1.37756 24.5818 60 78 83
28.0227 7.87079 -15.4218 61 72 60
-25.9439 20.2314 14.2933 59 80 85
12.3134 29.0152 -15.5466 79 74 25
-20.3634 22.5079 -22.4788 65 67 15
-11.4444 -21.519 2.23412 3 3 0
26.0435 -26.4888 -30.1759 44 62 54
-20.6345 42.4602 -1.97266 74 84 74
22.3753 15.7685 -8.51551 69 60 19
-26.2097 17.2811 35.1446 20 37 18
-25.9256 7.85724 22.439 47 74 79
11.0482 23.3696 -20.6291 76 70 23
-28.8267 -25.1796 -12.8641 42 73 16
-14.6562 37.4542 2.89007 65 75 65
-8.46021 26.4856 -19.0686 65 56 10
-25.2188 -20.7833 2.42292 97 114 95
-15.3335 21.6637 13.2753 69 80 64
7.52912 22.7871 -21.6482 99 97 0
3.25576 13.146 -29.5237 73 69 14
-6.99291 35.9512 -12.7944 71 69 15
28.7292 7.56207 2.78342 94 99 39
28.5452 0.8955 -8.43374 34 17 14
24.7142 -12.077 -18.4079 73 45 22
8.68205 -18.5326 11.0993 73 81 75
-16.4324 11.2879 -2.03147 52 36 13
1.35667 4.11723 11.8011 2 0 0
23.3072 -26.6406 6.36144 88 92 40
13.171 33.9099 -10.9555 93 81 7
7.37679 19.6856 -23.914 80 74 27
28.7138 6.13451 -7.3969 66 55 48
22.1161 -26.2006 -18.2502 47 42 21
27.5167 -23.9871 -14.2511 47 31 6
18.4572 -24.1302 -27.3005 42 49 23
-24.1033 -16.0188 15.2338 77 105 93
12.9693 16.6038 -26.3794 72 61 24
25.6398 -26.5094 5.70816 54 43 32
-26.2756 15.7806 36.8607 35 63 65
-25.7578 -12.8892 7.8007 61 74 63
9.4231 32.4415 -9.98114 50 28 3
-26.199 21.1902 20.681 37 59 58
13.581 7.17042 -13.9657 83 73 20
33.228 -22.6371 -19.6751 53 80 78
-24.0925 -11.9275 10.2185 72 101 88
35.4742 -19.0107 11.8622 84 83 40
-31.269 -26.337 -4.24848 60 79 68
28.9247 -26.1172 -4.41541 67 81 15
-16.4223 -5.66135 -17.7982 73 51 29
-8.65114 -20.4312 -2.83464 19 23 6
16.3059 -26.96 17.408 67 83 52
35.009 -28.2688 17.5012 67 82 70
-24.1631 -19.832 14.8961 77 105 82
-15.171 29.2959 -4.15926 46 50 25
-9.48787 -20.5963 -0.666359 0 0 5
-13.9718 -6.65533 -7.08386 58 28 7
-22.5539 -25.6682 10.0177 85 108 53
8.89232 28.1517 -2.80784 60 64 56
-9.61493 33.7296 3.85382 74 75 0
25.0588 8.6104 1.0393 68 62 7
2.3054 32.5889 -14.4721 71 68 14
13.8431 30.6663 2.31528 82 95 76
11.8087 -1.85865 -20.1808 75 57 17
-7.98002 -23.2001 -12.0972 31 35 6
10.5271 44.7747 -4.14058 90 80 14
-25.8066 2.89867 24.5108 54 73 76
16.5292 7.08173 1.96895 77 68 2
9.40128 16.4151 4.62778 51 32 21
14.2459 33.4862 1.49995 58 60 28
11.5063 -24.5353 -17.4818 28 26 18
-23.7408 -1.19897 15.9027 82 119 118
-2.18638 -15.2164 10.4722 1 1 1
-1.35595 36.774 -12.274 67 65 9
-24.0018 4.27916 32.5151 31 53 42
12.751 2.86686 4.73591 81 73 5
-14.8026 26.7602 -4.8041 4 0 2
40.3575 -26.6108 -6.843 56 70 35
40.0425 -26.6256 8.16599 74 89 17
11.1333 21.475 10.2563 79 76 5
-20.3617 45.0856 -1.97501 81 75 23
27.93 13.0632 -10.2843 72 68 18
-5.59931 42.2628 -9.25802 69 67 10
-16.2508 36.9013 2.46885 78 74 1
33.2529 -20.0923 -18.9003 76 92 83
9.40643 15.9095 4.8589 51 32 18
-2.33287 33.016 3.66972 72 64 0
-16.166 6.0271 10.7402 50 48 28
-7.34558 -22.7978 -5.79475 27 32 9
-1.66239 44.8562 -7.3596 71 68 44
-23.6797 -17.3831 6.16177 59 86 53
-5.70488 20.6146 12.1038 72 73 1
-25.8372 3.82176 24.2057 52 74 78
31.3472 16.3235 -5.31909 83 96 88
5.52306 29.3949 4.57817 76 74 19
27.5345 6.00875 5.11773 59 71 59
2.11294 20.2882 11.862 70 73 2
-7.28113 2.28461 11.7184 64 70 68
6.32018 -7.993 13.192 68 45 24
-17.9903 -25.3338 -19.1404 65 75 35
8.72467 32.8424 -13.9955 72 70 6
9.38835 19.3608 -4.11452 65 35 5
40.3794 -26.6052 -9.67734 52 72 32
37.3023 -26.2034 -3.77519 75 91 9
-25.7158 5.87704 15.7413 49 76 83
33.4529 -17.1561 3.18813 46 11 0
-5.16313 20.3377 12.2734 74 63 2
-14.4287 -21.1273 -24.9303 54 45 35
28.7502 7.50311 -7.53153 32 13 17
28.0676 -5.54005 -9.34236 75 63 17
-13.9046 15.2441 16.2811 80 71 2
12.2032 30.455 3.71681 69 65 0
-14.5152 -6.37786 -16.0819 60 61 55
24.5491 -25.5109 -2.94328 39 44 8
13.1165 5.04275 -15.5015 82 64 18
-15.0366 45.0561 -6.72286 81 92 87
11.2828 -25.2388 -25.7994 57 63 31
30.0906 4.54615 3.53466 76 69 3
-24.0064 -13.2862 11.6213 71 98 83
19.5302 7.42038 -13.9492 73 69 17
-25.8745 4.48422 26.1477 50 73 77
-13.968 -23.955 12.7197 57 44 22
-16.5376 3.77563 5.49848 64 39 11
-5.32846 45.3516 -3.80333 84 82 42
-14.2835 25.3728 -7.85053 6 0 0
-26.037 -17.9446 10.0224 42 31 14
26.8894 -2.83272 -20.5491 81 70 31
-15.7829 29.7807 -15.9856 71 73 18
9.36385 34.7669 -3.0238 54 33 17
33.6405 -19.593 10.519 76 86 73
-25.8272 5.36206 19.4424 49 75 80
-5.88471 37.6515 -11.8195 67 65 11
20.7562 -23.765 -7.92873 57 56 34
37.8013 -25.909 -20.8943 82 105 41
13.03 27.6488 -16.4441 74 62 19
9.27918 29.4246 -10.6068 50 27 0
-2.56462 18.7879 13.209 70 64 1
-24.1891 16.8888 28.7229 35 62 43
23.9659 -8.0659 5.926 67 42 22
27.3498 2.68194 -19.2711 70 77 71
9.30375 23.4784 -16.2074 47 26 1
-25.8999 16.4818 14.3188 29 54 44
17.1947 -14.3501 3.84788 3 1 2
-24.1203 15.5531 26.9969 40 74 42
15.513 7.0593 1.96031 76 66 1
35.1622 -8.84678 -16.7886 66 82 62
-19.8751 28.1698 5.22707 90 82 11
-24.0683 -13.6382 14.4774 65 45 23
8.80991 44.869 -6.9523 82 96 85
-15.8324 36.1983 -14.5966 76 82 28
-4.91784 2.08277 -27.8378 58 42 31
1.50209 33.2268 -14.1646 71 67 14
-25.8847 5.12054 28.8544 47 71 77
26.0628 -24.2924 -25.0745 53 48 18
24.2513 -28.0155 -31.2113 69 76 72
13.4383 -27.6281 17.5548 58 71 63
8.80215 11.7387 17.4335 64 65 4
28.8483 -26.5201 3.86314 62 83 33
1.4868 34.4114 2.59976 72 72 0
-11.7111 40.3537 -10.3692 69 64 13
-20.3288 24.1971 7.80495 87 80 4
-5.78116 26.0519 -19.353 67 55 16
28.504 1.31743 -10.209 61 48 2
-26.2377 18.5623 38.1831 46 73 85
-15.5363 -2.74868 11.168 83 97 90
27.9928 -2.21466 7.94393 70 66 1
11.5248 -25.4802 -27.282 41 52 24
-25.9142 27.3697 15.8793 55 78 77
-16.2171 17.7942 4.60338 68 42 4
9.26676 -13.2133 6.07436 64 39 8
9.25037 16.6494 -21.8116 47 30 16
-24.4491 -25.6903 12.5144 59 87 40
-9.95803 26.0295 -19.4933 71 61 11
-16.4048 6.92942 -20.4628 77 48 24
-16.6336 2.06473 -18.7004 72 44 20
-15.9516 17.4568 -21.1914 63 57 17
5.30733 -5.46311 13.2388 66 42 19
-4.24431 -26.3886 14.5988 101 127 56
-26.0796 -20.114 11.8627 46 52 24
33.8312 -25.8944 0.649947 50 57 38
-18.3882 34.9389 -11.3356 36 13 3
26.075 -25.7535 -2.21493 40 43 12
-16.5082 3.41491 6.91746 65 38 12
28.9394 16.5647 -5.013 76 91 83
-16.0729 -20.6734 8.16815 38 25 7
9.34341 31.1248 -9.4281 47 27 1
9.43719 16.7117 0.161726 65 49 9
33.2133 -12.6728 -21.6344 89 85 24
-12.1192 -12.3677 -3.64526 29 12 6
-24.1287 7.30852 33.9655 28 48 37
-19.3464 37.573 -11.7305 71 73 13
-25.3753 -3.45666 17.5032 57 77 83
26.2761 -7.80618 5.93846 62 52 36
13.8016 -26.9267 -30.1864 49 66 42
-10.028 32.6393 -14.6024 71 73 16
16.9969 14.1406 -9.72323 74 64 19
7.88795 26.3637 -3.00558 29 25 27
-16.0704 20.8979 -9.74041 71 42 11
-15.894 43.1583 -8.66041 73 64 18
-15.3049 16.6536 -27.4662 67 64 13
-13.2996 -8.92711 -11.3081 35 22 2
22.9474 7.63859 1.57113 76 76 12
2.25292 34.0242 2.74203 74 60 2
-16.0087 26.1175 -1.10881 68 55 0
-7.17275 27.0839 -18.4976 65 55 14
1.36109 17.0257 14.2204 69 63 1
12.0202 22.5524 9.50111 75 74 2
27.2562 -26.4752 9.62439 85 109 16
-6.34967 1.87854 -26.9077 53 43 30
12.122 19.0708 11.9649 75 72 0
-16.2621 17.3797 -9.44298 70 44 1
-24.0627 19.5177 21.4953 71 101 94
29.0687 -26.4786 8.55573 89 107 72
-8.24753 -7.16387 12.6936 51 40 30
26.6872 -8.66337 -10.0521 49 55 48
-10.9879 -27.6755 17.5425 57 70 60
-16.4669 8.42516 -7.12552 69 40 12
35.4053 -20.8401 2.33907 80 71 9
27.9538 14.2084 -2.19906 78 73 10
19.6126 16.6065 -6.14104 89 102 93
1.16418 16.0804 -27.2827 70 64 12
-24.0799 12.4388 28.8583 76 70 37
-31.3507 -27.1727 4.11821 64 83 63
7.58844 -26.7628 17.1771 77 99 30
-14.6118 -19.8259 11.5681 69 82 72
-14.0218 23.2724 -7.96568 13 3 0
-16.4794 6.59404 -1.89304 72 46 19
-31.2552 -25.3288 -5.33484 19 52 20
32.0055 4.66254 -15.3884 71 60 1
0.705599 -24.4897 10.2029 1 0 0
-14.2211 -6.47677 -1.31802 53 25 1
-16.1564 20.4944 2.81981 70 40 1
-14.9645 22.6356 -24.5923 67 75 75
-20.2064 37.9526 -9.40192 92 77 0
-26.2048 12.452 40.1428 15 39 13
-8.90637 -19.6134 -3.24154 16 19 3
-16.4381 9.23856 -9.61557 66 43 14
-16.4748 6.43045 -7.86127 71 39 11
-1.6682 -22.0411 9.63091 3 3 2
-25.1066 26.857 15.7354 109 130 162
-16.0642 38.2235 -8.9584 28 7 7
13.7939 18.3771 10.7677 79 87 74
32.2018 10.7628 -11.5484 78 71 3
-12.5434 44.4401 -2.05246 72 69 2
26.3787 10.7894 -0.139549 74 67 6
-24.5676 -26.1531 16.1353 118 149 93
-20.1151 42.566 -6.43604 87 80 37
25.9908 -23.5259 5.76513 65 61 47
23.9356 16.5655 -7.92341 69 63 22
-25.1697 8.95341 47.5796 82 97 90
-0.713051 31.245 4.43777 72 71 0
-16.4293 10.6572 -5.72784 45 30 16
-13.9429 34.0444 -13.7418 75 72 14
-17.9367 44.7171 -7.57577 63 60 22
13.768 -25.5399 6.03483 68 87 27
29.7701 -26.4966 -30.1678 58 74 43
-16.2427 -3.9611 9.18842 67 43 19
25.0531 -27.8473 -30.8233 71 94 75
-14.4678 18.1482 -26.1486 68 58 12
27.6178 -15.2633 4.20798 72 80 71
