ply
format ascii 1.0
comment Created by Open3D
element vertex 1406
property double x
property double y
property double z
property uchar red
property uchar green
property uchar blue
end_header
13.7851 -18.7824 1.87206 19 23 15
-11.2579 21.8958 -22.9589 68 72 18
-16.1219 -22.7281 10.4272 33 19 5
2.77846 -19.0795 -25.0579 46 33 14
-19.986 38.0674 -9.37603 103 83 1
35.1197 -24.3984 -21.7883 65 80 26
20.4551 4.50426 -16.083 77 63 20
-3.49931 3.01559 11.066 41 34 23
-14.1698 -6.0861 -11.2194 65 33 3
4.36164 -26.4405 -25.8657 59 65 41
-22.2693 -25.1369 -18.8033 39 67 25
-23.8756 7.96313 20.117 74 114 117
-10.0542 -23.9887 -18.4797 13 12 15
24.8933 -10.9118 -18.4381 75 46 23
-28.8751 -25.2208 -11.5851 28 68 15
-23.2127 -24.9652 7.09913 45 39 25
15.5931 12.1112 -11.1033 82 79 20
7.5803 25.8993 -21.235 91 93 9
-24.0551 -14.4007 9.28139 68 96 80
9.03841 -0.536045 -23.1993 79 65 52
-11.6608 41.65 -9.58792 71 66 16
-15.8365 23.5 11.3473 66 61 0
9.28414 -5.38887 -17.1667 71 40 10
-26.1773 26.3805 23.1137 54 82 95
-15.264 -16.5644 -23.3512 79 91 85
-6.65268 0.269478 13.2232 72 46 21
-17.5621 2.20416 -9.5915 53 33 20
-16.5179 -0.850084 3.10062 69 42 17
-24.2435 24.2194 14.9498 72 105 110
7.82524 12.3334 14.6873 79 69 0
-20.6411 42.941 -2.07242 73 84 78
-23.9493 -25.1368 -18.0559 28 62 21
-1.20404 42.4838 -1.8004 78 69 6
7.37991 18.1928 12.871 74 67 0
33.3179 -26.0952 -6.06306 62 77 7
23.4101 2.91551 -17.1618 75 72 16
-24.5007 4.98346 47.6898 32 57 43
12.945 37.1712 -9.20454 111 90 28
10.9186 21.6788 7.53622 31 9 26
-14.1078 -6.24708 -10.5831 65 34 4
10.1509 -26.6803 10.3329 91 107 26
-19.5678 11.447 17.5795 71 83 72
9.38032 -15.352 -0.467583 40 26 5
-5.42048 1.78456 -26.3514 53 36 26
-24.1542 -13.4839 17.0466 80 105 97
-24.0032 4.69486 32.1898 33 59 46
17.7296 -3.28669 8.3004 73 66 6
-12.1626 33.3252 -14.1952 69 73 15
4.28815 38.7159 -0.0746078 73 67 0
-29.8549 -25.892 14.5009 53 91 32
-2.67485 20.4102 -23.888 68 66 10
6.4784 7.53587 -25.1956 69 44 30
-24.623 -14.4615 6.75294 76 93 79
27.7388 -21.4214 -15.8061 46 31 6
-8.36061 0.636398 13.2911 78 58 34
4.54837 -16.763 13.0359 55 40 25
9.39618 13.9335 5.52679 65 43 21
31.4979 14.7896 -8.98953 74 72 20
24.1164 11.6349 -0.624268 73 75 9
-25.8885 4.78069 26.6412 49 73 78
9.13092 -10.7996 -22.9154 71 47 24
25.6646 12.4576 -10.7589 69 66 19
9.43219 17.2973 -3.43025 68 40 1
33.5702 15.1562 -6.58273 73 65 27
-25.6374 19.8524 36.4745 70 78 74
-7.46173 31.4574 4.89531 75 78 1
-14.9427 -15.1749 -24.3656 74 77 66
38.3502 -25.9037 -18.6298 79 101 33
8.22416 25.0339 -2.85931 70 81 75
7.74564 24.8606 -6.16457 7 2 2
-16.4224 39.5204 0.978333 77 68 5
-24.1786 8.1304 34.6551 65 97 103
36.1572 -25.7436 -27.7377 83 102 41
-13.8589 16.9182 15.1059 79 66 0
-26.0352 11.0732 35.4347 47 71 73
-10.4885 44.9494 -2.51073 75 72 1
8.23519 8.11708 11.4527 69 81 76
-20.0887 36.4856 -12.3299 71 66 14
11.8774 24.9419 7.7998 73 61 0
-16.0499 30.6932 -8.2408 36 19 11
-16.5168 3.87254 6.66462 64 38 14
28.1856 -12.7705 1.30128 68 40 8
-1.9489 39.5465 -0.0551294 69 69 0
-23.9302 -4.35896 21.8928 76 105 107
40.4444 -27.9776 2.20448 62 83 69
2.84837 42.1037 -1.88894 75 76 6
20.2402 3.80821 -16.539 76 63 20
0.087822 -26.447 12.4038 19 19 16
-10.26 -13.4843 -24.9178 67 45 25
11.4875 27.1171 6.27491 73 59 4
9.96572 4.45982 3.55181 81 68 14
-25.7799 -23.5759 0.919962 60 76 50
9.2423 -26.658 16.2362 73 98 19
20.2965 10.1308 0.281006 71 71 8
-7.13123 -5.45068 11.6924 9 2 1
32.7866 -3.32265 -19.1262 59 62 55
-15.2204 35.7509 3.19697 69 80 61
7.32122 9.11606 12.9205 61 52 34
-19.1665 31.7204 3.42896 83 73 4
7.58993 25.3593 -20.3414 98 100 5
-16.4774 5.54703 -2.51703 68 38 10
-15.7961 41.5407 -3.56213 41 33 9
20.6289 -25.6699 -10.5054 42 44 16
-18.5452 17.4156 -26.9184 67 63 11
9.28125 -8.70119 -16.8937 67 37 11
-23.7461 -19.1362 3.90892 3 4 1
-16.3203 8.73529 -19.6525 71 51 19
10.2909 17.075 -23.5845 92 79 7
36.367 -26.5806 8.99147 91 103 27
6.75805 -8.77277 -24.6081 74 66 50
-24.1141 5.97853 34.6427 52 84 85
10.8336 16.6566 -7.7719 17 6 20
5.09682 -22.808 -24.9764 50 34 17
-24.079 12.1014 29.4212 64 81 77
13.976 15.0224 -25.6637 59 59 35
-20.7396 16.5325 -26.1382 61 69 53
33.8927 -17.117 11.342 78 52 2
-24.3725 15.7863 39.8845 68 96 88
10.6332 29.1112 -15.6097 85 85 33
-15.8643 24.4248 3.74994 47 25 7
4.09744 40.279 -0.935364 76 70 4
-23.9417 -16.8248 6.89186 62 86 57
5.94485 39.9489 -10.4232 75 69 0
31.8349 -25.9648 -15.2121 40 55 22
12.0863 -0.171055 -19.063 74 69 11
-12.3999 -11.9534 -0.929253 22 8 6
-16.8413 20.748 12.4722 84 77 3
-16.1928 14.7317 -19.7448 53 33 15
-14.5145 -15.3403 -24.8461 70 48 28
9.13104 26.7126 -2.15683 55 38 27
0.332054 7.52025 -25.2194 69 41 25
-26.3363 15.9952 41.9249 28 49 48
35.7467 -13.203 8.41599 65 70 52
1.87935 -10.4624 -25.0335 66 45 21
-15.5414 29.0756 2.2376 48 44 31
-22.7075 -25.4893 -1.35438 67 84 34
-17.404 34.6528 -11.6925 31 24 6
-24.2717 16.1357 34.7514 73 101 86
-24.1854 22.9179 16.3977 41 64 46
-4.60731 -28.0058 17.6208 55 70 63
23.2606 -25.9867 -18.3519 40 33 17
-25.0426 -5.26434 22.7471 75 93 88
9.17997 -0.31675 -22.2976 77 56 33
35.107 -16.1487 -21.9081 64 80 61
-12.9127 -25.4641 -9.71368 54 74 11
-10.017 42.3176 -9.23556 72 61 13
-20.5745 43.2082 -2.50197 67 79 74
-15.1511 42.7046 -4.37892 48 40 19
-24.3885 11.8431 43.2511 52 79 80
0.493879 39.1327 -10.9674 71 67 10
-17.1877 12.8537 -30.4868 68 67 13
-12.239 5.57443 -25.0965 67 48 27
-13.8799 3.63378 -25.0724 70 46 28
19.8698 -17.3373 5.0247 1 2 0
7.62632 -13.9226 11.2982 82 95 90
-24.3339 27.2341 19.0366 57 92 89
28.3088 -10.8169 1.36091 70 42 17
-25.913 -8.07568 20.7264 65 85 83
-24.0066 -15.6095 12.3815 63 51 22
-18.7859 40.8725 0.467529 68 66 4
-20.7243 14.1577 -29.0648 62 72 53
28.4848 -0.668648 -4.266 61 40 25
32.9022 11.6952 -0.763214 72 73 7
-24.0684 15.4476 25.3169 69 100 74
-20.462 15.5215 14.0266 81 80 4
-26.0211 -14.5648 12.0963 46 35 17
9.92054 -25.2905 -15.5964 17 22 27
27.8923 12.0516 -10.9517 70 71 15
3.10357 3.67073 -25.2828 67 42 23
-23.9477 13.3995 21.7691 56 96 60
-23.8619 3.42084 25.9847 72 105 110
-16.5911 0.204777 -22.7126 73 48 21
-24.0887 -6.87437 14.5743 81 114 113
-11.1227 38.0344 -11.6269 70 67 17
16.7602 16.1223 -8.33221 70 61 22
22.6779 1.80986 -17.9024 74 67 18
13.8278 34.0784 -10.9185 87 76 7
-5.43388 -25.7597 -29.4251 28 49 11
33.2829 -25.8223 9.35682 83 69 12
-24.9745 27.4149 24.4135 57 69 64
32.5541 -26.089 -6.42012 61 76 1
29.5997 -26.5873 14.0333 84 102 22
-20.4048 43.0842 -3.36929 61 68 63
-26.0873 -22.2705 9.41315 43 31 7
-0.874481 35.295 2.31018 74 68 1
-9.28607 -18.8073 -3.24085 22 26 7
7.83681 27.2138 -3.53194 9 0 1
11.959 -23.556 3.13175 61 72 22
27.9278 -26.5235 11.9962 91 103 10
28.1882 -26.493 9.08155 83 108 21
37.6035 -26.28 -1.27091 70 84 2
-18.8116 26.342 -19.2382 71 70 20
-19.3666 23.5168 10.7384 87 88 12
6.8962 26.8907 6.7626 76 65 6
6.05737 15.7759 -27.3573 72 62 12
-26.0355 22.8448 15.7069 29 43 27
34.9657 -8.42411 -21.9499 71 84 80
-12.7925 18.017 -26.2328 69 60 14
33.4452 6.53226 -13.3582 73 79 57
19.3778 -19.7046 4.90028 2 6 1
6.45167 13.5011 -29.173 65 60 3
8.68736 25.7168 -2.82155 70 80 71
27.4603 15.5176 -3.03876 80 74 10
-24.5286 -11.2008 8.97001 79 91 83
33.6051 -14.7052 8.77583 69 57 14
-12.7646 -13.1983 3.22466 70 50 13
9.3336 21.3696 -3.76824 80 40 2
-16.4364 -2.00511 5.23321 66 36 7
34.5328 -25.7879 -23.8953 51 64 16
33.5232 10.9886 -9.27554 73 81 60
11.245 5.34095 3.05594 84 67 8
-10.9599 -25.7515 -25.8 49 61 29
-25.8261 3.02435 21.9382 40 30 16
6.99899 2.1771 -24.7631 78 84 78
26.1647 -14.5556 5.84195 67 63 51
-22.2462 -22.3738 2.42912 6 2 3
24.9906 4.47768 -16.1257 76 67 4
-2.10397 31.6029 4.39655 73 68 0
-21.6778 -26.0479 15.4741 88 117 49
-24.0267 9.49952 14.9864 49 97 92
1.44799 19.1715 12.6953 71 68 1
9.06438 -26.8658 11.786 95 117 46
-24.0406 18.0168 21.4931 72 103 97
28.6762 9.68567 -12.4466 76 69 9
33.1362 7.39727 1.76474 72 71 5
-26.1752 18.3826 28.2468 16 48 22
9.32407 21.1668 -9.39123 72 42 5
-25.8384 -15.2839 17.9413 66 84 78
-24.3707 -13.0923 18.7762 88 113 107
28.0287 8.09434 3.09885 56 62 55
31.3447 -26.3967 5.03868 53 60 30
-11.8403 44.5749 -5.84085 83 99 88
0.335524 41.1991 -1.16653 76 70 3
2.77757 5.52128 -25.2796 67 40 24
38.0506 -26.2173 -6.02392 67 81 2
-16.2556 -1.48869 9.90239 62 35 9
-8.10243 -24.4781 -0.31646 10 7 8
-16.041 -7.17029 5.81776 62 39 15
-16.1649 19.5721 -1.46247 68 39 7
37.2094 -25.8636 -30.4563 7 16 11
-4.56317 27.3121 -18.2198 68 55 13
30.2312 -26.5646 13.3713 85 100 26
-5.19215 -17.5929 9.6867 3 2 1
14.4109 -24.0632 4.94628 66 80 18
3.90947 13.3845 -29.3463 70 64 11
-11.0849 -25.4051 -28.575 51 62 39
-15.7052 -25.6841 -24.7776 25 46 31
-17.2178 -24.6532 2.19131 66 87 23
-18.8572 -25.2719 -15.7128 57 77 30
-10.9844 4.72544 -25.1495 69 45 25
25.5118 -20.8329 -18.2082 64 67 52
4.12841 -24.8717 -24.9954 48 34 14
-12.3265 -20.4226 -16.6026 32 28 9
9.33121 21.8217 4.37103 54 23 4
-19.8859 12.6092 16.0683 90 74 5
-20.9288 -25.2387 -14.4666 62 82 24
-20.8843 22.0461 10.7345 64 71 58
-25.1638 -1.9499 14.8753 67 85 83
-15.8818 22.8164 -8.83519 52 40 31
-25.3528 -4.55238 21.6781 57 75 75
-23.9296 -26.0104 14.3277 96 124 46
-24.3883 -17.1319 17.4727 78 100 90
22.6967 6.00905 -15.0296 72 64 16
27.8309 -23.0277 4.03101 33 18 5
14.8126 -12.0955 3.90561 2 0 1
-16.2836 15.8764 -0.492222 46 28 16
-26.2846 11.7396 43.9653 41 69 75
24.1848 -25.2981 -20.7242 35 36 17
19.0541 -1.63797 7.58917 73 67 0
-27.3683 -24.98 -24.0283 30 61 22
-6.13091 32.3397 4.35897 76 73 0
6.93621 -8.99818 -24.1715 73 83 77
-1.40393 -5.98271 -24.1365 39 24 21
-2.70339 16.9982 14.4708 72 64 3
-18.7673 -25.3412 -9.1091 48 67 23
-25.9215 15.666 15.4585 50 76 82
-16.0422 -15.3033 7.15924 57 36 11
2.45821 -25.7029 -28.855 47 57 39
28.1093 -26.1158 -1.85624 34 41 11
27.8456 9.89643 -12.3407 77 64 11
-15.6167 15.3402 -28.5565 67 66 12
21.8636 6.93553 2.12529 74 75 2
-13.6514 -25.5019 -7.61576 51 73 26
-18.3442 2.52204 -5.24416 56 33 16
-16.6245 -2.5093 -11.1666 71 45 17
32.1517 -1.28333 7.29264 74 70 3
0.439949 -1.57102 13.2682 70 43 18
24.4831 8.22767 -13.4381 67 69 19
-16.1019 32.58 -4.17152 62 50 4
1.39423 -16.3327 -24.9623 53 47 34
30.2778 -2.53766 -19.8357 76 68 27
36.1396 -26.4215 -16.0834 78 109 24
29.3423 14.2193 -2.22197 77 69 9
34.3249 -26.674 13.9865 81 96 28
-1.99197 0.90675 -28.25 66 78 75
-9.09868 -6.14331 -23.6555 40 47 48
-11.2335 33.3658 -14.2295 72 68 19
-22.9006 -25.0755 -25.1992 32 61 26
-24.3544 10.4957 40.8259 53 85 83
-23.8268 2.33506 18.8439 81 118 123
13.8463 37.3096 -2.02003 74 88 83
-20.783 32.4778 4.82925 69 77 69
30.7702 -25.6543 1.0613 74 73 48
24.4302 0.0983124 -19.057 77 74 23
-24.0744 -19.4799 9.04543 66 77 41
-11.6104 -14.2115 12.9938 77 49 20
10.8195 44.6532 -4.01656 89 79 11
16.7639 5.99493 2.72867 74 61 1
-25.7931 -5.51325 16.3934 53 74 73
-16.0083 27.6758 1.18093 49 29 14
9.17943 -17.8571 5.65393 49 28 6
-1.05384 16.6171 -26.9486 67 62 13
-16.0445 28.9429 -16.9983 67 58 14
9.34621 12.5994 9.61257 73 63 31
11.9631 16.885 -23.6371 88 74 9
5.46833 35.2648 1.76521 74 74 3
-26.1293 12.3802 36.1311 34 59 47
-24.1108 -6.09481 13.8566 91 123 122
-16.1485 20.8168 5.29171 56 30 8
-14.6424 -21.3398 -24.8504 69 69 58
-19.8336 -25.5058 -2.01247 54 73 22
0.770145 45.1277 -3.97849 84 80 28
24.0595 -21.0032 5.93102 62 54 38
-16.4617 5.93329 -1.11435 68 38 13
5.66401 4.46221 -25.2653 69 42 25
-3.49745 19.3514 12.8631 72 68 2
19.6789 4.90825 3.46304 78 70 0
-13.9614 21.0224 -23.8159 84 79 16
-15.1501 30.0885 2.16138 45 43 20
-2.46012 -8.61388 -23.0249 14 2 6
-5.92971 14.4862 -28.8552 68 61 6
33.0361 0.241165 5.28534 70 89 83
-14.1008 24.189 -6.02427 6 3 4
9.36214 21.4353 -14.3288 70 44 3
24.5457 -24.604 -26.5904 44 49 23
-16.6246 -3.64074 -9.69657 75 49 19
-26.1549 18.8382 26.4021 18 44 22
-16.3482 13.2622 3.65327 55 37 18
10.7121 -26.5236 6.60983 92 113 36
21.4772 10.7958 -0.121208 72 72 9
9.18312 -20.3758 5.51725 49 28 5
-18.5543 30.9485 5.92609 84 78 2
-6.38491 29.884 -15.906 71 71 15
35.6107 -17.996 7.06822 85 92 85
-2.44195 26.6346 7.68848 70 60 0
-20.714 41.2105 -8.82067 57 66 57
10.1145 20.8763 10.6093 85 77 0
-16.5287 3.19491 6.16119 63 36 13
10.4091 -26.4441 5.17779 98 120 30
9.11751 -16.3162 -16.52 54 38 17
-25.8391 -5.14747 15.0225 55 80 85
24.5898 3.77131 -16.6081 75 70 7
8.74856 44.7569 -6.45045 85 99 94
9.25651 -17.3614 8.0093 47 33 7
8.64204 22.8036 -6.96112 67 76 70
20.7957 4.07214 -16.3758 77 64 20
-17.662 13.9197 14.8517 94 69 3
-16.2313 20.5091 -21.9836 89 97 66
-16.426 21.8452 11.6359 83 81 1
3.06989 6.43449 13.1741 69 44 20
-12.826 23.436 10.3506 74 74 1
-23.9586 4.68598 29.5813 68 101 105
-13.8657 -7.15117 -5.67403 57 29 7
10.4259 18.0119 12.8538 73 71 1
-5.40132 41.6669 -9.58505 69 70 11
-24.2532 8.2227 35.5483 56 83 88
-23.8424 2.86188 21.9133 69 56 44
-8.09409 35.4445 2.76377 72 72 0
1.86479 -26.1041 -25.5484 49 62 38
-11.5957 -14.9096 -0.211304 10 6 5
-6.70026 12.9451 17.4483 75 75 2
-20.2651 37.3667 0.0295963 82 76 0
-5.36789 25.5302 -19.7608 68 57 16
-14.4066 -23.6772 5.63708 61 74 67
-11.832 -13.1625 -4.18108 28 13 6
22.9131 6.7043 -14.5776 74 68 19
17.3257 12.3139 -1.03858 78 69 5
9.21687 24.2201 -1.83184 58 38 15
-28.1546 -25.1497 -15.0439 35 68 21
10.1136 36.6125 0.498909 77 74 0
-10.2218 -19.9969 12.8858 55 39 14
-26.0209 -15.5951 14.4352 56 79 67
28.172 -14.9925 3.17762 63 35 12
14.2049 31.8392 -12.3571 65 67 54
25.0537 3.52651 -16.7522 76 72 5
9.40615 18.0663 -10.4086 71 41 9
35.0808 -25.4971 -21.4332 65 77 20
8.84746 -16.8841 -14.2271 3 4 8
16.9756 17.1134 -4.28174 90 83 18
27.8885 -9.88509 -14.4579 64 40 4
13.9569 14.3543 -9.51413 81 75 22
-24.8003 -4.67622 23.0232 78 93 93
-16.5484 1.75162 -11.0164 73 51 27
8.58997 -26.5173 -25.154 55 70 37
-24.004 13.5523 15.993 75 104 110
0.399143 8.37233 -25.2098 68 42 25
-30.4044 -24.9604 -24.1872 27 57 20
35.3903 -20.7047 1.96054 81 71 0
-16.4322 8.70604 0.108805 68 39 11
20.125 -18.2892 5.20718 3 4 1
32.9075 -1.88815 7.19801 74 78 38
-10.3597 19.9477 -24.5644 68 66 15
-26.0557 -11.4032 15.4476 42 34 18
8.13564 -18.5052 11.0863 75 87 78
9.1962 37.4463 -14.0576 88 95 15
28.1503 -12.6065 0.245478 74 47 15
-9.59361 -25.7473 -0.632156 52 70 17
-10.0392 -16.3031 -7.64773 22 20 6
-26.1299 25.5758 23.2915 52 81 87
-8.53407 -17.1343 12.594 68 62 45
-20.0246 36.5324 0.53772 87 80 1
-7.7124 -0.628387 13.2537 75 46 19
-5.68819 13.7715 16.8497 73 66 2
7.38735 27.8229 -16.9989 62 59 22
-4.36176 24.1485 9.57627 70 70 1
25.1599 -12.8656 -4.33292 27 7 3
13.1949 18.5521 9.65713 89 70 14
35.7653 -15.5906 6.80835 81 35 6
0.383768 39.658 -0.279945 75 72 2
-17.7209 -25.9681 12.5427 87 112 49
33.2262 8.58043 -12.3584 80 80 19
-17.4576 1.45852 -9.75674 67 68 58
19.0006 -2.60714 -20.6981 76 65 22
-11.9184 38.1036 1.43025 76 69 5
13.1375 16.0551 -3.39127 77 68 6
-1.15135 -24.9487 -28.0469 30 43 23
10.062 43.0289 -8.64328 71 66 18
9.43271 13.119 -12.1388 49 36 20
-24.5318 17.6528 42.0148 56 85 95
39.1444 -25.9956 -15.4761 68 86 25
-20.4561 24.0563 -21.1067 68 68 21
14.0016 16.3459 -25.4012 70 78 66
9.38868 34.5898 -4.12189 75 56 2
7.30138 -14.7648 11.5785 80 94 87
9.20232 -12.5535 -19.0881 71 41 17
-24.4844 14.9005 42.8414 31 50 36
-9.48991 -25.5853 0.949938 44 55 17
-11.62 22.1794 -22.7554 66 65 17
-18.354 -25.4883 -4.15865 51 74 18
33.9235 -24.074 -23.718 75 86 78
-3.95063 -20.654 -23.2714 2 0 0
38.9048 -26.4359 3.4228 77 85 13
-16.0193 21.8382 -1.14027 71 40 14
25.669 8.22168 -13.3581 59 55 22
2.20332 -13.0192 -25.0558 64 42 21
4.13586 8.9227 -25.2316 70 42 23
-15.9678 14.975 -22.3948 55 39 17
-13.9581 -8.13317 -24.8777 69 44 26
15.4402 -20.4194 3.19582 5 1 3
5.75098 24.7791 8.362 77 67 4
31.0618 16.3799 -7.85672 69 60 23
-23.9557 -4.1304 22.5789 77 106 107
11.2744 29.3018 4.20637 75 64 8
-25.1969 22.1767 30.4366 70 86 83
-25.9367 7.2184 24.405 38 31 26
25.805 0.80994 -18.533 77 78 21
-23.8628 8.19881 19.4392 72 113 119
8.30315 44.8496 -6.93497 80 96 85
28.3366 -10.1446 2.42803 74 48 13
-16.311 -23.6527 -17.9862 56 37 16
-28.6886 -25.326 -4.69466 30 67 18
11.1895 37.9683 -11.2178 76 69 10
28.6453 4.97299 -6.89155 62 60 53
28.6776 -1.15229 7.25926 74 64 1
23.9799 -25.852 -18.4699 38 34 20
28.131 -12.9844 -0.196027 74 54 11
16.2977 6.60144 -14.4953 79 72 17
9.67178 32.5102 -14.1351 73 72 12
33.4066 -11.1877 -24.287 79 95 89
-24.4338 19.2432 36.2341 77 102 99
-24.3614 18.5554 35.9715 74 108 112
24.5705 -26.2306 5.76824 54 47 14
-14.8697 -1.64579 11.1927 82 96 88
-25.9387 8.85753 22.3391 47 74 79
11.0969 11.8279 -11.1609 39 19 23
-1.98883 34.1779 3.02156 71 66 1
-16.6344 -1.68474 -11.5394 73 49 22
13.1537 28.8706 4.45171 64 50 11
14.0044 29.9965 -14.9029 80 82 59
13.9133 34.0838 0.986518 71 74 70
-23.9402 10.2273 18.4317 70 112 123
7.70051 -27.4552 -30.2108 52 73 55
24.3374 -2.59534 -20.7661 79 73 30
14.1398 -7.55263 -15.7086 66 39 24
-20.245 26.4125 8.80806 80 70 5
-28.5628 -25.3465 -3.49094 35 68 24
-20.7898 20.2293 12.3266 66 75 61
-17.62 26.565 -19.0617 71 66 20
30.2836 3.5137 4.20393 77 73 0
31.353 16.7385 -4.64171 86 92 69
-24.1019 -5.60393 13.266 87 115 113
21.026 -26.6113 15.775 98 118 29
-16.2751 5.06194 10.4983 55 38 16
-9.09028 -18.1528 -7.83097 22 23 8
-6.73711 -26.1493 10.8934 57 83 38
8.77811 38.8821 -13.6986 72 79 61
-25.9284 -10.271 19.6375 66 84 83
-10.9059 21.1056 -23.594 68 66 16
40.4037 -26.7707 -3.36586 67 81 59
25.7584 -9.41648 6.12022 66 43 19
31.7648 13.2722 -10.011 76 71 16
-7.52024 -23.8504 -2.26455 24 23 9
-9.4201 18.9159 13.4943 77 74 3
14.5106 -26.5662 12.9564 82 107 26
-24.0562 18.3376 18.7425 80 111 88
-14.9514 -25.4231 -10.0668 58 77 13
26.0463 7.17717 -14.2419 64 58 10
-13.7841 -23.7007 4.52065 4 0 2
-11.3874 -14.5655 -3.18703 9 12 6
25.9934 -3.18998 -20.8027 79 75 44
33.804 -18.2172 12.5314 84 66 9
9.23283 -17.5532 8.61158 50 32 4
-9.52975 -25.0748 1.19769 31 41 20
9.31488 17.8656 -20.2195 67 48 7
-26.2705 23.1757 27.9827 47 78 89
-8.94692 -18.4198 -6.98391 22 25 4
13.6145 31.766 -14.3373 75 70 28
-1.56357 41.3989 -1.14774 74 67 4
8.33429 11.7938 17.4206 65 63 5
-15.8616 39.4845 -2.56857 59 53 1
28.5886 15.4613 -8.63461 71 60 19
-0.356016 7.87267 11.5068 0 0 0
33.0902 2.09008 -15.1911 67 73 58
31.9356 -26.7231 16.6001 84 104 33
-10.4327 -25.4208 -16.9655 41 63 23
7.37457 34.882 1.72655 80 72 2
-31.1805 -25.6368 2.84668 32 57 26
-15.4768 23.0428 -2.80479 53 49 39
-5.73142 1.96686 -25.9528 51 35 25
11.2129 -25.4117 -26.8988 47 59 29
7.49388 21.7663 -22.3362 86 84 3
-23.802 4.31904 18.0126 77 118 123
28.371 -9.44444 1.40478 72 44 12
25.8261 -16.9473 6.05118 63 42 21
-18.982 39.2497 1.40927 67 67 4
12.2966 18.9315 12.0634 71 71 0
9.19974 -14.831 1.61008 60 34 4
8.64384 26.3976 -21.6321 68 75 62
9.34184 2.73812 7.72087 79 48 14
27.8816 -13.7686 -15.9944 49 28 15
-30.9986 -25.1322 -14.0904 23 70 13
-23.1983 -26.021 13.7671 90 116 51
-19.2155 37.8364 -9.5892 69 59 5
-26.0986 15.8454 26.6614 12 47 16
-17.5921 27.1288 5.71406 82 78 6
-18.5996 -23.9178 4.70513 26 35 8
-15.384 -4.18906 -23.37 80 94 88
-20.5952 32.9352 -13.9877 72 77 36
-5.50908 38.0029 -11.6173 72 67 13
-23.8902 9.01962 15.7339 1 59 21
29.5192 2.43454 -17.0402 80 74 17
-17.5391 13.3004 -30.2313 68 61 9
-16.3912 11.334 -11.0628 50 41 24
12.9254 25.6136 -18.4545 68 67 27
12.7454 0.888077 6.02879 82 75 5
4.11288 -5.19017 -25.2732 65 40 22
23.7251 -17.161 -18.3292 74 47 24
-0.140507 -16.717 10.6372 0 0 1
-8.01238 -10.2428 10.8873 3 2 4
32.8433 -25.9365 -29.2171 13 39 3
-25.9032 -13.2979 18.4974 66 81 78
-8.41479 -22.0337 -13.4535 32 31 4
18.3417 1.01884 -18.3942 76 75 16
-15.6158 27.485 -3.00275 25 20 14
-16.3758 -12.1063 -18.6589 70 42 12
-20.7335 30.8877 5.13391 73 84 73
27.6525 -24.6409 -21.3003 25 35 14
-26.0745 -20.4502 8.65552 45 32 9
16.8087 -23.0164 -21.3155 49 44 32
-12.7792 -10.8684 -0.342598 17 7 2
9.82838 34.2172 -10.7774 88 77 25
-16.107 -11.9157 8.68394 62 44 21
33.4842 -21.0865 9.38927 77 86 78
11.865 44.7635 -7.12345 89 90 64
29.7383 -26.0663 -30.4612 59 75 55
-3.0071 1.92083 -25.9393 54 35 32
15.4266 -24.552 5.74504 50 71 21
6.95042 -10.7819 -24.3384 74 81 74
-9.794 0.0544128 13.3237 75 49 24
-11.6694 34.4794 3.56238 75 71 0
8.60065 -26.452 -26.2837 79 91 71
-24.1267 -22.9795 10.2273 60 50 16
-20.789 25.5507 8.86565 65 76 62
-24.9502 5.52932 13.3581 112 130 119
22.1953 4.96331 -15.78 76 62 21
-16.7351 15.4845 16.2271 82 77 5
-12.4931 29.7173 -16.0053 71 73 18
15.6476 14.3305 -2.28522 77 72 6
26.7678 -21.0347 4.36108 51 54 42
1.92636 39.4562 -10.7526 70 65 10
9.28282 34.9573 2.60138 76 86 31
7.83369 26.8268 -4.29615 3 2 2
-26.1052 13.3829 32.9337 16 35 14
40.0998 -26.3806 -1.65848 66 83 22
-1.56498 -4.93867 -24.8016 47 25 18
-26.1593 15.6753 33.0822 15 42 14
9.44601 11.4028 3.20195 52 34 12
-24.1124 20.8308 13.7098 73 100 98
20.6771 -24.6534 -10.1519 29 35 20
9.1694 -15.3747 -17.8915 62 42 17
16.465 -26.5705 12.8872 85 112 18
10.0204 3.45895 -16.3874 80 67 21
7.48981 23.9612 -20.328 85 81 4
-25.9282 19.2131 39.4369 49 61 60
-7.46324 2.98556 11.3009 54 55 47
-18.2497 24.7567 -18.4556 125 113 10
-1.65029 33.5041 -14.0487 69 66 16
-20.3361 -27.4122 17.527 68 86 75
13.2495 15.5859 -24.7208 77 59 3
-10.0085 27.9771 -17.7874 66 60 16
-19.0886 35.318 1.2721 84 72 7
-19.086 1.51417 -3.55267 69 77 70
-28.5849 -25.1477 -13.7173 33 69 15
1.11339 8.51589 -25.2126 74 49 30
32.439 -2.37027 -17.3733 69 61 0
-24.1225 -25.0676 -24.7252 31 61 23
-14.0408 -21.4275 -17.327 33 40 29
-16.3502 -22.1028 -22.0617 57 41 24
3.48896 32.437 3.47582 74 74 4
-8.40023 -13.467 -22.843 16 7 3
27.4905 -25.9411 0.183307 33 19 1
35.153 -11.5787 -13.6094 62 88 76
-17.3726 29.283 -16.5111 64 65 25
-12.4962 -10.9422 -9.54157 34 19 7
-13.597 -13.0944 -15.7513 39 26 9
9.1821 40.718 -1.718 77 78 52
-0.69908 39.9389 -0.365154 75 72 4
7.88331 5.97567 -23.3844 77 83 81
-3.95411 -3.53243 13.1421 75 50 26
-18.2349 41.437 -9.59721 69 67 22
28.2848 11.2809 -11.4506 73 67 13
3.48919 -14.3456 13.0529 71 51 25
-10.0908 -16.9624 -4.19598 21 25 9
-0.988358 8.17595 11.2967 0 0 0
-13.5705 43.9986 -1.73837 72 64 4
28.3054 -3.73085 -5.50009 55 41 24
33.6994 -15.6626 7.81176 67 10 5
-25.9252 -15.5328 8.1302 55 77 59
-6.27747 13.4167 17.1163 73 70 2
-26.98 -26.0196 13.5304 72 96 28
16.3943 13.0941 -10.4449 78 68 19
-15.7004 -12.0813 11.0723 88 88 77
-16.499 -7.40285 -18.7194 71 42 17
5.80503 18.9061 -24.7516 71 64 16
13.5486 41.6099 -6.60457 55 40 6
-14.8758 24.3568 11.6372 68 78 68
28.3406 -9.80773 2.85467 72 49 24
25.277 4.83195 -15.8456 78 69 6
40.4198 -27.7375 -7.5076 63 81 68
15.8938 -24.9684 6.23752 59 79 20
-23.9776 11.0058 23.6098 71 107 118
-15.6676 -24.962 -18.0143 50 40 20
2.20245 17.8824 -25.7804 70 61 13
-16.0837 31.1462 -4.98875 37 19 5
-28.3992 -24.9927 -27.3172 34 57 20
3.5615 28.9476 -16.0897 69 64 22
11.2801 23.126 9.09795 79 71 1
-10.5364 -16.8137 -12.4984 44 27 3
34.6481 -23.3968 13.196 73 86 77
16.4961 -26.5844 13.7925 84 112 23
-16.5184 26.4548 -19.1299 71 64 12
8.38113 2.03814 -23.4081 76 84 79
-7.01007 -24.5703 -27.6886 27 41 21
28.3665 -9.299 2.65675 77 51 22
33.2284 -23.385 -21.8271 81 98 43
-25.9771 5.7636 43.7463 38 63 64
-11.6491 -4.8303 13.1367 78 51 21
7.20764 27.5638 6.26708 74 65 1
7.3236 15.7243 -27.3486 71 64 19
-20.5956 16.5086 -25.518 81 84 18
-24.0693 14.9911 26.0664 76 94 57
-19.5559 34.8464 -13.2475 71 70 13
-20.5677 -25.2199 -16.0641 57 76 24
33.7276 -15.3126 9.48472 66 17 1
2.41794 -8.59238 13.0534 70 49 27
2.3119 -9.56535 13.0365 74 51 29
12.164 8.01042 1.2307 85 77 15
0.293068 1.24942 -25.2532 70 56 42
-9.99169 -25.4659 -14.0461 43 65 17
28.5182 1.09224 -7.50661 61 43 37
26.9986 -8.41463 -3.6372 28 3 2
1.7262 44.2746 -8.01712 66 58 15
7.83915 -26.8906 12.5327 104 127 37
24.222 13.0701 -10.3511 72 69 17
-14.3116 -6.8576 2.57458 9 8 5
25.7688 -6.19809 -17.8339 62 66 56
-24.491 12.7022 44.7576 57 85 91
-16.0264 21.5909 -1.91623 71 45 12
-24.1862 -7.52192 16.4206 70 57 45
-26.2083 14.3288 37.4085 21 46 32
-16.2718 16.658 -14.0363 51 32 18
-24.1841 -5.04203 13.1703 94 119 117
10.6522 -16.311 0.447594 3 4 4
29.6252 -0.339813 6.73065 74 71 0
-26.1562 23.8535 25.7904 49 80 90
-9.84009 -18.3923 12.8936 55 38 15
-16.7389 34.5065 -11.6071 45 37 21
-17.1902 -25.5528 -1.64956 62 79 17
-13.9004 -11.2493 -15.809 50 38 20
-15.5197 16.5755 11.9568 45 36 11
28.4897 0.837593 -10.1604 57 48 2
26.4303 -18.3203 -16.8262 86 96 76
-16.1023 19.2507 -21.2991 39 21 1
-14.9491 -11.2288 -17.3151 20 23 23
-8.46196 -9.95036 12.1094 87 87 76
-14.6531 -16.774 5.65331 79 93 88
39.8992 -27.1231 14.7047 73 87 74
-25.9197 9.27724 20.1684 45 76 83
-16.5051 0.549637 0.991226 68 41 14
29.3401 10.1 -12.1352 74 67 10
3.19842 -14.336 -25.04 61 40 17
14.0002 42.0126 -2.71011 78 68 14
-20.6848 42.3554 -7.68944 59 63 51
9.24992 24.6052 -21.4384 88 89 7
9.35036 5.10737 -18.386 78 50 23
-24.7882 -1.671 15.0912 158 179 174
-1.56159 40.2375 -10.3533 70 63 14
-24.1473 -16.6984 15.9656 80 103 90
9.23065 24.8215 -9.35264 58 43 30
34.6216 -25.7837 -26.2977 60 88 17
-12.2945 -18.1991 12.9814 60 39 17
9.40165 7.93297 2.01669 72 44 7
7.03137 41.343 -1.81243 79 72 2
9.2887 19.5868 -19.3551 50 28 2
-20.4109 14.847 14.5319 88 80 9
-15.1585 -14.6202 5.56751 84 99 94
-24.4437 19.6995 33.8258 75 95 90
35.2843 -25.3304 -18.4431 64 82 23
9.29573 -10.8566 7.39381 69 41 11
-17.3441 20.2397 12.8844 82 85 6
-8.58851 12.7746 17.6402 78 75 3
27.0192 -21.5723 -1.05751 64 77 64
5.75743 33.0805 2.92016 73 73 4
12.6422 11.4969 15.1063 76 73 0
37.4195 -26.4795 7.09972 84 93 18
24.9736 2.4041 -17.5129 78 74 5
-26.1706 18.8274 20.3348 18 50 27
-23.4225 -25.9986 10.9985 96 120 56
19.688 16.454 -8.0531 67 60 21
-16.2211 26.1481 -11.3571 44 19 6
-23.9613 12.7121 21.293 68 105 97
9.31249 20.3541 -20.7323 46 26 4
9.42974 14.9841 -12.2933 62 40 19
31.306 -25.8507 -30.8001 52 60 50
-1.81708 12.1716 -30.0923 71 74 21
24.2796 6.92239 -14.4232 70 66 13
-20.8488 13.083 16.5502 47 57 48
-15.7446 -7.75214 11.1055 87 88 76
-4.57724 -2.9262 -25.222 68 43 25
9.13507 -10.1664 -21.3014 73 46 19
-4.47787 32.1979 4.28671 74 72 0
-18.2267 32.9342 5.00881 80 70 0
-13.475 -8.56229 -2.85515 15 10 3
-24.0714 10.1843 30.8559 59 92 97
9.235 -12.2185 -15.6507 65 37 13
24.8347 -24.2338 -25.7572 47 47 19
35.9041 -26.2862 -0.664462 66 80 6
22.693 -8.25695 -17.8529 70 40 22
-10.8203 44.3578 -2.11196 74 68 1
-12.8634 -11.0492 1.41318 22 0 0
-0.714922 23.7823 -21.0432 69 66 15
-31.5218 -25.9966 -10.4321 67 82 73
-9.33869 36.6178 -12.4013 72 67 18
-18.8318 22.791 8.75964 94 89 6
-25.9071 -14.8178 8.50551 56 76 62
-25.1665 22.0966 12.0775 70 93 82
17.7127 -20.6602 -13.733 1 2 0
-8.58845 -11.8408 -23.0712 13 2 3
35.0897 -13.3358 3.41355 74 88 75
-19.8732 -23.3953 3.17305 8 8 11
6.43194 33.3456 -13.9468 73 69 17
-16.4156 -20.2451 -18.5324 52 36 17
-16.3055 15.5235 3.61502 46 29 15
26.636 -20.4632 -11.0345 59 54 33
-13.4274 -26.3463 17.001 87 114 48
-18.9616 27.2422 -18.4541 69 63 22
-8.01905 -14.9375 10.8813 8 6 6
9.18496 28.2749 -9.58626 69 56 3
-29.961 -25.3192 -4.96643 29 64 21
28.081 -24.6109 -21.4892 30 43 18
24.6263 -2.88767 -20.8821 80 75 29
-10.7366 -16.3671 12.9801 58 42 19
3.27462 -26.6289 -30.0867 48 68 50
1.70669 -10.3877 12.993 59 48 29
-14.9318 28.9919 -16.8879 64 55 14
9.36751 9.81149 8.79661 65 63 29
37.4621 -26.1584 -7.73337 65 80 6
-25.8479 -7.3897 12.6611 57 78 78
-13.5388 20.1233 -24.4588 75 70 12
-14.7192 34.9553 -14.9961 107 109 41
6.8238 -24.1118 12.7121 57 39 23
-16.8234 31.7003 -15.0536 73 74 17
-20.7325 32.8327 3.25034 62 68 56
-20.6592 44.4799 -6.49914 70 80 70
4.81589 24.0945 -20.4574 68 70 2
5.25964 -27.5056 -30.1907 48 71 53
1.37197 -22.3692 -24.2678 61 72 68
27.886 -12.3087 -15.2471 56 33 7
26.8263 0.0446472 6.494 74 73 0
0.736462 32.2056 3.85651 71 73 0
-22.8255 -25.4714 -1.76426 63 81 29
-14.6537 -11.6598 11.4348 84 94 85
9.05677 26.3553 -2.60093 54 47 39
6.85461 -5.53239 -25.0113 80 76 66
-16.1132 -9.34052 9.46701 57 30 11
7.90457 44.2091 -3.45359 83 77 11
25.5181 10.8226 -0.136276 71 69 6
-10.3254 21.9033 -22.9336 68 69 14
-12.2846 -11.5857 -5.66764 33 13 5
24.4103 -0.532722 -19.4749 76 73 24
29.5951 3.45602 4.18463 79 74 1
-28.0786 -25.2826 -7.32593 24 65 20
28.8237 11.0655 -0.314293 72 70 6
-16.1508 19.9264 6.65452 49 32 9
-14.8879 45.8113 -3.25375 80 80 42
-16.4302 8.96935 2.87483 72 49 22
-13.465 35.5819 2.89222 75 70 2
9.29735 -10.2639 8.02888 69 42 11
-17.8251 22.5247 -20.6867 123 111 11
-13.3635 -19.2089 -16.6651 59 72 68
8.20768 30.3863 4.04184 74 74 1
9.42583 16.489 -7.94358 52 30 26
5.71598 5.31725 -25.2624 68 42 23
21.466 -10.8352 5.53175 68 42 19
27.1573 10.294 -12.1066 71 71 16
1.86713 42.3634 -1.95829 78 77 6
13.8867 -24.1954 4.8222 65 85 9
-14.4573 -11.6787 12.2398 68 71 62
39.5013 -26.2949 -7.35901 63 75 2
11.0198 22.8114 6.64248 26 3 28
-24.1904 12.0806 33.7768 69 90 77
-17.9653 11.6219 -29.5497 79 65 22
-8.30396 -19.9415 -9.62618 24 25 14
14.6698 -0.514893 -19.3194 74 65 16
-16.447 8.17025 3.47856 67 45 15
-1.81376 12.9897 -29.8045 71 69 11
4.33376 4.80444 -25.2802 69 50 29
-16.5474 -6.83723 -20.3481 72 44 18
-3.54638 17.4873 14.1817 72 62 2
-7.06386 25.8305 -19.5873 67 58 21
1.0879 33.3658 3.20848 71 73 0
-16.327 14.134 0.543365 58 38 22
9.19607 28.9509 0.111076 50 27 9
28.3547 -9.93594 1.59723 72 44 15
26.0542 -26.3867 5.46539 57 50 35
18.7502 -20.3202 4.65607 2 7 2
-5.68093 -0.532078 13.1559 72 45 20
20.425 -7.58803 5.41068 70 45 21
3.13888 -8.46384 13.1076 66 45 19
-29.316 -26.567 16.5943 69 89 76
-11.3039 -10.3182 -24.9299 68 44 21
25.4942 -20.0756 -18.2197 64 66 51
-25.9238 9.8821 20.0102 46 74 79
-25.9363 -25.1465 12.8961 55 77 28
-20.5234 20.7918 -23.9425 67 71 23
-3.83429 -10.9863 10.8939 0 0 0
-24.3062 20.3658 29.6447 38 67 54
33.6979 -19.395 11.2332 78 82 50
-20.6388 44.762 -2.62953 76 89 80
-15.1042 28.4346 7.01601 80 66 0
29.9053 14.5957 -9.19458 73 72 22
4.9192 28.0203 -17.0545 61 59 19
-24.0894 17.139 22.677 90 124 127
-25.965 -22.4643 14.2182 58 78 50
34.1069 -26.0429 -9.64767 64 76 3
-9.35573 41.3913 -0.515518 73 69 3
-19.5279 14.0114 17.3589 87 76 7
-16.1558 16.2925 8.75002 46 30 16
-10.4171 17.4832 -26.5801 68 63 16
33.6894 -18.6332 5.05466 63 77 61
18.6855 0.592354 -18.6746 77 69 18
-11.721 32.7786 4.5614 75 77 0
-17.7368 26.4449 6.22144 87 73 4
-16.1715 18.9984 7.42817 64 40 1
-1.62191 4.70548 10.6114 24 20 11
40.4396 -26.7611 -6.57038 65 82 62
-15.934 17.0952 -21.769 50 36 13
-0.160086 21.6927 11.0237 73 72 2
-9.04396 35.2386 -13.1754 70 69 14
-24.5245 14.068 45.4158 29 47 32
35.5407 -18.4058 2.425 82 89 71
-15.129 39.8167 -13.1399 67 79 70
7.58725 20.8596 -24.3014 95 94 4
-9.40983 -2.02593 -25.2238 69 47 31
-24.0701 16.1689 15.0933 75 111 96
-14.8671 -25.3011 -28.7535 50 70 31
9.97969 30.5364 1.50741 22 8 1
-26.1068 -18.7099 12.2919 47 39 16
9.32882 18.3346 -18.8474 71 50 2
-13.7447 44.5473 -5.72948 87 100 92
-20.3922 15.2207 16.5254 87 88 47
12.969 44.0888 -7.92462 66 62 10
-26.1752 16.254 35.6422 16 33 16
23.6776 -16.5514 5.89494 69 48 25
-17.7131 41.5676 -9.52891 69 72 24
-23.939 10.2206 22.0492 74 112 116
17.3566 -22.6041 -17.6007 26 30 18
-24.0781 18.7483 22.2406 71 104 80
-6.54018 44.9961 -6.64933 77 91 84
27.5702 -26.7432 4.70601 81 104 41
-3.92758 32.7827 3.93316 74 62 2
-25.9341 -15.9475 16.5915 61 80 73
27.8431 -16.883 -15.5423 63 40 19
-16.634 2.69738 -15.7739 69 43 18
3.66082 6.89828 13.2201 69 44 20
-2.30286 16.6571 -26.9621 70 67 14
-19.3142 20.8381 10.1422 93 89 2
20.688 1.03832 -18.4208 76 71 21
-15.9553 27.7502 -2.26455 62 53 36
9.1865 -2.05066 -22.8016 71 48 27
20.789 0.514694 6.27468 73 69 0
9.00983 44.7618 -7.25595 77 81 62
-4.94067 25.6531 -19.664 69 58 13
-16.1882 19.264 -9.07736 67 37 3
9.24231 -15.1179 3.41308 57 35 5
-15.6628 22.6061 -3.04678 46 33 19
-10.0209 40.5136 0.0184937 69 59 0
3.80705 23.8392 -20.7352 70 62 14
16.9396 -0.727882 -19.5041 76 68 17
33.2915 6.91404 0.212366 69 79 67
-5.60894 45.1214 -3.11858 77 72 9
6.44243 2.09924 -25.2967 71 45 30
-16.4477 3.90145 -7.22981 73 41 8
-14.8587 -6.00144 2.75773 9 3 2
3.14132 -9.89594 13.0928 67 48 21
-15.6539 3.81349 11.2135 83 92 83
-2.94694 36.7649 -12.302 70 65 9
20.6725 -28.0837 17.4197 67 82 76
13.71 -26.5455 11.8133 89 110 33
25.095 -15.7194 6.05024 71 50 23
-17.7998 -25.525 -2.83633 61 80 11
-16.6131 -4.03043 -10.8377 74 47 19
-26.1091 17.315 19.4805 50 75 76
9.30933 25.7925 8.88745 90 90 4
-16.521 0.34547 5.12336 64 34 6
-12.5748 7.28137 -25.0493 70 45 25
-12.4951 12.8242 -28.0671 93 69 7
-10.8718 13.5029 17.2738 78 75 2
-3.03669 4.0413 -25.1605 70 43 26
-17.5201 35.0484 1.48085 81 79 3
0.171244 28.2244 -17.1289 64 63 16
-1.25707 31.486 4.38111 74 69 2
34.6453 -21.0352 -22.3157 72 88 80
6.50065 -21.2945 12.8769 53 35 21
-14.3842 -14.9001 -16.9564 62 70 65
-26.175 9.40018 42.6789 19 47 29
9.03357 -16.0631 -23.1059 57 43 29
-17.9577 -24.0133 3.53458 14 26 7
-25.8098 2.9659 24.5526 55 73 77
24.4363 13.9689 -2.05084 77 71 9
17.1459 6.5566 2.37791 75 65 2
14.5639 -0.865177 -19.5508 72 74 17
-24.3719 23.5859 25.9523 47 80 64
11.5481 -24.2372 3.32103 71 87 30
-5.30565 41.0123 -0.622009 72 73 3
10.6803 23.5628 6.22853 18 4 29
9.43457 6.78479 6.21798 77 46 11
34.3752 -10.7428 -13.1897 76 95 86
-16.4647 9.57203 -4.79912 71 67 24
-13.2948 -9.41172 1.18883 20 9 0
28.267 4.28408 -17.5849 82 85 3
23.9547 -10.1756 -18.2416 75 46 21
-12.8302 12.9458 17.7288 79 74 4
-16.1136 35.7815 -5.17546 55 41 2
0.288342 23.217 -21.4679 71 67 16
-17.8659 26.0869 -17.3491 103 83 12
19.332 10.9734 -11.8085 74 69 17
5.60954 -11.21 13.1413 69 45 23
-9.22856 11.3975 -25.7756 51 44 20
7.06746 39.4711 -0.819595 85 69 0
-12.581 -27.5252 17.3673 52 73 62
9.38225 16.709 -17.8705 53 36 12
28.1542 -13.127 0.649769 69 41 11
-31.2144 -26.9697 8.70381 60 78 61
-24.4708 -25.0664 -22.2154 29 60 22
30.7786 0.405067 6.21922 75 74 0
-25.8543 5.5791 21.2699 48 75 79
9.03028 26.2913 8.44855 88 93 31
-16.1134 -21.3169 9.80273 35 22 3
13.0183 -2.77045 8.21529 80 69 1
7.91799 27.0395 -6.07553 4 3 3
7.19036 -0.0594711 13.2294 65 40 19
17.2423 5.09139 -15.5825 78 68 19
18.3951 -23.4805 -18.3133 36 40 29
5.56173 37.1794 0.661007 78 74 0
13.451 35.4755 -10.1135 107 89 26
8.28464 20.7698 -24.8228 81 85 54
-16.1641 14.0065 17.2282 84 82 6
4.55941 40.4093 -1.04826 77 65 5
-9.45426 4.48388 13.3091 77 65 36
-23.7842 4.1818 14.6897 74 110 111
-23.9915 6.40112 30.5854 65 97 103
-12.2574 -12.8908 0.407455 16 10 7
-16.1186 23.1865 -10.8719 65 38 5
-24.1301 -10.4909 16.4792 68 60 46
-14.2439 37.9469 -12.52 104 104 16
-1.20186 13.9033 -29.0971 71 65 8
36.8024 -25.8125 -24.7728 76 97 31
17.2991 -26.5231 11.6048 93 117 24
1.36211 21.4596 11.0709 73 68 3
4.32356 -17.8088 -25.0067 47 32 14
-15.4023 -8.84756 11.0754 89 99 89
11.3624 30.801 -12.7529 97 79 7
-24.1122 -21.3984 12.0828 73 90 57
-12.0496 40.9812 -9.98434 70 64 11
12.2059 12.2702 -29.7438 66 58 16
9.17139 -17.8652 3.6691 42 28 3
9.30543 23.7733 1.27208 54 24 4
-24.6781 3.94239 35.3177 49 64 61
-16.34 13.5089 -15.1652 57 39 23
16.7412 -22.8218 -19.2659 47 47 42
25.4462 5.66319 -15.2873 81 71 8
-16.9975 32.6343 -14.5239 71 72 18
-16.6477 -3.78124 -13.9534 72 46 16
26.0901 2.32707 5.01904 77 73 0
-25.9179 -9.45584 12.7664 54 76 76
-24.0775 5.20011 34.3086 87 117 121
22.1682 0.0686264 6.54451 72 74 0
-5.49688 40.2545 -10.3694 71 66 17
-16.436 -2.74068 3.24394 69 42 18
33.9527 -25.8118 -13.3178 64 77 59
9.44886 9.54832 0.963924 66 64 26
-9.59057 -25.4136 -18.3805 27 27 10
-15.2203 12.092 -23.485 70 83 74
-2.58825 24.0278 -20.9115 64 65 16
-26.7683 -25.3858 -3.71716 29 63 26
8.85771 26.7269 -9.09895 60 62 50
30.8327 -26.5915 13.7957 84 99 32
32.215 3.30867 4.34951 70 64 6
-1.60359 24.783 8.95499 72 68 2
27.814 -16.0233 -13.4914 70 41 17
-16.5311 1.75326 4.81411 64 35 12
-26.0014 11.0232 23.8251 50 74 82
16.0861 13.4109 -10.2537 76 68 18
9.18437 -18.8487 10.8026 51 37 19
12.1932 17.9576 -25.2867 73 61 19
13.6027 20.9175 -22.6007 73 72 19
-24.4083 17.3231 38.106 56 77 69
-23.8519 4.75138 21.3429 75 112 115
26.0537 -16.368 5.35521 71 78 70
3.90983 -20.4994 -25.0136 46 29 15
8.93698 14.1614 13.2696 71 64 3
-24.2926 12.0437 37.4611 50 85 84
0.0107861 40.8948 -9.9968 70 64 12
9.17501 17.6291 -22.2125 44 26 10
-16.045 23.0124 -22.6331 79 78 2
14.0054 13.7776 -27.4562 64 70 58
13.8899 34.2781 -11.4193 69 73 69
-24.253 17.637 31.1489 58 80 74
13.888 28.7138 3.88242 77 92 71
33.1947 15.3094 -8.44024 76 65 21
-28.9167 -25.3821 -2.71452 32 66 24
29.7231 -25.7539 -26.3506 59 69 19
-9.36876 9.08728 13.3356 76 65 37
19.8232 -3.06752 -20.6535 75 66 31
12.9487 26.2232 -17.8653 71 60 28
-11.1439 -15.838 -12.756 45 27 3
-0.668406 40.385 -0.619495 73 74 4
9.39963 15.7528 -9.11719 51 31 15
-3.69829 30.6735 -15.5656 70 70 21
-9.31673 -9.02332 -24.7567 70 53 26
-24.5086 -2.07146 24.5097 69 84 82
6.35937 5.23407 -25.2255 69 46 27
1.46915 -9.16048 -25.0122 74 53 34
30.2149 -1.81417 5.32404 31 10 24
-27.7447 -26.3639 -29.4816 59 84 63
16.4835 10.541 0.00237274 73 70 3
-9.61647 21.5746 -23.1861 66 67 14
9.929 14.0642 -26.0423 68 58 0
27.1005 -24.3193 -23.7013 35 37 18
-26.1879 21.3858 22.0557 23 43 31
-24.1057 13.9392 27.9089 42 59 37
27.6701 8.43871 2.48949 80 86 40
-18.2565 30.8872 3.85997 82 68 4
-24.4585 5.26191 46.6118 42 68 65
7.53926 24.6012 -20.6073 95 96 2
-24.148 13.8849 31.2017 62 92 73
-5.3738 27.1669 -18.37 64 56 13
-7.56404 -27.4454 -30.0313 48 72 46
28.6312 10.6691 -11.8331 74 69 13
27.2314 -7.1735 -16.6749 81 86 68
-8.83363 5.54372 13.1687 70 72 42
-19.2756 -25.556 -0.413876 57 75 29
-31.5198 -26.3744 -9.03586 71 85 78
-13.5175 -25.3095 -27.7647 52 69 28
-17.5587 37.8427 2.07998 72 69 1
9.30221 1.61424 11.3427 76 74 68
-25.5456 -25.1693 -14.4756 44 74 28
31.5434 7.70546 -13.3107 73 72 15
35.4526 -19.5767 2.1953 78 73 25
8.19232 -28.506 17.8336 53 69 56
-31.2139 -25.0407 -25.3413 29 61 34
-16.6199 -3.92353 -11.7046 78 56 28
-10.8018 -26.353 16.95 86 115 42
-16.0591 21.1536 -10.8984 67 38 6
-15.2945 43.9856 -8.14973 70 65 18
11.8923 41.9442 -2.45295 79 72 10
-15.9938 25.5995 -1.96264 53 34 13
-16.5593 4.42353 -15.5995 67 41 19
2.13241 32.2224 3.71351 73 66 1
-25.8619 3.45469 47.2691 45 66 65
-19.5974 23.5536 -19.3223 99 89 8
-1.22774 4.29344 10.5994 24 21 12
2.10371 39.7046 -0.447849 75 76 3
1.75992 2.98144 12.6295 40 42 30
-15.3426 30.4322 5.74253 83 81 28
-6.81177 37.69 1.41517 73 69 2
-16.4718 5.85152 -10.4332 69 41 9
-4.9337 -23.0442 -26.0449 30 38 13
17.6799 -24.2934 -27.4904 41 46 20
36.0479 -26.6754 15.8017 71 95 39
-16.2205 -4.87171 5.94325 68 41 11
13.9689 27.3369 -16.033 75 73 62
26.0475 -24.4278 -17.0157 74 87 73
13.405 3.33438 4.45704 80 71 3
5.79075 44.8609 -4.58859 86 93 75
-15.5388 -16.8348 5.5428 70 78 72
-9.31871 13.5103 -29.7212 68 67 5
27.8968 1.72339 -18.4463 80 82 47
-12.1464 11.1743 17.3927 69 78 68
23.8938 -8.84345 -18.1707 75 46 22
10.1993 28.6628 5.13662 65 57 0
20.2313 12.0469 -0.847397 73 68 7
10.9682 44.691 -4.84897 84 90 78
-16.027 24.1001 -22.5337 78 82 0
-0.511257 22.8064 10.2645 72 74 3
13.055 23.9798 8.43124 76 65 3
-8.21632 43.438 -8.55798 69 60 15
26.9623 -25.6559 -27.897 43 60 14
12.3315 16.4829 -26.5287 71 59 25
-20.6087 41.5612 -1.80042 72 77 65
10.2781 -25.7455 -25.7031 58 74 40
7.20295 -26.3116 -26.386 62 68 52
16.4504 15.737 -8.64202 72 60 20
-15.5146 -22.0302 -17.435 76 94 84
39.3366 -26.6532 10.0448 77 92 5
-12.0237 -25.5072 -9.32536 48 70 26
28.2809 -10.9796 -0.112876 74 48 21
9.14198 -10.8363 -21.7542 69 43 14
1.39112 28.2278 -17.0471 64 56 12
-11.2648 -15.013 -12.2024 41 22 3
8.84911 42.811 -8.8 73 63 15
10.0743 -26.7768 17.1365 79 100 41
26.4373 6.71445 -14.8189 86 82 10
-3.12252 29.6316 5.15774 75 80 46
26.8825 -26.6138 15.4707 94 112 22
9.36877 4.60271 8.59868 79 50 17
-20.7771 17.3671 -26.5692 62 70 47
1.30065 -19.1898 -24.7615 60 68 61
13.7373 26.2957 -17.6519 64 61 32
14.6653 -7.57523 -15.8321 61 32 20
-7.88524 2.30504 12.307 72 79 69
9.3544 -8.67881 5.12393 74 42 5
8.44088 -22.871 -23.7904 65 75 70
-18.7014 -25.5066 -2.82359 60 80 20
-25.487 19.3846 38.6611 48 59 53
9.34782 20.4166 -4.052 72 44 1
-8.3224 33.1417 4.08399 75 73 1
17.0646 0.857441 6.05247 75 70 0
30.6276 -26.4356 6.28879 62 66 44
-9.0882 -20.1843 -1.94289 15 21 4
-11.2646 13.0994 17.5608 77 75 3
-15.7959 30.6854 -6.54776 76 69 67
-16.4321 9.24227 5.60125 67 53 15
7.88169 -17.0641 -23.6471 69 82 76
13.2244 33.5968 -11.1009 97 85 14
-26.0979 12.3764 29.4835 55 50 11
10.6025 -26.6387 10.0382 136 154 72
9.34245 15.0214 -10.0031 53 35 17
28.8871 -3.08804 8.4292 69 66 2
-17.8887 15.0701 -28.8521 66 58 11
-16.1397 19.4775 -18.1061 59 33 0
-0.840942 -5.57215 -24.1716 11 0 5
-26.0974 19.7661 17.7857 53 79 85
28.3906 -3.03548 -2.50412 71 59 14
19.9375 -26.6473 8.26335 81 101 29
11.5542 41.1408 -9.6399 66 66 7
12.6524 41.1694 -5.31043 87 74 18
-24.0846 9.41961 31.2996 61 94 95
-7.26567 -26.5466 17.3926 66 89 47
9.36235 17.8359 13.0456 73 68 1
33.4319 -25.7644 -28.909 19 46 12
-15.4565 17.1888 11.8555 40 36 11
11.435 -15.0406 -1.1598 20 17 15
13.9676 -20.4815 -13.5435 39 31 26
-9.38744 -10.8022 13.0016 72 45 17
22.4074 15.9326 -3.27423 82 79 13
-7.74046 -23.6041 -11.05 30 36 10
7.47901 38.7601 -10.9638 79 74 0
6.026 -16.1102 13.0511 53 43 29
-11.7602 -2.19482 13.2481 78 49 24
-13.2658 -9.41537 -0.17836 15 9 1
6.01125 7.02835 -25.2087 68 41 24
8.26153 25.8475 -22.199 69 71 63
-25.8939 19.729 14.0606 57 80 84
9.56046 -24.8346 -14.9129 1 1 17
24.4981 -6.53331 -18.2638 72 41 22
9.12439 13.303 -22.7097 42 23 8
15.572 -23.3929 -24.2959 38 41 20
19.8077 -24.5172 -19.8707 49 50 24
-18.4791 16.9476 -24.9063 89 92 8
31.9051 -1.89149 -19.2854 77 84 31
9.19192 -11.9393 10.8666 71 50 30
6.12435 18.4617 12.8206 74 65 1
-3.61565 38.3323 0.789055 70 71 0
-25.8945 17.6379 42.7288 72 85 80
-18.1839 11.9442 -29.2707 90 74 11
-25.8636 -25.2426 0.920761 52 68 22
-25.7752 -6.46087 20.484 64 84 85
-25.9139 -16.397 16.9941 64 82 75
8.71104 15.2133 15.0603 70 65 4
27.6712 -26.4423 7.03552 78 95 39
-0.323097 14.3399 16.1687 69 58 4
-18.7128 11.9036 -29.3602 93 78 7
-9.90249 26.0135 -19.5059 71 61 10
-10.4289 -25.5925 -6.45507 42 66 15
8.98388 29.8194 -8.47596 50 41 14
9.0736 44.8401 -4.09592 87 76 12
-17.6197 36.5453 -12.3251 76 72 2
-16.4935 4.76475 -20.7099 78 52 27
-15.4387 -25.5197 -5.36347 54 75 26
32.8443 16.7973 -7.10743 83 93 80
-30.2261 -25.1814 -12.8781 33 71 12
-14.845 28.4908 -17.4494 67 60 15
-20.0201 22.1478 -22.8018 67 70 13
-19.3085 39.2579 -1.05462 73 56 8
31.2722 -26.4619 6.82797 61 65 25
7.57801 -1.69958 11.5328 86 103 96
35.7398 -15.0431 4.5344 82 37 9
-25.8513 -18.9599 16.8386 63 80 71
-18.6334 31.4382 -13.1996 123 123 26
-9.35732 2.57305 13.3335 76 71 40
2.00835 44.5658 -5.2979 79 91 85
-15.7662 26.1957 -15.7575 21 7 1
-25.4218 6.06167 13.2878 55 74 60
-10.2542 35.8625 -12.82 69 63 15
9.32831 20.4065 -19.0308 46 24 4
9.21333 35.7425 -13.6113 86 89 7
22.0187 3.47775 -16.7927 73 66 20
-16.1173 -7.75363 9.77049 60 39 16
20.4923 13.7867 -9.9263 72 67 18
18.9088 -2.27037 7.96478 71 66 0
8.60784 7.78373 -23.3424 78 88 80
-8.73022 -21.8138 -14.3015 32 31 4
9.33643 21.1057 -8.65584 73 42 8
-24.1759 13.3547 33.0089 26 49 34
15.743 16.292 -3.5397 83 72 7
5.72265 34.4502 -13.365 75 73 11
-22.827 -25.0774 -26.6332 26 59 30
-16.4575 -2.43143 -6.29509 74 47 17
-16.1419 18.5992 14.0137 83 79 1
-25.0152 13.6106 48.4402 74 91 84
-17.4769 39.3843 -8.85992 27 26 14
13.9619 35.0916 -11.4188 72 78 70
9.31832 1.38539 7.71811 79 50 20
-16.0436 21.8763 1.61315 69 40 6
8.69989 26.2585 7.67817 84 88 66
-20.6068 26.0775 -18.2524 64 75 64
-26.1387 12.269 33.9659 18 33 18
-13.9197 16.753 -27.3346 68 58 14
9.24991 36.0082 -14.3571 86 92 1
-10.5253 -15.7783 -5.80202 21 19 7
17.3858 -10.9034 -16.2335 46 26 25
35.3398 -23.4098 -16.8455 62 82 38
25.8451 16.3962 -6.10618 90 103 93
4.42088 6.29101 -25.2565 70 41 23
-26.0411 13.3172 20.7048 34 64 60
9.41166 9.64875 5.43402 76 79 37
27.7791 -19.9003 -15.5738 48 33 15
-19.9193 -25.1946 -21.5736 38 68 32
-26.198 16.538 34.8952 14 30 19
33.2179 3.38678 -15.1237 67 75 60
8.27508 13.7258 -26.3336 60 48 2
-16.3919 11.8749 4.48465 54 43 15
19.94 0.304935 6.40594 74 72 0
35.4288 -20.7558 9.95 86 96 72
-19.7067 18.0252 -26.4462 66 70 12
15.6739 -18.2502 2.71913 80 93 84
-20.1145 -25.9398 14.075 79 106 48
22.8388 -23.7963 -25.3863 50 53 25
32.5159 3.61267 -13.7069 87 71 15
33.646 -14.337 2.65009 48 52 57
4.16497 -26.6179 15.5597 93 114 19
-12.626 -11.5122 0.194426 17 6 1
-13.1357 -24.2359 12.7725 55 43 18
-16.4004 10.5503 7.31976 45 32 16
-10.5586 9.03599 13.3682 77 50 25
33.7379 -26.0416 -10.9726 63 74 8
9.23966 -18.7668 6.64503 46 31 5
25.6799 -6.97792 -18.0789 68 64 55
16.5622 9.47965 0.614845 76 67 11
6.94235 2.40472 -23.9585 76 86 81
-26.1026 12.6429 33.1968 14 31 9
8.39593 -19.8684 11.0547 70 84 76
-8.49845 -15.5078 12.6094 87 76 55
22.6021 4.54247 3.7165 74 64 0
-10.7198 -25.7319 -0.458199 60 74 20
-10.7969 -25.1257 -24.9187 45 37 21
-4.188 -19.8101 -22.7259 2 0 0
-26.0957 8.27536 42.0246 36 64 63
33.3329 7.4602 -11.7217 69 77 59
5.81555 -17.3846 13.0244 54 41 30
33.9589 -16.4819 10.2037 86 18 3
-24.5224 25.4497 16.1564 64 93 99
22.9733 0.924183 -18.4975 77 74 22
-9.10372 -24.3792 12.6849 58 41 20
-17.1195 -24.8311 5.21557 31 38 18
-16.2338 31.9097 -14.951 75 65 13
-3.57212 -26.2253 10.5222 74 91 35
0.250557 36.9388 1.27536 71 64 0
-11.9217 13.3815 17.3946 77 73 1
25.9456 -19.0152 -10.8678 71 63 27
1.835 -27.4874 17.5688 57 74 60
-16.1298 17.4725 -17.5376 60 38 0
10.5267 12.6404 -1.62756 48 38 2
32.4742 -25.9791 -23.2005 65 77 40
-14.2388 -6.82716 -15.0651 57 31 6
-26.1096 18.3506 19.4233 26 56 40
-26.1368 24.455 28.5273 58 67 65
2.8398 44.7512 -4.84426 80 94 87
-0.305283 -27.5323 17.5321 56 68 64
12.8725 -3.27124 8.18638 78 69 21
-31.3014 -26.3701 -4.65808 68 81 74
31.7294 1.0769 2.92925 10 3 14
-9.70704 26.1072 8.4943 74 67 0
7.71114 17.2259 -26.0747 70 65 17
27.351 7.97458 3.08735 70 80 74
8.9967 37.0636 -14.5666 82 88 60
24.0179 -12.0084 -18.2899 75 46 23
-3.34978 43.3464 -8.62509 70 64 9
-12.9739 -9.95885 -11.1375 34 18 8
9.2486 -13.9009 7.99771 65 40 6
-16.1043 -25.266 8.16358 23 23 4
-15.5543 40.6941 -10.3387 81 79 20
15.4653 1.78819 -17.8019 74 74 16
27.7769 -15.3934 -12.5525 75 54 10
-26.1208 13.7905 34.7061 19 42 19
11.6939 12.0181 14.6971 77 69 0
-8.87248 -25.683 -4.22083 49 68 27
8.85816 -19.3948 -23.4371 57 48 40
7.71678 3.96127 11.5605 91 106 99
-25.9966 -12.2266 16.2101 60 79 77
-9.74774 28.5918 -17.2069 62 57 14
-15.2523 -15.8329 5.58073 76 94 86
-31.3289 -27.384 -4.68008 53 74 49
32.2552 0.896416 5.86044 70 71 6
-18.7724 38.087 2.02641 71 71 0
9.20222 -4.38042 -20.2652 63 38 16
0.307243 -26.5646 13.1231 70 89 37
23.2826 16.931 -4.71399 87 90 74
27.8806 -12.2215 -13.6905 70 37 6
35.3018 -23.9437 -15.44 67 83 33
9.35286 22.2946 2.1221 71 41 2
-0.451183 12.2293 -30.0866 76 72 22
1.5707 -4.0489 -25.2843 68 46 25
-16.3363 -11.4817 -18.0496 70 45 20
28.2939 -11.3603 1.76469 70 42 12
-27.3545 -25.0285 -21.665 30 65 21
-1.5067 -10.0511 11.8981 0 1 1
-16.3135 14.7295 6.19086 54 34 17
38.0773 -26.3728 1.64116 70 80 12
-23.8838 -2.74038 21.7755 77 111 114
35.1533 -13.7121 -21.4012 73 75 53
9.15832 -15.7332 -19.6101 55 38 14
-14.6875 8.59678 -24.5908 82 88 75
-11.3264 14.3484 -29.1644 67 63 9
-16.3807 11.4585 7.0787 45 25 15
-1.00573 -22.513 9.77389 2 2 2
-24.5374 18.5004 40.4481 65 82 81
12.117 33.5313 -13.4932 71 70 5
-17.0118 38.405 1.70662 71 66 2
30.6801 16.8396 -4.30419 87 83 25
-10.6658 -25.6518 -4.55386 52 73 14
-1.85383 14.825 -28.4411 67 62 9
29.4749 -1.95268 7.7637 73 66 0
24.5616 -8.07797 -18.3206 74 42 21
-30.8403 -25.6955 6.47599 44 75 26
-11.6496 7.74051 13.3702 74 48 23
-16.3361 -21.2776 -18.1853 55 35 18
29.3576 -25.4568 -25.7192 48 53 20
-24.1208 -13.9668 16.2972 76 105 99
7.45751 -22.9821 -23.797 66 80 76
-10.0913 44.0969 -8.14088 69 59 14
-19.7137 44.3855 -7.86934 68 61 12
22.4437 15.1505 -2.77314 80 77 11
22.0674 -15.4897 5.61508 68 46 21
7.89584 14.3456 15.7199 67 68 3
40.126 -26.3631 -6.95408 56 71 11
28.284 -10.4625 -0.50681 78 64 7
-14.6199 -17.91 11.4801 72 86 76
-14.8089 -26.2416 15.1737 90 113 50
34.4132 -6.91139 -17.4579 79 94 86
-3.78938 18.3706 -25.6333 67 60 12
19.9378 0.670731 -18.6438 77 69 19
28.3114 -11.147 0.928145 72 41 12
-20.3334 34.2656 4.36092 73 69 10
30.8286 1.41813 2.84354 17 3 22
-25.8129 2.81785 26.2955 52 73 76
-4.1473 -3.74574 -25.2273 72 47 28
14.8171 -17.1362 2.11194 76 89 79
16.7407 -23.7032 -26.1139 43 47 28
25.808 -21.5278 -17.2089 79 88 75
-25.9904 13.7986 19.1642 12 45 15
-10.5677 -18.8295 -24.9499 50 38 19
35.2118 -14.2618 -20.8769 65 49 33
10.6125 13.1507 13.9051 71 60 5
