ply
format ascii 1.0
comment Created by Open3D
element vertex 1375
property double x
property double y
property double z
property uchar red
property uchar green
property uchar blue
end_header
-66.7477 -18.7384 -6.61361 140 95 43
-13.3855 -8.65843 -8.61174 122 116 63
73.6151 13.6382 -6.19323 159 123 60
-53.2266 14.0111 1.56301 98 68 37
18.298 14.091 -10.4875 63 52 35
27.793 -18.489 7.28442 175 158 72
76.1124 17.771 -0.0317268 58 41 23
-40.0157 -14.4273 -9.31785 104 101 64
8.30763 -32.9372 -19.7656 93 63 30
33.7843 23.8423 5.32781 61 39 18
-16.6298 4.01474 -13.2066 141 113 52
21.3322 -22.7693 12.8081 53 40 16
32.0443 22.6825 8.44963 47 34 19
-27.0728 -30.8176 13.6525 32 25 17
61.6202 24.1742 -8.84224 123 75 32
58.8374 20.0738 11.9348 20 18 14
-52.4646 9.25745 -0.353233 155 112 46
-38.9905 19.7125 -7.61772 100 65 32
-5.80403 21.8604 -9.27773 49 40 30
-17.2979 22.222 11.034 40 28 17
31.4527 -23.0077 8.4468 202 177 104
-29.4853 22.3883 10.147 62 39 17
-35.4051 -33.6036 10.7216 129 92 40
65.1121 25.7974 -0.756525 40 29 20
-48.4101 3.46184 5.15298 45 37 22
0.736542 22.0893 -7.93492 37 32 30
30.322 -16.1576 10.5254 37 36 23
35.7168 22.2035 7.75954 58 36 18
29.8457 -9.87071 8.73719 106 106 58
-5.37003 15.0329 -13.5248 129 94 44
-65.9162 -25.8672 -5.40499 26 22 16
21.0721 -23.2839 12.3021 54 42 19
-57.7792 5.10408 3.96276 58 37 19
75.6062 14.0804 -4.83649 136 100 47
55.6154 2.28627 -10.8028 122 132 97
30.1731 -12.9995 10.0666 77 74 42
51.358 28.763 -4.65442 108 72 35
-62.0881 -6.3254 1.25666 48 30 16
-23.3549 13.6851 -13.0927 92 74 40
-0.0269928 12.8802 -14.1633 135 98 49
57.9879 26.0034 8.70414 60 36 17
15.1275 22.1289 7.1902 58 39 18
16.8333 -0.714935 -14.5498 134 93 44
-23.562 25.1859 -0.292984 86 56 26
26.385 25.7725 4.18333 53 34 15
-41.1533 11.9546 -12.1101 54 43 32
-56.0822 3.08646 -0.782352 134 87 42
-41.4976 -18.4037 9.11907 62 62 52
-43.784 18.3125 -3.42611 96 63 31
76.6247 10.7864 0.398808 57 56 35
-46.339 -5.2709 -9.6569 126 93 47
59.0585 29.3345 -0.848328 45 33 19
29.6514 25.096 6.59715 53 35 18
67.6162 4.70665 -4.34933 121 81 73
-58.7783 -32.8692 -11.861 110 68 35
-29.0739 24.4596 3.44865 65 42 19
50.0807 24.0581 -12.6157 63 38 21
-15.0708 16.0848 13.6014 35 27 17
-17.4987 15.7249 -13.3287 146 102 47
-55.5526 -32.5653 -8.52483 87 56 28
-33.6138 23.3541 5.10168 62 40 18
-62.7282 -15.0729 -5.97169 150 109 54
57.5292 11.1001 -14.7076 89 87 63
-5.64767 -4.00393 12.5519 61 53 27
21.3283 23.2102 8.77091 62 40 19
-0.951904 2.47551 14.8919 55 44 21
-46.5357 3.66742 -9.2004 145 103 46
29.1223 -9.99081 7.94142 118 116 76
-24.3429 17.5869 -12.253 83 70 43
68.3735 23.5485 2.65468 45 32 18
1.22446 10.98 -14.7512 70 56 37
14.6996 -24.5008 -12.6629 64 55 20
72.6117 17.532 3.28455 62 39 18
49.6919 23.5391 12.5526 42 27 15
-36.515 -32.3894 10.817 127 99 50
-27.611 22.9714 9.37733 56 38 19
-66.7501 -25.365 -6.99103 34 34 29
-30.4815 -29.1256 9.9212 135 100 42
24.3994 24.1381 9.39314 60 39 18
-27.6767 11.2337 -14.1639 98 86 50
-23.3026 -35.5629 12.014 60 46 22
-27.2571 22.4289 -7.70309 103 72 35
-45.5235 13.2579 -6.2302 94 60 29
39.4846 21.7066 7.43737 55 38 20
70.117 10.8363 -7.18464 136 146 109
77.5959 13.9976 3.08395 17 17 16
-10.3316 22.5596 -8.48315 33 28 25
-45.3553 5.66013 10.7157 48 35 18
50.7931 27.2092 4.75087 71 43 18
31.66 -21.5442 11.7772 49 36 21
24.1616 -10.8698 -6.67606 99 102 67
45.8058 27.3855 -3.9718 105 67 31
11.4555 -23.0214 -18.4964 130 109 51
-20.4994 23.6279 8.71119 26 24 15
47.5576 8.23946 -12.3922 122 98 39
-7.53052 2.33947 -15.7593 97 89 59
-10.7265 22.9284 -7.71994 39 33 25
34.8658 -4.93292 -7.91107 133 140 97
58.9736 17.2528 -13.7571 135 121 68
-33.4332 24.1979 2.34539 66 42 19
29.4247 -7.01467 -8.63829 148 156 102
11.7741 -25.5036 -18.124 136 119 59
-48.3153 6.08813 -3.03154 45 37 23
-63.7762 -10.093 0.0727081 39 28 16
-25.8028 17.1974 -12.6357 42 43 35
-11.9147 1.95901 -14.4967 144 117 56
-19.3588 7.31688 -13.009 144 118 60
55.7443 26.0355 -12.201 60 44 22
-36.2211 20.4275 11.1776 62 40 20
8.06242 -30.7816 -15.7151 47 33 15
12.333 22.0839 -6.57005 98 72 42
34.5764 23.1186 -7.75876 124 79 36
-44.2553 12.4676 -8.95209 88 68 40
7.1006 -13.7513 -11.599 48 38 20
57.5619 14.3878 -14.273 80 73 47
25.5864 22.2968 11.636 23 19 14
53.1203 25.6766 -10.3884 65 41 20
55.6902 22.7881 -12.8835 147 114 57
54.956 10.398 14.1243 64 53 25
-39.34 -2.73188 13.5521 58 52 28
28.967 -1.66177 -13.4638 120 119 75
35.0726 -28.1174 10.0294 111 79 34
-39.4267 -16.6038 8.35294 87 78 55
-41.6949 21.7059 -1.20639 89 59 27
63.3993 26.2352 1.6574 26 21 15
48.7062 18.3321 -12.8269 103 76 32
27.6243 -22.0178 14.672 62 41 19
3.36275 7.57586 -14.9347 62 55 39
41.2774 22.9583 -8.04612 133 91 38
-41.5383 -17.317 8.84629 77 79 67
-35.2009 -26.7308 14.5464 56 37 19
53.6272 27.891 10.1861 63 49 27
-29.8532 -28.9997 10.4365 117 84 40
-21.5424 23.8261 7.76218 61 39 18
10.2001 -31.5287 -20.7172 139 90 43
56.2771 1.25707 8.17778 72 66 36
33.0997 10.1233 -12.8739 135 113 50
63.5274 6.23337 -5.78448 135 144 116
46.1324 26.686 -5.04425 110 72 34
-44.1928 16.5866 8.72527 31 23 14
46.3023 29.229 -0.112671 60 39 19
-33.6779 13.4479 15.9332 22 22 20
33.5382 14.6985 -12.1655 115 111 98
31.5649 -5.32021 -9.19248 136 144 97
-40.3922 -3.46248 12.8949 53 44 19
-33.0524 16.8111 -12.5533 48 44 34
8.64096 -26.3458 -13.9748 57 43 19
-47.3817 10.1419 7.1874 41 35 21
-57.09 1.226 -1.02632 133 83 38
7.95859 24.5441 1.35643 60 40 18
-32.4743 15.1752 -13.5289 52 43 31
69.192 22.9201 1.84401 47 35 21
-78.7815 -16.2589 -3.02753 51 42 28
-64.9246 -20.3223 -7.40476 100 81 38
55.5229 29.4469 1.45023 59 40 20
51.5229 26.4469 5.61444 69 46 21
-15.9673 25.5459 -0.943159 76 50 24
34.4288 -34.1508 4.86885 103 71 34
18.0242 1.76264 -14.1404 53 46 32
-64.9422 -25.963 -8.61462 122 91 41
4.40509 24.8217 0.998521 60 39 19
-27.297 -37.0554 9.38723 104 76 37
50.0628 6.5028 14.828 55 41 23
49.6516 27.9342 -5.41248 107 69 33
16.8027 -23.9372 -16.0524 140 121 61
60.6464 26.5746 -5.9306 56 44 28
9.34628 -25.9075 -18.6657 149 103 46
52.1351 6.05251 13.823 68 59 29
32.3444 -34.4991 6.94094 125 86 40
-4.30777 25.6465 1.64225 57 37 18
59.4522 26.6305 -7.1537 88 56 25
26.9957 -29.5638 13.3758 58 44 20
54.5574 3.83572 -13.0886 139 150 112
55.0709 26.1821 -13.1164 87 75 43
48.3393 22.4614 11.4717 48 31 17
77.4216 15.4159 -2.29788 200 155 111
-42.7386 -9.40971 9.28728 60 54 29
61.1248 23.7568 8.53599 63 40 19
53.1769 24.0814 10.631 73 46 20
11.9041 3.95857 13.4869 15 15 13
30.3563 -9.78998 9.56004 90 83 44
-42.4986 1.61018 13.2262 50 37 17
-34.1792 22.6244 -4.15435 29 24 18
-48.862 17.4414 -0.230339 191 143 96
-27.899 19.7614 -10.833 129 87 40
-17.7778 14.4412 -13.5152 143 106 50
-9.71678 16.9261 -13.0217 111 81 44
-45.2514 1.31747 -9.9432 150 106 44
-46.9957 6.27883 8.60774 58 56 32
-40.0772 -22.7289 14.4359 47 30 15
-42.572 -16.3602 9.26013 67 66 56
26.7071 -14.3569 7.38329 142 136 80
24.3549 18.9623 13.1305 50 34 18
-14.8561 21.3573 11.7194 52 35 19
-42.3814 -17.2183 9.51756 68 70 59
-14.1728 25.7826 -0.323505 78 51 24
76.3946 17.4765 0.448816 32 28 22
51.9451 30.0449 -0.110624 55 35 17
-86.0327 -15.4778 0.547184 19 19 15
-41.7618 -0.223123 13.4615 50 39 18
29.3876 -27.6819 7.47303 153 129 54
-13.3655 24.4793 7.57481 30 23 15
55.1273 18.6867 -15.1616 129 103 46
-75.5896 -18.2969 -2.12733 16 16 15
-32.1928 -36.0641 10.585 131 96 42
25.8812 9.75937 14.3619 56 39 19
52.7612 21.9921 13.2514 60 36 16
51.0299 29.7226 -2.75766 90 62 31
13.4702 21.2128 -7.05392 48 45 36
52.1003 23.7962 11.0972 68 41 18
53.5347 27.3698 -14.0747 57 40 20
7.97124 -34.5964 -18.647 60 41 21
26.8882 22.158 11.766 65 42 21
24.7706 25.6326 6.1694 59 39 18
64.897 6.53986 -5.53996 135 118 98
-60.6707 -1.15849 0.4683 40 29 16
21.4093 -14.0512 -13.6 115 118 74
31.2387 10.9281 -14.0546 68 59 36
-39.0432 -30.3286 13.8533 33 28 16
-42.2973 -3.87864 -11.4582 109 77 44
-33.8674 -35.7024 15.857 30 23 14
-38.2763 21.9731 7.72918 24 22 14
-36.2952 22.1748 -4.48513 73 50 26
-32.0544 16.3367 -13.0667 120 83 41
-54.37 -6.82426 -5.84175 42 41 35
10.3762 16.3893 -10.8378 126 95 41
-7.11055 -11.8004 -8.46819 91 90 54
13.7628 -15.3344 -16.4767 149 110 47
-55.4484 -20.8098 -10.7531 135 112 45
-52.9057 0.336609 -1.60474 148 113 49
29.0986 -20.3369 13.3879 63 42 19
-56.8177 5.89154 4.51828 56 36 18
39.5821 -32.9212 5.34642 107 69 31
57.4222 1.47116 -6.77692 103 110 85
4.25438 22.2984 -7.12903 125 87 41
30.9403 -23.361 12.76 62 41 19
-55.2916 9.27555 4.84618 53 35 16
0.760849 23.8274 5.49098 35 26 15
-58.267 -11.5242 -4.76617 150 113 58
-8.41747 22.9524 -8.13725 100 68 35
62.9944 25.132 6.20461 36 27 17
-5.84541 -7.6396 -13.4192 149 133 68
15.0278 18.7743 -8.74744 151 109 49
-8.54987 3.23575 -15.7899 40 41 36
20.1501 24.7068 0.244427 66 42 18
-46.4695 10.7724 -6.38275 101 66 31
-45.5872 19.0636 -1.15098 111 73 33
-84.925 -17.6289 -3.0042 131 86 44
62.728 26.4966 -3.802 65 48 27
56.6308 0.994415 7.46638 68 59 27
-14.4057 25.9913 0.452078 58 39 21
-30.4888 3.24591 -13.5399 44 48 43
-60.8652 -5.49551 2.36152 49 34 19
-8.83423 7.28668 -15.8412 97 78 46
36.4411 -32.7256 14.7736 57 38 18
30.7209 -18.6054 8.547 136 122 65
-18.3243 23.3701 -6.67462 38 32 24
23.9076 25.3945 0.994331 59 38 19
30.2728 -3.27661 -11.3176 141 150 106
-36.6916 21.0723 10.0906 63 41 19
40.9637 23.6829 -7.05185 95 67 35
-59.9555 -2.05397 2.94211 50 32 16
17.5424 -30.8242 -18.4347 58 40 18
35.0069 -1.67413 -10.0584 126 131 86
4.39983 14.7656 -13.0166 145 111 49
-55.7837 -13.6698 -8.03427 138 92 44
-0.679474 -7.86227 -13.8551 156 136 80
8.70296 8.64117 -12.437 50 45 34
-37.5478 3.80935 -13.6561 87 82 56
-16.8609 24.4881 -4.04769 85 55 27
32.1833 -8.90187 1.31305 68 68 44
-38.1612 -23.1807 15.3038 54 40 20
-40.12 -23.1464 9.2919 124 93 41
61.2862 28.2664 -0.928387 42 32 20
-17.1958 18.6182 -12.308 130 86 39
-33.0697 19.1333 -10.7036 128 90 44
-37.0908 22.2343 -3.51413 68 44 21
-43.8636 -2.47328 -10.4537 66 49 37
-41.3087 10.132 -12.6512 36 32 28
-3.87263 25.9915 -0.148163 55 38 19
-40.8412 11.052 -12.7074 95 70 43
48.7154 6.37764 -14.113 104 93 56
47.7126 16.7219 12.719 58 38 18
30.7337 12.9858 -14.009 44 41 30
9.41977 6.61714 -12.0668 136 127 74
74.4102 8.42963 -4.63611 110 112 83
32.1302 -27.3142 13.2838 63 39 19
69.3914 21.7173 3.74274 51 36 17
-47.8295 9.39456 -0.327271 137 117 58
-49.6513 2.76817 -3.24544 42 40 34
56.0948 4.06356 -11.7041 112 119 89
62.1058 25.7999 4.77035 19 19 14
-69.7434 -16.7774 -5.40724 62 48 40
-38.3156 -3.60096 13.4232 41 38 22
-56.7997 0.432297 -1.56318 142 89 43
46.0711 25.1849 -6.82331 124 76 33
-47.4443 -6.7326 -3.29925 58 46 18
67.3795 24.5688 0.880966 101 63 30
30.7062 -16.9835 10.4747 37 34 23
-48.693 3.98118 -7.02376 71 56 33
-33.0233 23.6306 4.12213 64 40 19
67.3981 15.2745 10.6228 41 29 16
-75.494 -23.6447 -5.79451 141 116 50
41.4874 -34.0876 9.23929 59 47 21
75.3681 7.97739 3.8162 70 41 39
10.6073 24.537 -1.11142 69 47 23
-11.9527 18.5308 -12.1441 132 88 39
-38.9827 21.2785 -4.21159 62 44 24
-39.7656 20.3491 -5.92037 76 51 26
9.97925 22.135 7.76432 62 41 19
-67.3826 -21.1242 -6.8027 132 101 46
51.626 21.666 13.4361 66 38 18
-45.1325 6.9053 10.7765 50 35 17
9.64455 -24.9641 -12.5178 60 44 20
30.4214 22.9704 -9.27213 102 76 42
-68.6316 -19.8245 -6.66232 144 99 45
17.1897 -30.4752 -17.3986 65 51 34
-13.505 -8.13532 -9.1432 120 116 60
-11.9964 19.4807 -11.6252 133 90 40
56.2471 19.1748 -14.4294 134 118 60
29.4251 -3.39806 -11.7235 127 135 97
-34.6751 7.75785 -14.937 40 42 36
17.7296 20.9773 -7.82574 147 98 46
61.1212 6.46442 -10.1771 124 132 101
-28.5268 23.842 6.28678 61 40 19
0.622452 -4.92471 -14.081 135 118 67
19.3263 -32.084 -20.1564 87 60 23
65.6464 20.831 -9.90825 154 112 53
-51.5726 8.83055 -0.535488 166 113 47
75.7931 15.5911 4.1213 59 38 18
75.6121 9.18625 -0.776402 60 55 34
56.9027 3.34788 -10.5319 110 116 86
8.06764 -16.996 -15.6564 137 92 42
-52.5108 -17.9303 -10.1654 141 100 47
29.2565 -2.5212 -12.5958 119 125 89
49.4767 3.89645 -13.4393 123 118 75
-6.64072 25.093 -2.57476 78 51 24
52.0224 8.77478 14.8612 62 48 24
41.2955 -34.6675 8.16544 73 62 29
67.1073 16.2453 10.074 29 23 14
8.69873 -7.467 -13.5559 92 60 27
-25.8682 24.3628 4.9631 61 40 19
60.4124 3.7708 -6.26062 114 123 94
-24.9578 24.2588 -1.83795 86 56 26
47.6924 8.65875 15.3403 51 37 20
58.3587 7.56984 -12.7662 137 140 99
-58.3132 -7.3895 2.60299 57 43 20
-59.2698 -30.4803 -9.67244 199 162 99
-49.453 11.3378 -0.398666 170 138 78
41.0174 -32.9732 7.33003 96 71 30
26.859 1.69874 -14.8337 48 45 34
31.7846 -6.62982 -7.89276 133 134 89
-0.971161 13.3718 -13.9601 138 107 50
-6.00862 24.5981 4.50304 62 40 19
-43.5759 7.98638 12.1167 53 35 16
49.7323 26.9496 4.93684 77 53 25
-57.2463 -15.378 -8.5122 145 99 45
-46.288 10.3209 -6.90049 99 63 27
-44.9448 -0.499359 -9.93295 96 74 35
32.8583 -30.8738 7.05052 142 111 46
22.206 24.6216 -5.64069 92 63 30
-31.5997 23.7876 -1.97287 86 56 28
32.0783 23.3687 -7.73902 80 60 37
48.7439 25.5363 6.28393 68 42 20
21.7188 14.4953 -12.5757 149 103 47
-25.826 17.4585 14.2296 56 38 18
-12.275 16.4193 13.7924 32 25 17
22.2697 -13.7492 -12.8611 92 96 63
50.6385 19.6783 -14.8682 146 111 49
45.3371 24.2137 -7.53635 144 93 43
-4.72913 -11.4573 -11.195 109 110 63
-63.3754 -36.0184 -10.6229 71 53 33
-35.6313 -35.3193 14.8234 26 23 15
-44.4008 22.287 3.82742 64 42 19
24.1068 16.1508 -13.2464 145 109 46
34.1524 19.6545 -10.1554 138 112 55
63.9321 23.4925 7.98209 63 42 22
38.9904 21.0327 7.81861 61 39 18
47.8471 23.8427 -8.72664 132 90 37
30.0884 22.036 -10.2996 60 48 35
66.6611 24.7898 2.41816 55 39 23
-27.5113 15.75 14.9963 60 44 19
-51.935 16.4106 4.68187 63 42 19
-46.7376 10.1552 8.21124 39 33 20
-38.0866 -29.6021 10.217 120 84 41
49.1662 13.8002 -14.675 112 76 32
41.8993 22.5745 7.41841 41 30 21
45.06 21.2641 -9.00998 163 114 45
1.32278 -6.22282 -13.7615 139 131 76
16.6068 22.7156 -6.21448 115 75 38
41.2424 -32.9529 9.44943 65 48 23
35.5567 -31.018 13.3543 60 39 17
-44.952 17.4835 7.25431 62 42 19
65.7072 23.8096 6.53482 53 36 19
-61.954 -4.77266 -1.60887 61 61 49
24.2865 -26.4205 13.075 55 42 17
34.3667 21.2094 -9.26781 140 95 42
-62.2083 -8.61272 -3.31214 126 86 47
52.4651 9.83012 14.9538 59 43 20
-36.4567 4.14112 -13.8894 135 113 56
40.8459 -35.2593 8.23803 63 65 47
-38.2278 21.5336 -5.1776 70 47 23
-26.7632 11.1355 -13.7416 133 112 47
-45.8241 2.64186 10.1264 54 50 31
-40.9837 -20.5937 9.50863 82 64 45
46.9512 18.7143 -10.4286 156 108 49
43.0696 23.3488 -7.79089 154 95 42
31.757 -5.73697 -8.76615 139 147 99
-18.9204 24.3647 -3.82014 85 58 28
55.6372 19.5213 13.6095 58 37 18
-64.8717 -32.3003 -9.72613 118 85 48
56.335 28.0511 -6.60447 113 71 33
-18.5813 25.1376 -1.63813 70 45 20
-15.5667 5.83354 -14.3698 49 48 34
-52.8464 11.4271 0.221203 144 97 43
15.9341 22.2974 -6.54549 123 84 41
2.30702 24.7109 1.91663 58 37 17
34.4849 -31.0727 5.51102 117 86 38
9.04826 12.9686 13.7821 48 34 18
-33.5027 -24.9263 8.46232 142 124 59
-38.5689 -16.8457 12.6907 55 37 16
22.9059 -11.3353 -10.1201 65 68 43
56.1554 11.0486 -15.047 140 143 97
49.8542 2.72752 12.8363 65 63 43
12.183 -4.12702 -13.8911 134 93 40
6.0291 14.0868 -12.8941 41 40 33
-44.5926 -12.3481 -11.7265 113 89 47
31.9636 -19.8832 10.7583 30 29 23
73.1635 17.0225 -3.38009 156 111 45
49.1164 29.5701 1.3792 63 39 18
-59.4886 1.49059 0.639168 68 53 31
19.1669 -34.7468 -18.7463 73 64 33
72.5745 16.4165 -3.9008 131 92 42
-56.448 4.80223 4.81139 57 38 18
-44.0715 18.0018 7.88041 58 38 18
75.2278 7.50632 4.59664 53 30 28
57.1034 17.4869 -14.2054 43 44 38
11.1859 -15.1603 -9.11376 76 69 33
4.6246 8.79458 -14.2427 150 113 50
-3.93176 15.3241 -13.3313 44 40 30
33.355 22.158 8.61088 44 31 18
-11.8277 24.9935 -2.65939 97 69 33
20.7734 -13.1529 -9.09762 65 65 42
18.7846 -31.0794 -17.5904 53 36 18
31.9779 -25.3809 12.6125 64 42 20
-34.7388 16.8173 -12.3714 108 75 38
-11.645 -4.36988 -12.5331 127 114 59
44.4078 26.13 -5.09286 121 73 36
30.0573 -17.4857 8.32102 157 141 74
-41.1045 18.8676 -6.86161 80 51 26
-60.144 -0.06604 0.894474 41 30 15
17.0645 -1.88319 -14.9596 131 100 45
15.8416 -4.37422 -14.8661 77 68 45
32.1877 0.538345 -12.2461 86 83 53
13.4825 -31.9662 -13.7216 60 44 19
-17.9507 9.59521 -13.6582 66 52 35
70.0101 -0.74897 3.24036 58 35 21
-14.1056 8.04639 -14.9279 139 110 52
49.777 23.3641 -14.1829 89 58 29
-8.55534 9.83149 -15.4472 125 97 47
-76.896 -22.6834 -5.72258 143 104 50
8.18669 -26.2262 -18.2724 129 82 38
29.42 25.5617 2.57399 56 36 17
9.47157 -23.6193 -18.5317 150 105 47
67.5345 23.5568 5.03311 50 33 17
56.5911 11.5615 -15.1674 114 111 66
-63.3186 -29.0736 -4.33182 25 22 15
54.57 6.77768 -14.7004 132 128 83
-32.1597 21.0165 -8.69187 105 70 33
62.047 22.2858 9.99284 18 19 15
-37.7525 -2.42804 14.1523 57 53 25
17.555 -19.1361 11.0574 54 48 29
-62.6554 -34.6037 -3.43305 21 19 16
-53.6028 -14.8534 -8.86434 141 88 42
2.81099 20.6869 10.3573 37 27 16
-13.5356 25.2027 -2.24099 93 62 30
-3.22797 23.7662 -6.80738 47 40 27
4.94453 23.202 5.9393 42 29 16
-71.4618 -17.3304 -1.73415 17 17 14
-59.4981 -15.4826 -8.4858 128 87 44
-35.9001 19.0074 12.681 61 39 20
-10.0986 17.7922 -12.5744 122 84 43
-32.0637 -24.2484 12.4402 53 43 20
-3.59396 24.2565 6.08084 60 39 18
20.7847 19.1214 -10.6216 141 96 46
19.4251 -33.9237 -15.7007 68 57 23
-18.4004 18.1545 13.2664 64 44 22
24.7899 -19.1495 6.76974 174 166 101
-36.2293 19.4572 12.1262 65 44 20
-68.4481 -19.7679 -1.1637 41 32 19
-35.6781 23.1893 -2.20257 90 59 27
1.79277 -2.57039 -14.2885 140 143 93
14.431 -31.7008 -18.9888 94 62 30
-48.7683 4.95224 -2.92842 40 40 33
-10.6408 0.811207 -14.7353 148 131 78
30.2456 -8.94341 12.2612 69 59 26
22.2397 -7.67421 -14.6601 113 111 66
-59.6803 -0.744125 -0.631485 107 78 53
48.2419 21.9209 10.8696 55 37 19
-7.69083 22.9888 -8.08537 105 71 34
-37.9973 -33.1725 13.691 29 27 22
31.6815 12.6528 -13.336 147 122 63
-48.1791 -1.50924 3.55834 57 48 24
-42.153 14.5569 -9.66397 111 100 84
58.6164 27.7824 2.31707 51 37 22
24.467 -9.85604 -11.1989 51 54 37
-60.1174 -30.0717 -10.1392 140 100 45
24.1966 -14.9408 6.13797 197 196 122
-45.4861 13.7975 8.40462 51 34 15
75.2207 16.5153 -3.09695 154 107 49
13.0164 -26.4451 -16.9447 158 141 64
34.0501 25.3256 1.6209 60 39 19
-32.0407 17.835 -11.8469 47 38 30
34.9339 -31.7467 4.97363 127 89 38
60.3407 28.7508 -0.77865 26 22 18
6.02962 24.1429 2.57333 58 38 18
-58.6169 -30.9559 -9.17538 126 94 36
54.2137 28.1368 9.88252 56 43 23
57.7532 24.4491 -11.4209 109 67 29
-56.2721 -28.4021 -7.06362 64 52 34
-67.3211 -17.7999 -6.28579 138 93 45
-8.83775 11.3871 -15.0286 140 104 45
41.1816 24.8695 4.76524 60 37 17
-6.66672 -1.58534 13.1285 59 50 22
-57.1836 -6.04091 3.103 58 45 21
77.3414 12.0373 4.04724 46 39 20
62.7331 27.3261 0.138851 37 29 19
5.38455 18.5295 -11.0551 53 47 34
-65.4029 -24.018 -8.25043 157 130 87
-46.5547 11.7656 -4.47278 59 38 17
-58.4999 0.556724 3.75533 54 35 17
-54.4927 9.86156 5.17266 54 37 17
26.5225 10.8404 14.2976 48 35 19
-43.1237 13.9826 -9.14814 98 69 36
18.3863 -13.9098 12.5299 59 48 22
4.70908 -5.68947 -13.0331 147 136 69
36.9899 -33.8964 3.49525 145 96 45
63.8591 6.31096 8.59735 67 60 26
-38.8018 19.0109 -8.58254 95 65 29
38.8854 26.7931 0.0156937 60 40 21
-55.2273 0.258107 -1.93482 155 105 43
16.5102 -14.2594 12.1971 52 38 19
-17.1869 11.4907 -14.0484 135 100 49
46.6264 12.2483 13.0488 56 39 20
36.0615 -2.87387 -9.00001 126 136 98
39.3545 21.5283 -8.90132 140 95 40
26.1509 -4.77326 -13.3931 126 132 95
-52.2336 16.7919 2.601 62 45 26
-57.075 -34.822 -3.88866 57 38 18
68.7993 18.3359 -8.47105 133 130 79
70.9183 18.2079 -3.66718 132 108 49
54.9639 29.4838 -3.92241 92 57 28
2.21039 13.0151 -13.9822 86 71 47
-56.9682 -12.7024 -5.44894 31 30 23
22.177 25.0391 3.21325 60 38 18
24.8947 14.2736 -13.7831 154 110 48
-33.0301 -34.9767 10.383 137 96 40
-11.0625 9.70561 -15.3693 143 106 45
22.4647 25.0864 -4.63401 80 53 26
3.07402 23.4937 -4.27146 40 34 25
-45.6226 -4.59537 -9.95089 133 90 39
63.7268 21.6702 -10.0618 139 93 45
-42.3332 9.3226 12.9861 58 39 18
17.2039 -21.3134 -15.6496 148 125 59
-12.9731 0.407844 -13.5978 141 117 53
-36.5289 -34.576 14.3838 25 22 15
-48.6138 13.938 6.56018 58 37 16
-15.4719 16.224 -13.5449 64 52 38
35.5566 -29.7371 7.64705 66 54 25
-50.8535 -0.838684 -3.81158 36 37 30
-57.5878 -31.3506 -8.12121 114 90 40
-38.4192 -0.784794 14.6295 55 44 19
-62.8808 -6.70288 -0.545933 40 28 15
46.165 24.08 -7.83773 126 86 42
-62.1007 -21.0343 -9.46418 148 107 44
7.42934 -17.0137 -11.889 54 45 20
-77.3789 -19.8411 -5.12514 89 67 40
9.64647 -35.7008 -20.0292 92 74 38
75.4753 14.5814 -4.43677 174 135 86
-53.0883 15.7489 3.03182 60 39 21
-1.97202 -6.93469 -13.897 154 147 85
-30.189 24.287 2.98444 65 43 19
-60.3093 -16.3421 -8.64783 154 116 55
-40.3611 -8.72853 8.10505 114 99 55
-54.8452 -33.0089 -8.04465 58 39 18
33.4219 -34.0221 5.91623 116 82 41
12.2789 23.734 -3.80249 99 70 30
-7.28146 -12.3342 -6.92659 100 100 60
-41.4912 -18.0585 11.0927 45 38 24
48.4952 7.60172 -14.18 109 91 48
34.2113 -30.4288 6.08472 122 94 42
19.9959 24.145 4.69584 48 34 17
-23.3374 -32.2508 9.69193 98 72 30
10.4121 -15.0875 -9.48667 74 65 29
-15.2904 15.6327 -13.7632 63 51 37
-46.6598 4.64507 8.89552 60 56 31
-41.158 1.32191 14.1678 50 37 16
-36.2 22.5588 -3.32012 77 51 26
-43.438 19.1953 7.38225 50 34 18
4.52179 -1.29012 -13.8867 138 124 64
28.9434 25.53 -2.78506 66 45 22
-19.189 14.2467 -13.1326 93 77 46
28.6779 -26.6055 7.22636 158 140 65
52.3842 15.9721 -16.0202 56 48 39
10.9039 -26.717 -12.2599 59 43 19
-54.1001 -25.1452 -6.8019 45 42 27
-6.53537 -4.89609 12.1833 62 55 25
-0.22226 21.5715 -8.733 50 44 31
49.92 4.51502 -14.0243 120 106 60
-46.916 9.69835 -3.25036 52 38 22
-25.3454 23.0045 -6.85925 87 58 28
-47.5939 10.3588 -0.356922 162 145 70
40.89 -32.1547 11.8513 56 37 18
50.5899 18.3914 -14.955 143 112 46
23.9769 8.83508 14.3366 59 40 19
-10.6449 -1.47938 -13.8906 150 133 69
33.9526 17.4586 -10.8931 60 46 36
48.1041 10.3523 -14.031 115 81 34
19.6727 -33.5616 -17.6639 60 47 20
16.428 -34.606 -13.4587 52 37 18
33.665 -4.10663 -9.30205 148 159 107
59.9654 27.8741 -4.08323 83 56 29
68.8865 21.985 -4.38408 33 27 17
-65.8377 -15.3488 -5.62401 114 76 36
20.0849 18.0341 -10.5861 127 87 39
76.1968 8.88588 4.37623 61 57 35
-36.0447 1.51791 15.9514 54 45 22
49.5515 14.9872 -14.7258 120 87 43
51.7045 7.4043 -15.6696 148 138 84
-46.8652 -20.3814 -6.31783 63 58 30
69.1335 12.4504 10.3527 56 42 22
-85.7183 -18.7783 -1.95489 93 70 35
-37.181 21.7341 9.00537 60 39 19
55.7416 27.6521 8.80275 53 36 17
27.4537 -0.074173 -14.9487 57 54 31
-35.093 -11.4174 13.4361 56 36 18
25.2813 -3.17185 13.9444 55 41 21
4.97974 22.4868 -6.70199 120 83 39
28.502 25.7848 3.80419 58 39 20
36.7499 -31.1405 5.73187 96 65 32
-80.4346 -23.8474 -1.04344 53 48 26
-58.1472 -30.8428 -8.63259 127 98 39
30.1291 -15.9039 9.78714 104 89 40
-14.5405 -7.55213 -8.82997 124 125 73
-19.743 23.1657 10.0708 24 21 15
-66.4479 -21.9053 -6.92428 121 106 55
68.0864 3.68957 -3.68011 117 70 62
16.0036 -33.4469 -13.3645 48 35 18
-20.5561 23.6653 -5.02164 55 43 29
-39.8615 23.9722 1.06993 63 44 25
9.72729 -12.6738 -15.6921 148 111 47
-12.1877 -7.76217 -10.6441 131 126 67
22.1792 13.6675 -13.1356 140 94 43
58.0083 24.9327 -10.3053 111 66 29
48.2673 23.6296 7.93708 62 40 20
-40.3924 -17.4087 11.7338 52 34 16
-47.6971 7.89685 -0.881476 60 50 35
-32.4162 24.0779 -1.07588 78 49 25
17.4587 10.842 -11.7233 153 112 58
7.60864 -13.2214 -10.1873 61 54 25
10.4475 -29.809 -19.7912 136 97 44
-56.3723 -31.0246 -7.09603 45 45 40
23.39 22.3103 -10.0433 61 46 33
18.8668 -20.6135 -13.252 35 37 28
35.9966 24.0557 5.58889 20 17 14
-62.2619 -6.72652 -2.32182 70 57 40
-22.9091 25.3614 2.06232 63 41 18
59.459 25.3848 7.42816 42 29 15
1.039 24.8102 -2.50264 112 85 47
-14.5412 24.3368 8.09393 18 16 14
-38.5663 22.245 6.80193 51 36 20
28.7207 4.73116 -14.3171 134 119 61
-7.34679 0.887127 -15.5377 47 42 36
11.1645 20.1839 9.88197 48 32 17
-4.757 4.0047 14.7887 28 25 16
13.8505 -23.623 -16.6089 152 140 81
13.6104 -29.6777 -13.6532 59 46 18
-0.827759 25.0041 -2.435 102 71 34
54.3442 1.46003 -10.7844 137 147 107
29.7122 25.2211 -3.04782 66 43 22
-63.1272 -7.56465 -2.14407 55 46 33
-21.9738 20.1954 -11.1284 131 88 40
-7.09576 20.6136 -10.5129 121 81 38
32.3375 21.6619 -9.82058 149 105 50
-57.1543 -30.5984 -7.56273 99 85 56
-36.0832 9.55282 -14.43 62 54 39
28.3771 9.81074 14.2758 39 33 20
-45.2745 4.22888 10.8901 49 35 19
61.7057 27.9138 -2.00691 62 47 28
64.3475 18.9022 10.9688 47 35 19
-55.5527 -32.026 -7.27035 46 35 24
-34.9857 22.3157 8.06476 67 43 19
-64.2779 -12.7051 -4.74051 107 72 41
-50.9319 17.8421 4.39116 62 40 19
33.6488 -24.0036 10.9841 35 34 23
33.7453 -31.5957 5.98524 128 96 38
-7.26834 -2.49638 12.7285 61 51 24
11.7126 12.1962 -11.1766 76 69 43
21.0679 -14.6641 -13.5263 109 111 69
8.10484 -14.3546 -10.5895 64 56 25
32.8493 -33.3272 6.42265 175 134 82
53.5492 29.1263 2.7632 65 41 21
-27.1508 23.0415 -4.94916 32 25 19
50.2705 27.6137 -6.24857 112 75 34
-43.2326 2.65352 12.835 51 37 18
-18.0098 24.6171 -3.49611 86 59 29
56.4621 22.1222 -13.3586 77 63 38
34.5784 -26.0164 10.8581 26 25 19
-31.0189 -33.2714 16.264 35 26 17
-8.10698 -6.51341 -13.1497 142 116 55
-60.2532 -3.463 -1.63805 93 64 36
-39.6475 23.973 2.30871 70 45 20
12.3857 22.7821 6.35232 60 39 19
55.3307 1.23646 9.22988 67 59 30
34.552 -32.9288 4.89636 140 94 48
-10.532 -0.712289 -14.2122 148 118 56
5.05498 16.1579 12.6813 22 17 15
33.2392 17.3681 10.9869 28 22 16
-39.1786 -11.8512 7.9516 130 110 51
-45.7967 14.6194 -3.2453 35 26 19
57.8381 29.0462 0.560404 31 24 17
-56.3592 -29.1311 -6.43903 35 32 25
-48.054 16.8518 -0.917984 138 90 42
13.0297 16.9511 -9.67681 46 42 35
-24.2354 23.0286 9.73779 61 39 18
-84.513 -21.8577 -1.53344 55 52 26
30.1492 -16.299 11.5402 54 42 21
47.712 6.14514 -11.9477 108 82 39
-58.5727 -13.84 -7.16462 27 27 21
-16.0365 25.1801 -2.14182 77 50 24
13.9156 -8.73056 -14.5903 96 91 66
37.2812 -31.651 14.3471 48 31 16
-34.3563 -0.225214 -13.6551 73 69 49
64.5546 14.2425 -12.5889 82 70 41
-7.23187 24.183 -4.37011 65 47 27
-44.3517 2.59948 11.8491 48 34 17
28.3858 -22.3883 14.5336 60 40 20
71.4007 16.09 -6.39776 121 89 38
78.1131 15.3634 -1.09335 57 43 22
-63.894 -21.5611 -8.75392 141 117 51
-30.7246 23.3798 6.72203 61 40 19
69.42 -0.287018 -0.0612221 68 46 29
9.67377 22.6672 6.87968 59 38 18
-68.0724 -15.8452 -5.38773 79 59 34
-32.6883 2.18118 -13.7097 133 122 65
12.2182 -9.76004 -15.1573 123 117 68
28.6894 -31.6336 8.79813 139 105 43
57.8099 4.56614 10.4108 70 70 43
31.6583 -33.8593 7.34809 131 92 41
-26.4678 22.8229 -7.08687 82 56 27
14.5147 -10.4446 10.8294 65 51 28
67.3426 20.2747 -9.29323 132 96 46
57.3458 27.1414 -7.60835 108 71 32
18.3888 -32.1308 -13.6022 37 34 22
-24.2862 -34.3141 7.65314 156 111 51
-56.5287 -29.7822 -7.04312 57 53 42
-19.4625 25.6408 1.17421 57 38 19
-47.8818 7.73366 -4.31872 48 41 22
-21.3631 25.5959 0.77282 57 37 21
-12.4242 21.6145 -9.985 119 83 36
-74.7447 -19.7672 -5.37757 63 52 43
77.5394 15.8912 -1.89561 108 70 33
57.5968 4.20023 -10.5669 143 153 117
-46.0552 12.0792 7.96503 56 37 16
-82.413 -21.704 -3.77422 137 106 47
18.8955 24.0945 1.79686 62 39 18
67.0216 24.1432 4.66224 56 39 19
-37.2804 -13.5083 12.776 57 37 16
-32.3925 23.4137 5.39553 58 38 19
6.97266 -13.3228 -14.293 132 101 51
-5.67668 20.4764 -10.6352 61 51 33
25.6845 -9.01493 -8.43387 86 91 64
27.3882 25.7567 3.43523 63 42 20
-56.1982 -32.4247 -5.28151 54 37 18
36.4923 -2.37793 -9.02343 131 140 103
-55.4739 -34.7399 -12.9242 141 99 48
10.3064 21.3153 8.6407 60 41 20
-35.3561 -30.1462 15.2548 45 32 18
-4.45065 25.7377 -1.19092 80 51 25
-85.7744 -14.6765 -1.38962 104 78 48
-75.7947 -23.1302 -5.95169 136 92 43
12.9686 -18.9353 -17.7543 136 118 51
39.8031 25.4169 3.45104 44 32 16
-65.9009 -29.3066 -8.51702 100 73 44
62.3569 6.63391 -8.62017 86 92 70
15.5714 -14.3916 -15.2645 158 122 54
-40.7536 -21.7115 12.995 53 35 16
-14.2006 19.1733 12.8931 64 43 22
52.8784 12.3222 -16.3475 65 59 41
-39.5305 17.9257 -9.0892 105 71 31
-53.2952 11.8263 0.575188 141 97 43
75.0028 8.30915 6.0354 66 55 28
65.2612 9.42716 11.3909 64 56 28
63.8165 8.17805 -10.177 113 120 90
34.1155 -32.2554 5.43271 160 126 74
-23.3376 8.24618 14.333 20 21 16
25.3512 25.616 6.42526 62 41 20
9.57101 -35.9315 -18.8518 69 66 43
-45.2519 -4.15439 7.36683 68 63 33
-7.91888 18.7292 12.9269 62 41 20
32.2283 23.8909 -6.20996 47 37 24
37.7938 -31.0602 13.8607 60 38 18
-66.4173 -27.4402 -6.09529 26 22 16
33.8581 13.2627 11.9269 52 41 22
21.7864 -4.49069 -15.5438 59 60 51
19.5596 23.5158 6.77387 58 37 17
-52.2923 15.4968 1.39646 110 75 36
33.9293 -33.4667 5.39466 118 85 44
3.28979 21.3547 9.50864 28 24 17
42.3868 23.1317 -7.90758 144 93 41
-13.0004 14.1948 -14.0583 100 76 41
-20.314 23.9547 7.7391 40 30 18
64.4061 26.0015 0.867271 35 27 18
-1.26724 -8.04475 -13.7897 152 128 69
0.832718 6.10099 -15.5448 131 102 52
5.90437 20.4065 -9.23409 56 48 33
-56.5547 -6.18852 -3.54149 153 108 44
-10.0158 24.7645 -3.18202 104 74 37
10.258 -29.8096 -13.7252 57 41 18
-81.9214 -22.3102 -3.64677 128 107 49
-25.2758 23.2911 -5.47151 61 43 21
-79.8228 -18.0879 -4.24993 75 56 35
3.92874 21.198 9.57536 26 23 17
77.8372 13.9166 -1.1212 32 30 20
-23.5346 -36.0278 9.76804 68 51 22
28.1227 25.7795 -3.08428 66 44 22
40.681 -33.5007 14.7296 61 39 18
42.7577 27.6275 0.0876503 62 40 21
59.8731 9.35838 -12.8957 124 132 97
-63.8822 -9.42537 -1.62801 36 27 15
-41.9477 16.5427 11.4157 42 28 17
35.0389 -33.6109 4.36488 189 146 98
28.0911 25.7006 2.44356 54 35 18
34.3006 23.4176 6.44005 42 28 16
-29.5738 21.9436 -7.00262 36 30 24
-60.395 -0.789643 1.24775 43 30 17
-43.5887 8.80514 12.064 52 35 16
18.9487 -33.6618 -13.7057 63 49 21
44.1908 17.9913 9.51245 59 37 16
77.4958 12.6417 3.01259 27 28 22
-8.27094 23.0974 9.18995 56 39 20
-34.7992 13.8366 15.5946 44 32 19
71.4705 17.1674 -4.09034 124 100 43
-37.404 22.5039 6.99842 31 24 15
-54.7246 -33.9805 -11.1839 59 40 16
-12.4455 -8.21117 -9.96762 126 122 65
7.38167 -31.0357 -18.382 90 60 33
-62.3617 -8.41533 1.31296 51 34 20
-42.3643 21.9536 5.36129 63 40 20
-40.1497 22.8074 -0.714638 92 61 29
22.7034 -13.1336 -13.0021 106 108 70
-38.6492 23.5341 3.59534 76 50 23
17.5584 -28.1074 -16.5698 72 76 68
67.2655 23.2092 -3.29676 32 24 16
60.5753 27.9579 -3.24856 48 36 26
-22.416 -33.2287 11.308 64 49 22
-50.4525 -4.73177 -8.02675 135 87 41
61.1924 13.5283 -13.2962 61 60 43
32.8562 -5.11786 -8.82621 135 142 101
70.6641 14.9899 -7.60082 135 103 43
7.31805 23.2719 5.77888 48 33 15
-64.713 -13.4177 0.0573883 39 29 16
8.59225 -29.5692 -14.947 46 33 17
18.6496 -19.7884 11.4729 53 41 20
68.4532 12.7664 10.9081 64 45 19
-55.1246 -33.9292 -6.14106 57 40 18
-46.172 16.4717 -2.182 143 100 46
-6.5787 -6.59751 -13.4914 151 141 75
7.28111 -19.9834 -13.044 54 40 18
13.4676 24.7201 -1.11016 69 46 21
-22.7985 25.5028 0.567116 59 39 21
-55.845 -31.5376 -6.58284 69 42 18
35.1729 -3.00366 -9.37991 135 146 101
-9.75568 20.0816 -10.931 45 41 31
-12.5085 24.6077 6.3266 31 24 17
-17.5813 10.5974 -13.8556 86 66 42
-57.9489 -32.0223 -9.31921 91 65 27
-36.6288 23.426 4.85163 66 41 18
-14.9538 22.5133 -8.95231 97 67 36
22.2933 -16.1958 6.3364 177 176 110
-25.3886 7.27356 15.2417 59 47 24
63.535 25.511 3.76234 54 39 23
-4.67194 23.7059 7.77279 57 38 18
-62.772 -36.1602 -10.9101 71 55 37
-48.9755 -6.72881 -8.66985 154 111 49
43.1278 19.8661 -9.19622 168 121 51
3.46309 25.1987 -0.507664 65 43 22
-36.7966 -29.9017 9.61683 134 96 42
7.20192 20.937 9.46998 62 38 18
28.1415 -19.9127 14.0969 64 41 18
73.7214 17.9952 -2.746 135 90 40
25.581 1.89655 13.8961 18 17 15
23.6436 -28.575 10.4408 64 64 54
-62.2044 -33.9026 -3.53735 24 21 15
-63.9805 -34.9243 -10.6971 87 64 38
-38.1624 3.45029 -13.3258 45 39 33
22.37 -26.1783 11.6465 48 41 18
26.0456 -6.61922 -12.5011 106 110 76
-42.5783 19.0903 8.58923 52 34 16
58.5529 14.9602 13.3502 22 19 14
47.5463 5.13294 12.437 65 58 32
-12.9908 24.1985 -5.02163 32 27 19
-30.4526 7.1011 16.4557 22 21 18
51.0982 16.4733 -15.719 148 112 49
16.8213 -18.6962 -10.8085 70 66 32
-31.8022 20.0078 -9.97016 116 74 36
-54.3791 6.3847 -0.498413 155 105 48
-80.9747 -18.1369 -4.2374 126 90 44
15.4125 22.8737 5.93903 60 41 18
23.2177 14.9432 13.2642 60 41 20
7.88135 -19.8117 -16.1676 130 88 40
51.0345 21.8175 13.2059 59 34 16
-38.572 -27.8812 9.87755 136 105 49
30.1369 -8.06549 12.7188 68 58 27
50.234 25.8906 11.8697 51 34 18
-43.6191 -6.87945 4.25949 63 57 26
66.6165 24.7903 0.293865 99 63 27
-45.3239 12.4407 -7.03093 106 78 40
-1.94633 16.7291 -12.4857 143 98 43
65.1338 22.1578 9.16982 25 19 15
6.11491 19.3341 10.9815 62 40 19
-38.3333 -21.0795 7.60927 127 85 37
-36.0904 17.3927 -11.728 134 87 44
-62.3753 -10.0582 -4.06092 121 83 45
-7.04402 -1.09722 13.1681 61 53 26
10.774 -31.8585 -14.2071 59 40 18
-44.3201 17.0164 8.22714 57 37 19
-44.4191 20.6594 -0.43634 110 74 39
-41.016 -1.83705 13.3685 53 44 21
-17.7968 19.1171 -11.8927 132 92 43
-55.9573 10.5151 3.77393 59 40 19
-45.3979 11.7767 9.28751 57 36 18
-39.4633 -26.7206 14.4465 40 28 16
56.0561 0.71476 7.80034 67 59 26
-52.3795 -3.34047 -4.67867 33 33 28
49.9356 21.3045 -14.5011 127 83 36
7.52243 -32.8278 -17.9759 60 40 20
55.0173 13.1378 14.4034 61 45 19
-0.829453 21.7767 9.98477 56 40 21
7.81891 -15.3332 -15.1355 132 87 42
-51.6695 4.67467 -1.14935 152 110 47
18.9184 -5.49823 12.9635 54 44 22
61.2805 25.6498 5.66175 56 38 20
21.6578 24.7473 5.5597 58 37 16
20.2938 23.5197 7.46431 59 39 18
-65.7804 -27.3855 -5.37701 29 23 15
-54.5996 -35.3443 -9.99896 52 44 18
-40.5129 18.9057 -7.55249 100 66 31
68.3153 1.56993 -3.33991 129 102 67
-15.5113 25.0465 4.54286 66 41 20
-74.4807 -23.8347 -5.95144 139 114 51
26.7057 24.3918 -9.18483 109 67 30
75.5615 9.44261 1.30134 86 80 59
-28.6208 18.3271 14.2094 31 26 18
39.2085 22.9299 6.33487 62 39 18
33.7531 25.0414 -1.5109 59 39 18
-53.8539 14.7706 3.40842 60 40 19
-46.899 -0.022501 6.42747 62 56 31
-3.77843 25.2761 2.51976 54 35 17
-42.9405 4.97197 13.2092 37 26 15
-8.22565 -0.826032 -14.8661 135 124 69
-81.4934 -14.8838 -2.54994 108 80 35
69.9089 0.694702 1.09778 59 31 25
21.673 25.3598 -0.865209 56 40 19
-5.32646 24.0229 -4.99672 77 53 30
54.8838 27.0162 -8.51914 127 78 34
-35.4116 21.4495 -6.86617 48 35 23
-15.5428 24.1763 -4.72277 67 46 27
-10.1621 2.30653 -15.1633 136 119 67
14.7752 4.25902 -12.5192 51 49 36
20.5406 16.3502 -11.2717 136 93 40
-72.0959 -19.2882 -5.85605 110 82 44
-56.2752 9.13186 1.82698 70 57 36
45.8533 18.0723 -10.4487 82 62 37
53.5522 25.1164 -14.0877 124 124 84
-56.2621 -30.3893 -6.48193 32 25 19
-41.9849 -14.0368 10.2585 31 32 25
29.6313 -11.6775 11.8618 61 51 21
28.7766 20.9477 -11.9873 134 92 45
56.7959 6.6765 -13.0284 148 158 122
1.69521 23.8817 4.68664 49 34 19
4.61482 22.3881 7.87631 44 32 19
-12.8171 -5.28852 -11.688 138 123 64
-4.59134 -12.5718 -8.53196 92 92 55
-17.6047 -2.34163 -10.9049 143 120 58
-42.7406 12.9436 12.3407 43 29 18
76.4427 10.7217 5.82766 64 48 20
-0.536697 25.1584 2.23735 59 37 18
-54.5904 -33.5624 -8.10452 55 39 18
73.8713 12.3716 -6.42509 154 125 58
13.16 20.2901 9.65741 62 40 18
10.79 -18.8021 -10.6273 70 60 23
37.9448 -30.8186 11.3633 54 42 29
-22.888 21.4219 -9.9586 110 74 36
8.10275 10.4921 -12.6564 64 63 58
20.3039 -13.9543 -14.2434 92 92 64
47.3682 18.3324 -10.7485 151 103 43
-40.975 16.7733 12.3091 23 18 13
-0.51651 23.2697 8.20238 51 37 20
7.83376 23.5029 -3.98471 61 47 27
48.7047 24.5559 9.28014 48 32 19
-46.0028 -0.923965 -9.55226 143 106 46
15.6716 -20.0837 -15.9205 143 133 65
30.5641 -21.2853 12.5252 61 41 18
29.7761 -10.6519 -1.10082 76 76 45
33.4644 -32.7894 5.926 166 129 75
18.8197 -17.674 11.9742 58 44 20
-30.3273 19.177 13.3438 61 39 18
-14.6197 25.6327 -0.766935 76 48 23
60.5476 23.0976 9.46745 60 39 18
73.3658 16.6602 4.02723 69 42 21
21.3294 -1.21303 -15.9883 130 100 46
-59.9215 -9.43069 -4.46438 147 99 43
-41.9262 15.4608 11.8793 26 21 16
-38.4534 24.1915 2.29117 67 42 20
7.25397 -27.4983 -16.3924 45 34 16
47.8037 28.1083 -4.16534 108 71 34
-34.2227 21.9422 -6.6031 81 56 28
-34.179 22.2396 -5.51594 52 37 23
-61.802 -4.59754 0.472198 43 29 18
-34.3468 -25.563 13.9949 63 44 18
32.3337 -33.2618 6.9389 186 147 92
-5.94324 5.60503 -16.096 143 114 53
-15.6004 21.3102 -10.1229 97 73 43
5.4277 24.6208 1.3458 62 39 18
74.329 9.26451 6.96778 68 55 25
-68.0599 -18.8554 -6.49809 136 95 42
31.4478 18.1757 12.3235 56 39 20
-38.4137 24.2468 0.782112 60 44 27
2.84575 2.65152 -14.9035 139 129 78
46.9215 28.1319 2.66075 62 38 17
6.89058 -16.9364 -12.5269 52 38 19
-16.6985 5.54111 -13.5744 69 63 40
30.2462 25.486 2.22875 63 44 20
-6.07794 10.2689 14.9802 25 22 16
-46.3008 3.9524 9.50681 56 53 31
14.581 -5.61399 -14.6357 142 123 60
-48.445 -10.7474 -9.56946 131 86 39
47.5128 19.2005 10.5935 68 42 19
18.1547 -18.6676 11.5197 50 41 22
-65.6251 -12.9446 -0.694759 35 26 16
-83.07 -17.5293 1.61874 22 22 17
-45.736 15.6354 7.38251 59 38 18
41.3164 27.0732 0.259857 66 45 23
56.2118 17.2197 -14.8079 50 53 40
9.47185 -35.5728 -17.3029 58 49 29
36.9569 22.517 -8.1336 105 74 40
-61.9927 -23.334 -10.0358 131 91 40
42.8479 11.9466 -10.6202 156 128 56
50.4808 27.7463 -13.8568 61 39 20
-21.9569 24.6448 -2.00874 87 57 26
7.15184 0.391258 -13.0201 144 134 72
-44.9651 15.6034 -4.71835 85 58 29
-29.4289 7.33675 -14.1796 130 113 58
-54.4159 -34.0899 -8.76744 66 45 17
68.313 19.916 7.181 29 27 18
42.7893 13.3356 -10.5636 148 128 66
-38.4119 -26.9209 14.7212 39 30 15
61.698 14.0811 -13.1104 131 115 61
9.31593 2.8476 -12.0781 91 92 64
68.1159 5.84372 -4.40063 94 56 52
-6.1992 25.8498 1.00108 56 37 19
46.6297 6.3189 13.0988 63 59 33
70.3108 11.9629 -7.6235 135 143 102
-42.5281 22.9943 0.886658 78 55 35
3.60942 24.0029 3.82295 56 36 17
15.2033 23.1195 -4.26768 47 36 27
-49.5497 16.4911 -0.248528 160 113 65
19.5714 20.0866 -8.9964 158 129 94
56.6569 20.035 13.0264 58 38 18
76.9467 11.4271 -3.94802 95 82 38
-50.6646 18.8128 3.68023 62 39 19
-55.1137 -26.7166 -7.25256 66 61 40
38.6534 23.4091 -7.37236 36 32 27
14.6857 -14.5672 -15.7415 149 107 48
-45.1507 14.3392 -5.89933 96 59 29
-21.9781 16.1753 -12.7896 150 111 47
-27.543 -30.3034 11.9241 36 30 24
9.91209 20.8405 -8.29208 131 86 40
-54.4926 -34.5984 -10.6202 57 41 18
10.5955 -18.5306 -17.535 160 103 48
-14.2184 -4.53874 -11.2981 137 125 68
33.8452 -27.61 12.1536 59 38 19
32.9335 -32.7218 6.44009 196 158 97
57.9068 1.92212 -6.81356 111 118 91
-54.7087 -33.6629 -7.46168 58 39 18
56.486 2.52327 -10.1315 98 101 75
-12.5293 -3.0605 -12.6237 144 122 58
-85.9452 -19.199 -1.05559 59 46 20
20.1627 6.02695 -14.307 133 105 52
29.3529 12.8234 -14.3413 138 110 48
27.6505 21.4545 -11.9115 153 102 49
-55.1917 -32.5439 -7.34815 58 37 19
0.361328 11.1035 -14.7408 143 106 50
59.9823 27.2461 2.87717 26 22 16
12.353 -33.3425 -21.1633 120 80 39
64.4038 11.0292 -12.1511 136 134 89
57.8647 5.84137 -11.8798 139 150 108
-27.9876 -29.7912 10.8073 47 36 22
-44.2224 19.9285 6.33841 64 41 19
-18.5975 2.61094 -12.068 85 80 54
-61.0158 -9.98349 -4.49245 146 94 44
-59.369 -16.6434 -8.85172 148 99 46
-7.54482 7.1219 -15.9836 143 111 54
-48.4873 19.5625 4.81618 60 37 17
-54.7707 -35.8876 -11.8364 99 78 31
2.98596 13.6147 14.0923 62 42 18
-32.1641 21.6706 -7.62107 97 64 31
75.0856 17.1764 2.47864 58 38 17
-55.0671 -33.572 -9.87523 64 42 19
53.5744 2.29843 11.1039 63 53 26
50.2004 18.7864 -14.581 178 146 88
-45.1424 13.4555 9.16293 51 34 16
77.8765 14.453 -0.470453 20 19 17
-54.4236 -34.6856 -9.39683 70 50 23
-25.4899 -33.2104 14.2073 62 41 20
-84.0918 -16.7183 1.57645 23 21 15
-25.8307 -35.2356 14.8198 63 48 26
55.5322 29.7391 0.209597 57 39 17
36.7164 24.421 -5.98754 101 68 33
32.4849 -32.0506 6.97118 203 166 104
16.3033 23.658 3.47011 61 40 18
-16.1841 17.7717 -12.8136 106 83 49
37.6881 -32.0878 14.7453 54 35 17
50.6589 25.2147 -11.87 62 38 17
-4.33707 24.5253 4.60482 31 22 16
-38.6706 -1.57164 14.2628 57 47 22
34.0131 -0.226379 -11.047 44 43 38
27.6622 -17.3862 13.8689 65 44 20
-31.5795 9.11172 -15.1336 37 38 29
63.4913 10.7247 -12.2135 141 142 90
54.0813 12.4284 14.6797 69 51 24
4.46722 21.8388 -7.58245 116 75 37
51.9335 20.6076 -14.5388 169 144 68
66.1051 8.59755 9.05473 62 61 42
6.7702 -14.7757 -12.1647 39 34 26
-71.7273 -16.8996 -3.24993 19 17 15
-81.5924 -14.0244 -1.72594 99 80 34
-25.9107 -32.1601 14.1703 52 35 17
50.1384 29.3698 10.4763 74 54 35
61.4796 23.0377 9.22036 51 38 23
-31.9477 14.6584 -13.9172 119 88 45
58.1936 13.0726 -14.1968 127 107 56
-54.6452 -34.063 -9.9624 73 50 21
-14.4933 2.00462 -13.3089 85 81 56
-27.5396 4.99117 -12.9687 110 113 76
49.1364 28.3487 -4.59498 102 66 28
-4.84227 13.09 -14.3136 129 102 47
-1.65781 24.9801 -2.54628 95 61 29
19.686 -32.3463 -18.0437 64 49 21
3.63312 -5.52359 -13.2785 147 140 78
-30.6515 -34.3824 16.3404 35 31 23
-44.6796 14.4095 -6.39445 78 54 31
47.5938 16.0385 12.9543 59 37 18
5.95581 5.6567 -14.0456 145 120 54
54.1601 27.514 6.34642 75 48 24
-46.3672 -6.6407 -2.84103 59 46 19
-30.4155 -26.1483 11.0757 58 50 29
20.9712 3.56417 -14.6136 98 82 46
8.40768 -28.4939 -14.9016 49 36 17
16.6929 24.382 -1.93087 80 57 30
6.24734 23.1254 6.73998 47 32 15
18.5644 -17.1144 11.9985 60 51 24
35.9111 25.0744 -3.24994 94 63 34
-49.9268 14.2811 -0.540493 152 103 46
16.6149 -4.06229 -15.0038 72 69 48
76.2071 9.86842 -1.15498 52 46 23
49.0429 12.619 -14.9407 128 93 40
36.8808 26.0135 0.745415 65 42 19
32.8262 17.6777 -11.5423 135 108 66
62.4018 3.9473 -5.33056 149 164 135
1.11554 25.6546 -0.555126 73 49 24
47.4818 25.4764 -7.26834 126 80 35
-0.581497 21.2593 10.5252 54 36 19
-54.471 -35.1821 -11.256 62 47 21
36.4776 22.2657 7.52389 59 37 17
-53.9145 -5.72834 -4.80563 34 33 27
-27.171 18.7146 -11.7175 126 89 44
-35.8515 2.54727 -13.7099 124 106 55
29.1481 -9.47288 12.6629 67 59 25
-48.881 -17.4185 -10.2158 144 121 54
-41.1145 13.7195 -11.3175 78 59 38
-61.9794 -32.3177 -10.9571 127 87 44
69.2155 22.6523 2.78595 51 35 21
-25.0961 24.6808 3.86837 63 42 20
-41.3486 -19.6625 11.4747 56 38 19
-28.6008 -29.3418 11.4631 50 42 30
-39.6023 14.2959 -12.1101 129 84 38
26.7428 25.8184 2.08611 63 39 20
4.1752 24.6095 1.71378 62 40 20
-44.8285 13.5907 -6.86529 91 67 41
-40.4216 -21.943 13.6215 52 34 17
49.4753 21.6179 13.0426 43 29 18
54.6199 0.313934 -8.8771 95 104 76
-32.779 3.84459 16.3961 53 41 20
28.698 25.6137 6.6524 47 33 20
-53.1087 -10.3387 -7.85163 149 101 49
-32.9418 23.0935 6.5615 49 34 19
-27.2007 24.6622 -0.420349 98 64 32
33.1564 -2.72943 -10.4002 142 145 94
9.59412 -18.2341 -16.9009 136 87 39
-38.7821 16.0399 -11.2733 91 67 37
-31.8377 13.1847 16.0576 56 40 20
64.6587 4.68719 -5.15304 160 165 118
-54.5695 -8.14023 -5.99048 35 35 29
-0.932358 -6.91516 -13.9478 148 134 71
22.6969 25.5186 -0.712759 56 37 17
-41.6389 11.3437 13.2915 54 38 17
-49.7565 0.218804 -2.40866 27 26 24
-39.929 17.3414 -9.33664 109 73 36
5.13181 19.9468 10.5959 48 34 20
26.5851 25.491 -7.07189 57 40 22
36.4312 -30.2786 7.71529 50 43 25
-53.8297 4.9287 -1.09427 160 105 49
9.70111 16.4102 -11.0294 148 111 50
64.5375 19.0153 -10.9089 79 61 38
35.1558 25.5261 -0.216818 52 35 17
12.6447 20.7163 -7.76126 39 38 33
-23.8013 -34.6677 8.03167 138 106 43
-39.6943 -29.5744 12.4736 28 29 24
2.66698 18.804 11.6227 64 44 24
25.3319 -4.29456 -14.0041 59 61 51
64.4227 25.5551 2.09574 44 32 20
-55.0309 -33.9824 -12.3642 111 74 30
-55.7833 -33.1878 -9.73592 81 51 26
-43.6025 8.76174 -10.9495 45 35 32
23.8841 5.30792 -14.7205 128 117 65
17.8842 19.1425 10.566 62 39 18
42.5484 23.3578 6.77069 24 19 16
-56.2325 -2.54183 -2.62299 161 111 47
54.1862 29.5073 9.43165 74 49 26
-10.478 12.8606 -14.6712 148 107 46
-64.2559 -31.7278 -4.82367 22 20 13
-32.5544 22.8953 8.97055 38 27 19
24.6899 -11.2516 13.5007 58 39 16
53.2421 27.9045 7.3378 118 73 34
28.5 -15.795 8.36738 185 184 119
-36.4338 -29.499 15.1502 42 30 15
20.1352 -17.4899 -12.343 35 35 28
14.2929 20.6043 9.16061 46 33 20
-61.9702 -5.43132 -2.00908 61 59 49
69.5436 6.67586 1.45628 107 76 69
71.8338 18.0656 -3.36364 151 109 45
31.7936 -7.98779 -5.70022 98 104 72
75.2775 12.3214 7.00675 62 41 20
75.5462 17.0863 -2.55234 122 81 35
26.7524 7.49253 -14.6836 138 108 52
-11.6195 6.36739 -15.3818 148 121 59
32.2971 -2.11453 -11.0167 132 137 93
24.9446 -10.0487 -7.33535 99 102 72
21.5785 1.88373 -15.1263 61 53 34
-54.5462 -34.5058 -11.8428 91 65 28
-49.0615 17.9907 5.60529 57 37 18
-42.866 22.7206 3.96056 68 44 23
-10.6131 22.2842 11.0284 21 20 17
57.6149 6.49272 -12.4419 146 155 117
-8.88748 -4.37105 -13.4416 144 129 63
57.5938 24.0505 10.9183 60 38 17
-35.0053 19.8868 12.3069 40 29 19
-32.8028 -4.09427 -12.1754 134 136 94
-11.675 14.9204 -13.9033 152 105 48
-0.406555 24.5262 3.90336 59 39 17
-23.06 25.0052 -0.926824 91 60 27
-9.58112 -6.31517 -12.7653 141 133 70
-52.5285 -18.5481 -10.1625 140 103 46
60.4528 24.8484 7.48829 59 39 19
-40.7018 2.09083 14.5023 51 36 16
-28.4665 22.3576 10.2683 64 42 20
-51.3356 15.8033 5.32342 59 37 17
6.92706 22.5843 7.68447 58 38 17
30.7132 -26.8621 13.9869 60 39 18
24.6118 25.3876 -5.22341 60 44 27
-51.5914 -17.8136 -10.1651 140 101 42
-50.6367 16.5121 5.43677 61 39 19
40.3894 -35.4444 9.60741 59 64 50
-36.075 15.3495 -12.9085 132 90 41
10.6965 -15.0607 -16.3822 148 100 47
-41.7271 -5.22451 -12.2335 75 61 35
46.2019 16.6077 -11.0473 61 54 36
-34.1041 17.2459 14.4487 23 19 15
72.106 19.3881 -0.0184612 61 42 25
-11.1008 -10.3934 -8.17685 111 111 63
26.1938 25.0148 -8.26048 85 57 27
-54.0394 -7.37766 -3.52178 144 143 129
-48.9009 19.7967 1.47363 79 63 43
18.3338 -30.3781 -14.2359 43 45 36
55.2677 10.7719 -15.1647 129 119 72
-9.50743 23.9405 7.73876 58 38 17
-53.7031 10.6138 0.449894 156 105 50
-10.505 -6.81486 -12.1777 145 135 78
-11.0837 20.9687 11.8359 35 28 19
14.0458 18.9482 10.6187 50 34 19
27.3533 17.2947 -13.6934 152 109 46
52.5401 25.4927 -15.1962 120 117 80
-34.6543 -33.7469 10.4479 135 94 44
-43.466 21.1385 5.8126 61 39 18
-50.7276 17.1021 1.05523 111 71 35
-13.5613 -4.28356 -11.7692 148 139 79
25.7718 25.3866 7.48197 57 38 23
-58.2289 -4.18777 -2.79847 146 92 44
-10.1538 25.9441 1.51718 64 41 20
31.9574 19.7116 10.7957 29 23 15
54.0506 28.168 -6.71849 97 64 31
28.6402 -4.73487 -10.9303 131 140 98
-22.5925 24.2095 7.18924 62 40 20
68.8211 -0.527462 -1.24783 100 103 75
55.803 27.9311 -6.97322 110 71 32
59.9806 16.0334 -13.3277 55 52 35
-28.8328 21.916 -8.04853 72 51 27
-16.3407 13.3075 -14.1275 146 101 44
-46.6178 11.339 -4.04692 57 38 19
25.653 25.6361 -5.13835 52 37 24
-39.4369 20.7982 9.0112 28 21 15
-46.0198 11.4265 -6.64482 100 68 31
-34.3717 22.0018 9.62885 47 34 22
-18.0019 5.83616 -13.1976 142 111 46
-57.8217 -13.6408 -6.08809 27 27 21
29.7582 23.6196 8.99907 60 36 17
-59.2402 2.08736 2.44477 51 34 16
62.5653 16.8441 12.7482 34 26 18
15.9873 -19.3604 -10.7755 68 63 29
-10.1083 9.77517 -15.4151 72 57 39
69.7057 -0.3633 4.65361 60 35 20
-38.817 17.6178 -10.0084 92 66 36
-6.32111 21.2459 -9.94725 95 72 39
-3.82135 3.34402 -15.9611 139 111 56
-28.7158 -31.0139 14.4077 41 28 16
-14.0866 23.8024 -6.9497 91 65 31
-79.6231 -16.9232 -3.65125 97 76 44
-10.9312 -3.22467 -13.2658 119 98 48
33.1194 -22.3205 10.6037 26 25 22
49.0349 28.8582 2.49481 68 45 20
-30.7434 -12.4595 14.9941 20 19 16
-44.8733 9.94322 -9.81906 112 71 35
-79.8686 -18.7169 -4.52609 108 79 42
-17.3917 25.8689 1.0112 60 40 20
-71.2188 -19.5005 -6.23511 132 95 50
26.9771 15.0328 -13.9828 124 96 48
-44.9109 8.71909 10.661 51 35 16
-7.36057 1.25967 13.6621 57 50 24
-31.5361 17.732 14.4378 65 40 19
52.98 28.8323 -5.05061 96 61 27
-62.1383 -16.6681 -7.85419 91 85 45
71.3959 18.8904 -2.74114 104 69 31
36.2636 -3.27958 -8.58503 117 124 84
38.8722 23.8045 5.67905 64 44 19
55.6744 28.6455 3.16011 60 38 18
14.7182 -29.8143 -17.4975 152 111 45
39.2163 -32.1013 6.17855 100 67 30
32.8223 -29.6724 13.6742 62 41 18
61.4262 25.3743 -7.50501 95 64 29
67.7357 19.5977 8.03553 34 31 19
-48.3182 2.69969 5.13546 46 38 23
-20.3356 25.5413 0.409079 63 42 20
-52.2553 5.44059 5.86892 60 39 17
22.569 -2.05553 -16.1783 124 108 57
-30.8976 22.0374 10.496 64 42 19
-5.25891 -12.2401 -9.33796 98 98 55
-38.8711 -3.96525 13.0945 47 44 25
72.8158 15.9732 -4.57171 106 67 31
-55.5472 -20.2096 -10.7215 141 111 46
35.7621 -2.48256 -9.41016 129 132 94
18.7094 24.3955 0.694309 65 40 19
-28.4412 22.9499 -4.76752 41 32 22
24.9927 -0.995605 -15.5553 111 102 58
-36.9221 23.7102 3.58302 69 44 20
61.1266 11.7936 -13.2646 69 72 59
72.7664 12.4877 7.98299 59 37 17
32.2005 -8.38419 -3.97332 92 97 64
-42.5907 -14.9383 9.43527 36 37 30
28.8867 23.3845 10.0471 66 42 20
6.99115 6.9538 -13.6623 94 85 50
-4.38382 15.7278 -13.1461 95 72 40
32.6163 10.216 13.4547 44 33 18
25.1857 -12.0491 4.83088 118 124 83
