ply
format ascii 1.0
comment Created by Open3D
element vertex 1381
property double x
property double y
property double z
property uchar red
property uchar green
property uchar blue
end_header
76.8177 13.8047 -3.6855 124 102 46
-59.1687 -31.0966 -9.70533 150 116 52
-49.453 11.3378 -0.398666 170 138 78
41.5823 18.1168 8.92614 64 42 19
-33.5914 -25.5453 8.47429 137 121 55
-14.9619 23.8966 -5.50055 29 23 18
53.5298 26.3705 -14.8504 122 120 79
-49.9493 18.3562 1.21507 121 78 41
31.317 10.1212 -14.0778 88 77 39
-58.6239 3.18676 1.01122 71 64 49
-10.8826 -0.802109 12.1935 59 48 21
-57.2463 -15.378 -8.5122 145 99 45
-47.1104 9.02457 -1.67948 52 43 26
-10.9139 -2.43704 11.673 61 49 20
4.34337 13.1805 -13.5533 143 108 48
-30.3618 -1.13158 14.7962 49 47 31
10.9512 -19.49 -18.0349 138 97 39
-18.4232 24.478 5.74343 50 35 19
38.6325 -32.1946 5.38139 98 64 30
-61.7493 -34.6433 -11.8046 89 64 36
-77.5489 -17.428 -1.01764 22 23 21
-38.9096 -2.71822 13.7072 63 57 34
-22.0541 -2.06903 11.3954 67 62 32
58.104 26.4976 -8.40379 112 74 35
40.9137 27.5038 -1.80171 58 39 23
-36.9323 1.24209 15.6266 32 27 15
25.0882 -9.85052 13.2287 30 24 16
-33.2499 -26.9007 13.5735 60 40 19
-48.2959 -11.6432 -9.96665 128 80 35
-46.6121 10.3677 -2.39198 56 42 20
-29.6637 -2.56548 14.4916 45 42 24
7.68237 23.4318 5.01301 52 33 16
-48.8432 7.27086 -0.494049 110 92 52
26.1926 -12.8514 13.5224 59 39 18
54.965 1.54428 -10.4326 137 153 111
21.4294 25.2436 -1.78551 55 36 19
-17.1979 6.92576 12.2232 59 49 24
2.89638 14.3911 13.8192 61 40 19
-40.7856 19.8574 -5.05592 42 32 21
-48.976 2.64285 -7.34708 79 60 36
61.6017 25.6395 5.50908 49 34 17
-63.1529 -7.69158 -2.10112 53 44 32
-65.5366 -16.4756 -0.416855 40 31 17
-40.925 -14.0133 11.1822 39 31 20
72.4538 18.9222 -1.95453 83 55 27
-23.6287 -8.54095 11.2372 64 62 31
29.2063 -10.8902 8.38787 145 144 91
19.1816 -31.5688 -16.9084 56 40 19
-38.9977 10.4806 15.3688 32 27 19
19.0285 19.8869 -8.76071 69 48 31
8.47171 -28.6204 -18.931 126 82 37
25.3374 25.7491 -4.01357 71 48 25
63.7931 20.8283 10.5013 30 25 17
69.6264 22.1648 0.755196 128 95 48
72.9275 17.7795 -3.08982 148 105 46
42.2385 24.3004 5.27737 62 39 18
-54.3305 -34.708 -8.79438 55 41 19
28.1253 25.9147 0.182024 54 35 17
-62.2975 -34.8369 -3.02871 19 17 14
-38.0866 -29.6021 10.217 120 84 41
-14.0268 0.951926 -13.2697 64 56 35
-64.2969 -16.5158 -0.357658 47 37 17
2.99575 12.233 14.5132 63 43 21
-7.58611 24.1604 6.7095 55 38 17
0.88385 4.05132 15.1747 58 47 22
1.1104 24.4827 -3.11197 102 71 33
77.2213 14.2168 4.31003 42 31 18
-42.8932 -10.5309 8.71517 78 72 35
1.45454 -5.61966 -13.8549 142 141 87
-48.6237 1.57065 4.80646 42 38 22
27.6107 -1.37582 13.4624 16 17 14
7.22932 -17.3835 -15.1542 111 75 39
21.8342 5.2318 -14.5352 127 104 50
-2.62372 11.3804 14.9991 30 24 15
72.0215 12.8255 -6.91578 150 121 55
-45.9191 6.28525 9.91374 48 39 21
-34.5141 21.244 -8.01428 106 69 31
11.6466 20.7473 9.34328 60 39 19
-36.0152 -32.7328 15.575 29 24 14
-33.2912 2.29204 -13.7794 136 115 56
-36.576 -31.3666 15.3296 31 24 16
6.84456 -19.513 -14.8175 68 50 28
65.2216 16.105 -11.7997 148 139 93
32.6973 -27.7543 13.1047 65 43 21
-55.0712 9.00659 0.739067 141 95 45
50.2535 7.63499 15.106 61 48 29
35.3833 -31.2945 13.7006 57 37 18
-40.6709 6.7763 14.852 56 38 21
-50.077 0.638502 -3.69846 40 40 33
-61.2567 -35.9904 -11.6909 82 61 37
-46.4473 21.1534 4.34217 65 40 20
-47.5991 -4.51869 -8.89395 78 62 43
-16.5542 24.6515 -3.66208 80 53 25
-44.4467 9.01184 11.1703 52 35 16
-8.12851 1.26989 13.5061 60 53 26
69.0016 6.28256 7.40285 53 35 31
-32.6563 10.592 -14.8894 60 51 41
13.7714 -0.312111 11.9094 31 28 18
53.5649 1.35326 -11.1311 127 134 95
66.4834 22.7432 7.89034 22 19 14
-0.625824 17.5192 12.6904 52 37 19
-59.5161 -8.65779 2.12144 53 37 18
-54.6251 -34.2804 -7.49039 61 43 20
52.7854 29.8817 -2.54597 79 51 24
-41.4807 10.8133 13.3616 50 36 18
53.364 14.6513 15.0995 58 40 20
-19.1407 24.3869 -3.73105 85 58 32
-9.52402 2.68641 13.6545 55 44 22
21.5489 -8.25411 -14.6466 137 113 58
-50.1413 9.88457 6.23735 62 42 19
-39.9711 -27.1675 10.4889 95 74 41
-64.1847 -27.006 -9.06295 122 88 41
-58.7312 -30.3438 -9.14111 149 113 51
34.4849 -31.0727 5.51102 117 86 38
-48.5011 -17.9062 -10.1327 147 129 66
20.1612 23.7018 6.89408 59 39 18
-33.4155 -24.3089 8.45103 154 137 70
-13.2242 12.7842 14.0898 55 39 17
-31.0721 17.3555 14.7318 61 38 17
1.2547 10.3765 -14.9331 108 90 53
12.183 -4.12702 -13.8911 134 93 40
-32.9928 -14.2741 14.8456 56 43 19
-66.7596 -24.4683 -7.15726 69 65 44
-40.2318 -21.1486 13.3323 54 34 16
-66.6278 -32.7453 -6.57077 21 18 15
67.5859 10.0905 -9.32197 78 81 62
33.4058 14.3456 11.8522 26 22 18
-55.779 -32.0524 -7.85064 73 50 28
30.2955 5.6899 -13.8852 36 40 34
21.5031 -11.5605 13.0575 61 43 18
-8.50447 17.1049 -12.8635 69 60 44
-38.6214 9.14259 -13.8513 151 108 46
16.2835 24.12 1.2489 63 38 18
-23.9695 24.6042 -1.38216 81 54 26
-21.7869 15.5584 14.1057 38 31 20
29.7631 -14.0593 11.4807 60 48 23
1.02299 3.63873 -15.4676 56 54 36
-55.7308 -17.1637 -9.57259 131 84 37
-38.6285 5.01151 -13.7091 70 64 40
-27.6533 11.8448 -14.1411 65 52 37
55.3504 20.2668 -14.9234 65 60 38
-15.6884 8.66072 13.0137 55 49 23
-46.7912 -14.0304 -3.37161 65 51 23
22.9054 11.3763 -13.9768 106 83 45
9.46786 24.2481 2.07014 63 38 17
19.5986 -32.6402 -20.0648 83 62 27
30.0378 15.9604 -13.744 47 41 31
-33.8179 24.3676 0.00823212 70 46 23
-54.57 -17.4063 -9.77615 137 90 40
-9.27051 -0.541472 -14.7346 141 139 77
-23.9833 -2.11037 13.0218 63 53 27
16.0333 -3.78416 -14.81 72 58 41
39.6504 -33.9408 4.4923 110 80 34
32.1877 0.538345 -12.2461 86 83 53
13.4825 -31.9662 -13.7216 60 44 19
-39.8016 -0.0823984 -12.2943 103 85 47
-42.5687 -14.0428 9.43636 40 40 32
-76.1797 -18.7013 -0.588417 16 16 14
68.5536 14.4629 -10.0163 141 129 64
15.6296 20.1575 -8.07579 144 98 45
-15.1553 5.35681 -14.33 90 88 63
-46.4975 14.33 -2.26079 118 84 37
29.864 20.6961 12.0168 64 42 21
67.9311 8.91678 -6.00526 127 110 90
65.1226 25.793 -0.690842 40 29 20
49.2541 4.01719 13.9743 62 56 36
-24.2632 16.1002 14.479 21 20 15
-15.5939 12.4782 -14.3588 141 103 41
53.6978 13.9726 -15.4785 98 94 66
-58.7519 -25.06 -4.20875 57 43 18
-13.6138 17.4922 13.4256 61 42 19
-58.5051 5.10897 3.0021 48 33 16
47.1686 13.2065 13.7461 55 37 19
59.1543 27.1729 4.85373 31 22 14
30.3354 -0.469887 12.5844 63 50 22
27.4025 25.8409 5.0472 50 35 19
65.4032 25.0318 4.7029 50 33 19
-43.1992 12.6667 11.833 50 34 17
-11.4863 2.31139 -14.7826 142 109 48
26.7709 -28.9765 13.3953 55 44 19
67.6123 9.27315 8.44631 74 74 52
34.552 -32.9288 4.89636 140 94 48
-34.0769 -30.2124 15.0952 52 37 19
-25.7806 12.3213 15.3602 59 45 24
15.5929 -8.44121 11.2235 59 42 20
1.54681 -3.14048 -14.2469 138 138 84
55.0922 19.1607 13.951 60 37 17
70.1859 17.801 -6.8969 91 80 44
55.7618 1.8674 9.2456 66 59 31
-38.9846 -19.4747 13.5505 55 35 17
-45.7419 21.3415 4.55322 61 39 18
-85.2276 -12.3002 -0.28191 37 30 18
-8.40466 18.2365 -12.3771 45 42 37
-57.4902 -30.9088 -5.54383 43 32 16
15.5712 -0.747419 -13.9893 142 96 45
-45.2281 -1.44484 -9.8303 140 105 47
63.5345 22.0857 -9.90713 142 97 44
31.1503 2.4043 12.823 49 46 27
28.1255 25.8761 5.73733 20 17 15
49.3911 13.8019 -14.9893 114 80 35
26.5513 25.8204 2.10513 62 39 20
35.689 25.7003 0.0857267 57 39 19
-13.7804 24.1164 8.90427 30 23 14
64.5028 21.5737 9.80885 22 20 14
61.5621 17.5564 -12.5643 87 73 54
68.9873 12.7505 -9.68866 123 124 86
-31.3447 -23.3664 10.3831 84 71 33
33.9439 9.60603 12.4249 64 46 20
24.3714 -9.18526 -12.9079 103 108 73
71.8171 17.3092 3.76899 71 45 23
-29.9827 21.6457 -7.58268 28 25 19
34.9339 -31.7467 4.97363 127 89 38
8.15123 21.6673 -7.78476 80 64 38
-18.0568 20.4945 12.0612 58 37 20
30.0428 6.71646 13.8088 57 48 25
-11.3454 -1.24287 11.8888 60 48 20
48.5769 23.8047 10.3323 44 29 18
-65.7925 -34.4692 -5.74421 18 17 14
-83.1261 -20.2062 -3.79457 142 100 45
-23.859 -32.1693 9.25671 102 69 31
-70.7609 -23.9092 -2.43128 53 49 23
-6.08452 16.1435 -13.0546 145 103 49
-58.3492 -31.5137 -9.23526 110 85 38
49.2581 8.83006 15.5328 54 39 23
-49.4135 3.84744 -1.11435 68 69 57
-56.2666 -28.452 -6.44413 45 42 25
-3.21622 -7.89011 -13.5703 139 117 61
-5.10387 22.5049 -8.22451 38 36 31
-44.9847 20.5634 -0.170226 111 73 36
16.0079 6.76959 -12.7662 204 160 114
-35.6804 18.6515 -10.7455 120 81 39
48.7223 5.82089 14.9625 54 41 28
-0.255783 23.7905 6.89195 35 25 17
46.7967 12.9459 -11.7274 132 112 61
-21.3616 17.3273 13.4915 31 25 19
-46.8137 -12.52 -10.9841 144 102 50
2.65904 5.58438 15.2516 17 17 14
-43.6591 10.0265 -10.5068 105 78 52
31.8922 -0.894653 -11.7532 137 136 83
-82.6543 -11.8 -0.88438 77 59 29
35.5511 -5.14477 -6.8289 110 118 83
-55.5497 -34.1424 -5.4381 56 38 18
-12.7547 -0.916718 11.5256 57 44 18
4.70908 -5.68947 -13.0331 147 136 69
45.6512 28.4545 -2.6153 96 62 33
53.4857 21.5396 13.3495 67 43 20
-25.9684 21.629 -8.87767 101 70 35
37.032 -33.2768 3.50346 141 95 44
47.5307 12.6626 -12.5916 63 54 31
-48.2066 8.38966 6.49979 48 41 21
-42.255 -1.84991 12.6904 52 45 22
-54.733 2.56903 5.21516 60 43 20
-39.8549 -23.037 8.93191 119 88 39
58.282 13.7387 13.543 25 20 14
76.8667 12.6045 -4.09977 120 107 54
24.0714 -0.108093 -15.8412 84 67 42
36.0615 -2.87387 -9.00001 126 136 98
17.3184 5.90193 -13.6893 149 101 44
22.9834 -11.8436 -10.8378 57 58 35
-65.9265 -33.9374 -9.14662 75 56 33
-20.3703 25.4931 2.21818 63 41 19
-65.6697 -36.0723 -6.63679 27 24 16
-66.3776 -30.7872 -6.08818 23 20 15
74.1924 7.96655 -4.19801 96 94 70
24.0336 -11.1848 -6.0601 100 105 69
76.3757 9.93355 -2.13146 49 45 24
4.12855 19.2097 11.0326 20 17 15
21.6509 -23.3505 12.7799 52 40 20
32.7921 -1.4973 -11.1457 134 136 89
8.01669 -30.1576 -15.5562 44 32 14
-40.3762 -0.0393281 -11.7969 56 47 33
-24.6044 -31.4055 11.5678 45 32 19
-8.69104 -6.35301 -13.0288 152 135 72
-27.9848 -16.5356 11.5276 61 59 30
35.0681 -29.9206 5.63309 134 98 38
28.9912 -22.149 14.1473 64 42 21
-58.0765 -7.24213 2.66917 59 43 23
5.95798 19.8166 -9.75197 43 40 32
-36.6579 -11.5556 6.27211 142 121 61
50.5691 23.6374 -14.8452 128 87 39
76.7456 14.763 -3.15821 129 90 38
0.431168 16.3624 13.3054 40 28 17
26.884 25.5797 -6.37509 49 35 20
-17.6538 8.50186 -13.656 53 47 34
18.0232 3.4589 12.7023 39 34 20
52.7764 1.7033 -11.8332 120 125 87
-31.8291 18.4856 -11.2613 68 55 34
-57.5878 -31.3506 -8.12121 114 90 40
8.01054 -28.0269 -15.1574 46 35 17
33.7444 23.7781 5.43133 61 39 18
17.4892 -24.3846 -15.7686 71 66 43
33.7304 23.4738 5.98798 57 37 18
66.3755 24.1007 -1.88908 69 48 23
-39.851 20.4703 -5.27743 65 45 25
-34.5999 10.412 16.2982 58 39 18
-16.5488 25.7119 -0.128887 70 47 21
75.9496 9.77621 1.41566 79 75 47
-35.0482 -34.1265 10.8111 131 94 44
-59.9929 -30.6799 -10.1752 152 110 54
31.6005 -4.14219 12.1558 20 19 16
-38.6652 7.82205 -13.8609 141 99 44
-46.5887 11.383 -3.66459 56 38 19
-19.1207 23.4787 -6.69686 55 40 25
70.3564 10.3436 -6.72031 149 153 111
-55.0626 -33.0341 -8.62471 80 52 24
5.58342 -9.85912 11.3368 63 51 25
69.2272 2.42489 -1.98087 77 45 35
19.2115 -8.85735 12.7755 56 39 19
-7.85944 -12.1904 -6.75465 98 98 58
-40.5445 23.8863 1.78169 61 39 18
-43.7039 3.15062 -10.8612 142 94 41
34.2113 -30.4288 6.08472 122 94 42
-15.779 22.1306 11.2929 17 17 14
64.9155 24.7144 6.07133 39 28 16
-32.4006 21.9438 -7.03168 99 66 32
14.6396 -6.8441 10.4015 63 48 20
17.3616 -3.19881 12.6277 47 37 20
34.2835 -4.65154 -8.59304 139 148 98
-30.8338 -29.591 9.60891 152 128 54
-27.0435 12.1714 15.5499 64 45 22
-31.2971 17.9317 14.2579 62 41 19
4.52179 -1.29012 -13.8867 138 124 64
34.5047 2.15299 11.3797 61 55 27
-31.5155 23.9804 3.30723 64 42 19
3.40968 21.6044 -8.09778 109 74 32
-45.3546 10.879 -8.08916 38 27 22
28.6779 -26.6055 7.22636 158 140 65
32.5812 9.16757 -13.157 144 119 54
-54.1001 -25.1452 -6.8019 45 42 27
-2.82953 15.4427 -13.2151 111 81 46
53.9567 29.4319 -3.92352 91 58 31
55.7636 9.40488 13.6642 62 48 22
22.7848 25.6027 -1.76951 53 35 20
49.92 4.51502 -14.0243 120 106 60
-65.1212 -28.1667 -8.64283 115 86 42
64.0139 25.4108 3.20005 26 21 15
57.37 24.9851 -11.0087 90 56 25
-36.9259 0.2145 15.1063 18 17 15
-40.4976 -4.25147 12.5127 57 51 26
25.4538 -8.05318 -11.8757 93 96 67
68.4792 1.08591 5.89146 58 33 19
-44.0683 17.021 -4.32061 93 61 31
12.2949 -20.6528 -18.11 137 116 57
-51.134 17.0803 1.37856 102 68 38
17.255 -10.6452 12.6293 53 36 17
33.665 -4.10663 -9.30205 148 159 107
-15.3759 2.02027 -12.9223 137 122 65
46.612 7.62164 14.2343 38 32 17
36.8103 15.6946 10.1111 24 20 16
-9.20219 -3.84013 -13.4909 148 135 71
-50.0685 -8.08194 -8.44927 156 109 48
-21.7159 24.6594 5.43451 29 21 16
-67.0874 -19.3926 -6.70176 135 92 40
45.234 28.8823 -1.36509 53 40 24
-47.388 14.7431 -1.61174 162 118 51
22.229 24.9742 5.75824 59 37 18
45.9552 10.5749 12.4612 48 39 22
-3.17952 5.14668 -15.914 126 99 49
58.8007 27.8342 -5.67923 75 53 30
-30.5337 -0.0619812 15.0718 40 36 22
19.4206 -8.21138 12.8283 55 38 18
25.4467 14.8071 -13.7875 146 107 51
24.7394 17.8604 13.3141 58 41 20
-44.771 -3.70929 -10.2049 137 101 46
-25.0176 11.0492 15.3048 52 46 29
18.7951 -34.637 -13.8012 61 46 19
-6.2729 2.45698 14.2044 51 41 20
-0.679474 -7.86227 -13.8551 156 136 80
22.4857 -12.713 -13.3945 122 127 85
46.6297 6.3189 13.0988 63 59 33
39.9554 25.9767 -3.71951 97 65 33
-21.3243 16.635 -12.7112 139 108 47
-58.1472 -30.8428 -8.63259 127 98 39
31.124 -21.6928 12.204 57 40 19
-44.0354 -1.08926 11.2568 50 41 21
47.5948 17.6852 -11.0744 142 95 43
-58.4689 -33.9092 -12.6457 95 65 37
-55.2855 -9.50854 -6.06624 34 35 29
63.2085 19.6021 -11.3649 138 108 53
-14.0901 -7.58212 -9.25317 124 124 73
17.5832 21.8272 8.18208 54 36 19
19.0593 -2.33316 13.6187 49 36 18
54.9241 10.2849 -15.0688 97 91 54
19.9597 -21.6445 11.9943 54 42 20
-23.8829 20.0167 12.6666 65 41 18
-67.0381 -21.9204 -6.73918 133 115 54
-46.6696 2.09404 8.13549 60 56 32
54.0506 28.168 -6.71849 97 64 31
53.227 6.12483 13.1148 69 65 37
70.3018 18.7728 -4.5584 89 83 49
9.72729 -12.6738 -15.6921 148 111 47
0.156502 12.0289 -14.4308 131 100 49
76.6412 11.8895 5.84243 62 42 18
29.0084 25.5906 2.5324 54 36 17
69.401 2.92562 -0.385914 53 30 25
49.0027 9.46955 -15.3201 191 157 111
-39.6044 19.8895 -7.02339 95 64 30
30.6367 24.9734 -1.73119 58 39 17
-23.981 22.1497 -8.22713 30 27 24
15.9564 24.7834 -0.873964 48 34 19
54.7403 17.5253 -15.4082 117 109 61
-34.9418 19.5892 12.5196 26 21 16
-43.3838 -8.15245 -2.27614 68 63 35
-56.3723 -31.0246 -7.09603 45 45 40
18.8668 -20.6135 -13.252 35 37 28
65.4014 24.5633 -6.50768 67 44 20
14.0068 24.7871 -1.06789 62 46 24
-6.03743 13.5065 -14.1515 129 98 45
-56.4058 -30.3873 -7.07726 52 53 48
28.7207 4.73116 -14.3171 134 119 61
69.5119 12.9597 -9.07824 116 117 74
-6.98915 0.383729 -15.5059 56 55 41
23.378 13.3787 -13.5973 85 64 41
13.9277 -17.1603 -16.9985 146 119 56
-61.0747 -4.95924 -2.13635 145 121 98
-54.0801 7.75452 5.58599 56 37 16
45.7084 11.1873 12.0965 40 32 17
-36.0211 23.7346 -1.08481 95 64 31
-12.2062 -2.66929 11.2473 59 46 21
-28.8172 -28.8148 12.6594 29 29 23
-35.7095 24.0163 2.83235 67 40 18
53.8263 12.4741 14.8059 67 51 24
-57.0002 -31.1957 -7.60295 77 64 39
19.4985 14.2162 12.0498 60 42 19
-50.2191 0.428673 4.02296 39 38 30
-65.0638 -28.3255 -4.94883 25 21 15
24.7704 21.5977 11.9686 24 21 17
34.1155 -32.2554 5.43271 160 126 74
56.6375 2.59486 -10.0046 90 93 69
8.97768 -6.69347 -12.7182 113 75 33
-55.5293 -32.0716 -6.65451 63 43 18
69.4928 12.1335 9.55005 23 19 14
-40.5923 -27.3543 11.8918 41 42 36
28.7661 24.9321 -7.3395 83 53 24
23.3694 10.5446 -14.1821 57 46 35
-43.9444 -2.07255 11.0208 50 42 22
33.7453 -31.5957 5.98524 128 96 38
35.5621 20.4604 8.89016 63 39 17
-0.521637 15.8043 -13.0003 126 92 48
-12.3843 -2.08414 11.3386 60 46 21
-68.9262 -17.6138 -6.01021 116 78 42
-36.379 18.8579 12.6424 63 42 20
29.1331 -17.3913 8.18933 172 150 72
6.22282 10.5554 -13.6293 79 70 44
-61.5368 -6.59141 -2.68939 117 79 48
1.79573 11.4347 14.7019 49 38 21
-85.3319 -16.8096 0.97023 28 25 17
2.77391 24.0364 3.28415 61 40 19
-15.7292 3.93908 11.4384 32 28 18
28.8242 20.9804 -11.9564 134 92 44
-57.0258 8.77088 2.72482 50 35 19
14.6387 -31.9173 -19.6959 69 44 21
40.2348 -33.1835 5.71624 117 81 35
26.5711 -2.83533 14.0327 55 43 22
28.3706 16.1879 13.8992 59 39 19
37.3198 21.023 7.97095 67 43 21
-53.6004 11.2948 0.650147 138 91 42
10.229 -16.6307 -16.6508 164 108 51
-39.824 -7.49832 11.6299 54 42 18
-56.5515 -29.1448 -7.0256 63 57 36
63.5306 15.176 13.0447 56 38 18
-42.0196 -15.8929 8.68781 73 74 62
53.7663 29.0364 2.87766 64 39 19
-39.3279 -30.261 13.3307 30 28 21
54.1983 19.829 -15.224 47 43 35
57.2816 7.6508 12.7042 67 58 35
7.52032 -33.2682 -18.0425 62 40 19
-12.9303 -2.49498 11.0792 60 48 20
4.85086 24.9525 -0.192305 54 37 19
59.6722 18.8233 -13.1382 137 110 50
21.6171 -14.1144 13.4529 59 38 17
-17.4747 12.2826 -13.9966 98 78 45
61.0041 27.0667 2.29652 35 28 18
70.0183 18.9812 -6.70092 20 20 17
-84.0798 -16.4138 1.57406 22 20 15
46.4547 9.42136 13.789 55 46 28
30.199 -12.899 10.6082 54 51 28
-8.53984 0.287216 13.1784 59 51 25
-34.3563 -0.225214 -13.6551 73 69 49
-10.2195 -0.948273 12.4045 62 53 25
8.97845 3.18157 14.1353 61 47 21
31.6195 -6.2565 11.3024 62 54 24
-60.6562 -22.1528 -10.5918 125 82 39
-47.8417 20.2101 4.56734 59 37 17
24.4569 -21.308 14.8988 53 39 18
-29.1472 10.4065 -14.5716 106 89 50
44.2026 8.89716 10.7229 60 43 22
10.9428 -27.6538 -18.9018 137 115 54
10.1221 -21.7862 -11.4718 64 51 23
16.3151 23.823 2.38073 58 36 17
54.6991 29.7971 -3.00908 94 63 30
53.3952 27.7581 7.15693 114 73 35
0.832718 6.10099 -15.5448 131 102 52
32.9848 24.7721 4.42356 59 39 19
-40.2598 -21.9966 13.8784 50 33 17
-68.6316 -19.8245 -6.66232 144 99 45
-53.3399 -16.5392 -9.73598 135 90 41
-21.6225 4.44565 12.8153 70 64 38
48.7047 24.5559 9.28014 48 32 19
12.4557 -9.19224 -15.2 92 88 55
30.3471 -10.2912 10.0102 80 73 37
56.1305 18.793 13.635 61 40 19
28.6894 -31.6336 8.79813 139 105 43
36.3544 -30.9291 13.3672 62 41 19
49.0097 10.7055 -15.3159 149 112 56
-46.2335 -1.11562 8.10384 66 61 32
50.9088 27.8118 11.843 49 33 19
-67.4227 -15.9398 -5.60849 106 74 39
-36.6229 6.89932 -14.3835 138 111 52
-49.4432 -10.4469 -8.95639 135 90 40
-36.762 21.5109 -5.90857 69 50 29
-24.2862 -34.3141 7.65314 156 111 51
32.4453 7.04111 -13.1285 143 126 61
27.1362 23.1509 -10.6976 134 89 40
-56.3531 -29.7744 -6.45205 37 33 21
-33.7082 -24.7203 13.2671 61 47 20
-35.4019 1.48421 -13.7115 107 92 53
-31.2678 -29.7539 13.5164 52 36 18
-40.0681 14.7671 -11.6755 121 77 36
6.05878 1.27128 14.3063 36 33 22
-32.9554 -9.33149 13.9954 40 31 17
-23.1864 13.0178 14.4232 56 47 26
-42.6515 -8.08029 -12.2163 127 90 43
73.9476 18.4508 1.36604 50 34 21
23.226 8.49822 -14.5239 110 90 49
30.9727 -8.36018 10.2153 74 64 29
-6.07225 25.4983 -1.443 87 59 29
59.0626 12.3586 13.4651 25 23 15
-48.685 -15.8562 -3.71757 59 45 23
30.996 20.7666 10.9582 63 42 20
36.4923 -2.37793 -9.02343 131 140 103
-16.5327 -2.64717 10.2728 59 47 22
29.8224 -0.235184 12.8479 63 50 22
-47.3236 6.68262 -7.75684 106 69 32
30.9187 -27.2578 13.8991 61 39 18
-0.686096 16.7515 -12.4881 126 92 42
-32.8941 22.334 -6.32636 103 69 31
32.1787 24.099 -5.60172 69 46 25
62.3569 6.63391 -8.62017 86 92 70
-20.9866 18.4168 -12.0584 129 101 50
18.7118 -32.2275 -13.7843 40 34 20
-25.8463 -10.3187 13.985 21 18 17
42.185 27.5372 -0.233513 56 37 18
-61.5252 -4.0352 0.864918 43 30 17
-32.2131 -2.29018 14.3923 31 29 22
-50.4028 13.7891 6.14997 61 39 17
13.1384 -0.590691 12.1889 50 47 25
59.7085 10.4385 12.9239 47 43 25
7.53545 8.08039 -13.4791 49 46 32
25.3512 25.616 6.42526 62 41 20
-54.8895 11.8615 1.90477 74 58 36
9.451 -35.7959 -19.4407 84 70 40
-16.265 2.02 11.1983 58 48 22
-28.1931 19.1332 13.5808 36 26 16
-35.6395 -34.0159 11.1215 126 91 43
6.57355 20.1816 -9.3363 33 32 28
-44.3356 18.8897 -2.14724 63 48 30
22.369 -4.29473 -15.5041 147 144 102
-27.5113 15.75 14.9963 60 44 19
-10.5859 0.215736 12.5818 56 49 25
33.9637 -32.8517 5.40233 166 131 80
-48.7691 0.618345 -7.97935 133 87 44
-0.919098 -6.74895 12.2127 62 54 27
24.9886 -11.0214 -5.21357 97 99 65
-65.5314 -27.1409 -8.27448 110 84 44
68.5515 21.6852 -2.1088 53 39 19
-7.73557 12.9657 14.5104 63 43 18
-36.2137 19.3792 -9.99629 90 63 34
-25.7151 21.7169 11.3473 61 39 18
4.04047 20.8828 9.98817 22 19 16
69.6793 20.9789 -4.93176 42 34 20
28.3303 -19.4905 13.908 68 44 19
-0.994995 -8.59551 -13.7478 167 161 101
40.7001 -33.6936 14.7379 62 41 18
17.3366 24.6422 -0.325686 53 38 20
-55.9491 -6.10153 -3.47224 146 104 43
51.0128 0.70446 10.1564 66 65 41
-75.2092 -18.0326 -3.33773 28 28 29
-45.2608 9.07254 10.1737 52 35 16
-53.8493 -0.154701 4.52758 61 48 21
-10.0504 25.7842 2.02709 64 40 20
42.7577 27.6275 0.0876503 62 40 21
29.5325 -17.1069 12.3093 62 43 18
48.7059 19.596 -12.1847 85 55 25
-22.7328 20.4764 12.3799 46 33 17
47.4341 15.4968 12.9612 58 36 18
68.0485 20.3994 -8.76388 83 66 40
-5.39004 17.443 -12.5269 138 95 40
5.1752 23.9423 3.92783 58 39 16
-52.5856 -19.863 -4.3031 59 47 23
-48.5563 3.74963 5.04765 42 37 22
5.31909 22.327 -6.75019 112 81 39
35.0389 -33.6109 4.36488 189 146 98
37.7212 26.4893 -0.23999 59 36 18
-44.3631 15.8001 9.20101 45 31 18
65.8696 22.7663 8.21244 19 16 14
18.5017 -3.3847 13.3077 41 32 17
-58.0343 -14.1001 -5.67885 28 24 16
-18.1042 23.2208 -6.9825 33 28 22
-12.6011 14.8971 -13.7943 143 101 46
52.1737 14.307 -16.1679 82 71 46
-0.691254 20.9295 10.9117 55 38 19
5.99333 3.33783 14.6965 55 46 23
-55.8969 -31.6117 -5.95001 63 39 19
-34.1923 -21.6627 14.1466 59 46 19
-11.0061 20.8859 -10.4504 86 62 36
56.2387 20.133 13.1358 59 37 19
-40.4059 11.5637 14.2169 27 21 15
27.7468 -24.7079 14.5515 57 41 19
32.0759 19.5533 10.7744 28 22 16
-46.9195 -15.9753 -10.663 153 133 67
65.744 25.1384 -0.66749 79 53 26
-54.7246 -33.9805 -11.1839 59 40 16
-48.8343 -1.30743 -8.21196 151 100 45
10.0355 19.8382 10.2173 25 21 16
11.1023 -30.2251 -19.8979 132 98 46
32.3224 -23.2329 11.8873 46 35 20
1.18355 25.419 -1.12252 96 68 34
-9.09727 23.6199 -6.23801 39 32 25
-61.3485 -24.0202 -10.4351 135 96 43
32.4252 5.58019 13.626 56 49 25
23.8209 22.7183 10.5747 64 42 21
17.1893 -11.69 12.6405 52 35 17
-41.6732 -8.6389 -12.6447 115 95 52
76.4284 10.3738 -0.558853 58 49 22
-5.3459 25.4798 2.26136 55 37 18
77.7249 13.2995 -1.19197 36 35 24
-23.0637 -3.03701 11.7023 69 63 36
4.27744 17.0185 12.4421 23 23 20
20.869 23.7298 7.57927 62 38 18
20.1715 -20.4168 12.4751 55 41 18
10.5778 0.810081 13.2611 67 56 26
-6.5787 -6.59751 -13.4914 151 141 75
-37.5039 21.6539 -5.46851 80 54 27
56.6728 6.77089 -13.1557 136 151 119
-55.845 -31.5376 -6.58284 69 42 18
55.5457 27.8558 5.19456 64 39 19
-26.559 -14.5788 11.8102 63 61 33
-3.71021 17.1744 13.1882 49 36 22
-39.2069 -1.88188 -12.6282 82 63 38
65.8447 20.4893 9.91607 22 20 14
5.58603 6.7035 14.9472 49 36 20
9.888 -17.1302 -10.4396 68 58 24
66.7318 6.63882 -5.15628 109 64 60
49.0696 3.22017 12.1514 70 71 48
-56.3349 -6.42997 2.96941 59 50 23
-9.19096 24.3539 -4.54644 42 32 21
41.4975 -34.1916 9.42223 60 48 22
27.1507 25.9673 -1.07923 53 35 17
-66.2745 -18.0432 -6.49102 138 92 50
49.8946 28.018 -5.37584 105 68 32
-25.3886 7.27356 15.2417 59 47 24
-54.2718 10.5075 5.15744 57 37 18
54.0102 9.95144 -15.3322 116 118 81
18.1697 -1.04683 -15.1127 66 52 35
0.32338 12.4086 14.5779 19 19 17
-80.1236 -19.5929 -4.72968 146 91 46
3.46535 13.2723 14.136 58 40 18
0.361191 24.4892 3.6281 61 38 19
-6.09431 20.8449 -10.3273 82 59 37
41.2626 8.77941 10.0802 51 40 19
32.2898 3.02787 12.7602 64 55 26
66.2932 16.9105 10.3061 45 36 19
-1.20714 24.7943 -2.87025 99 68 30
-40.3058 -8.40226 11.3862 50 38 17
33.0247 24.3341 5.05338 57 37 18
-38.6735 -11.6157 11.8833 57 39 17
-46.9278 2.56144 7.36794 60 55 30
-23.3353 -4.86713 11.7054 40 39 25
24.3255 -8.974 13.2672 49 38 20
23.6436 -28.575 10.4408 64 64 54
19.2161 18.8197 -9.51974 120 107 90
21.2526 20.4395 11.2406 21 20 15
-25.3331 -3.23783 13.2655 36 36 24
-2.08467 22.5474 -8.39541 118 77 36
-53.4523 -8.72658 -7.50643 68 60 56
53.002 22.1625 13.1015 63 38 18
33.2184 2.9931 -12.0886 123 116 65
-28.8637 17.4975 -12.4698 129 90 42
47.3471 18.5848 10.8783 63 39 18
-42.2717 -1.63159 -11.0454 147 97 47
-11.6443 -2.26258 11.5001 59 47 20
-9.81095 19.435 -11.4335 43 39 35
-44.952 13.6604 -6.67255 98 73 38
11.8193 -15.169 -16.6182 153 100 44
36.1384 25.5815 -2.20662 81 54 25
30.8041 20.4109 11.4274 58 38 18
-39.7348 -25.6288 9.6417 129 92 39
-6.85927 14.7797 14.1882 63 41 18
24.3711 -20.0712 14.8899 55 40 19
32.5342 21.3054 9.47038 17 15 13
51.0258 24.1619 -10.841 58 37 19
31.3671 24.1041 -6.65968 84 57 26
-16.4548 15.1137 13.6744 25 21 16
-28.2798 24.4037 3.91221 64 41 20
16.8213 -18.6962 -10.8085 70 66 32
24.1966 -14.9408 6.13797 197 196 122
11.6112 23.8063 -3.69571 87 56 27
-37.4077 -12.4398 7.02723 127 108 56
-55.0671 -33.572 -9.87523 64 42 19
-15.2115 18.4439 -12.3804 44 42 36
15.6083 1.12535 12.1188 44 40 22
-44.1537 -6.83633 3.96132 67 61 29
-10.5038 5.63771 -15.5124 104 86 49
38.8291 -34.9196 3.74353 135 93 43
7.10347 23.8222 3.82288 59 38 17
59.2668 26.4906 5.93174 31 24 15
16.8132 -2.1369 -14.9013 129 98 47
-40.0273 10.5682 14.8152 19 17 15
-40.4927 -3.74774 -12.3182 134 99 47
-38.3333 -21.0795 7.60927 127 85 37
-30.463 -30.3041 13.3736 47 33 20
-7.41634 -0.611217 13.2074 57 49 23
66.8659 23.0021 -7.74134 41 37 28
10.8948 -31.3164 -13.9465 60 41 19
-54.0689 -6.73163 -4.81164 35 35 29
-44.7557 8.41602 -10.2572 138 92 45
12.052 -17.3754 -17.4685 150 104 49
-18.2504 2.10893 -12.0074 106 101 60
42.7917 20.2322 8.3161 60 37 16
-28.3857 22.8574 -4.9918 32 25 22
-17.2966 5.38605 11.7441 48 45 25
21.5928 -12.9834 -10.0639 65 66 42
7.4747 -32.825 -17.4619 48 35 20
52.9199 18.1093 14.5829 64 42 20
7.03291 -21.302 -14.1737 53 41 19
67.9155 22.2708 -7.6048 108 81 36
55.7838 7.54106 -14.2013 103 106 84
67.18 6.32763 7.40868 48 29 26
48.6299 23.8386 9.3214 50 33 17
8.33607 -15.265 -15.4577 137 93 40
-77.7652 -24.6343 -4.2403 120 104 48
-51.6695 4.67467 -1.14935 152 110 47
-54.4418 -35.3425 -9.40652 57 47 21
8.11732 -17.5701 -11.5008 62 51 22
-49.3145 12.6413 6.36472 60 41 19
-5.60521 11.5268 14.8399 53 39 20
-17.3883 23.0643 9.37639 58 40 19
26.0745 9.05105 -14.7115 142 121 59
-14.4738 7.41312 -14.8308 138 109 53
30.1608 -28.3053 14.1291 59 42 19
-39.8085 17.2505 -9.58127 113 76 39
-40.2175 -23.3574 14.529 40 28 14
17.7537 -23.5124 -15.5874 84 81 50
54.7801 4.02023 11.2571 64 57 31
30.2159 -32.8004 13.388 54 39 18
-78.0215 -20.1292 -5.12066 130 95 52
36.6555 -30.2788 11.6441 46 33 19
49.5329 7.65659 15.2424 54 34 19
-13.3821 2.97035 12.3766 53 45 22
-8.22565 -0.826032 -14.8661 135 124 69
6.90186 -20.9578 -15.3546 61 48 25
48.6767 14.643 15.3178 32 23 16
14.1664 22.7152 -5.05507 35 31 24
-77.1708 -21.0168 -5.59653 121 82 40
14.7752 4.25902 -12.5192 51 49 36
-79.1936 -20.1212 -4.96074 136 93 47
76.8103 17.1589 -0.277157 60 40 21
68.2551 15.8069 9.69605 49 33 16
7.65112 -14.3368 -11.0108 65 54 24
-24.3074 -6.8996 12.6086 60 50 23
58.6762 2.02018 -5.74259 124 138 106
-11.7467 -0.067009 12.0902 57 45 20
-56.2621 -30.3893 -6.48193 32 25 19
15.8876 2.79969 12.5317 61 52 25
7.89813 21.2763 8.85331 60 38 17
-57.1111 -33.2611 -12.4023 147 117 84
24.9672 25.8648 -1.29274 55 36 18
31.329 12.7634 14.0371 34 26 17
52.8845 26.1019 -10.9726 66 41 19
-4.59134 -12.5718 -8.53196 92 92 55
-17.6047 -2.34163 -10.9049 143 120 58
-41.5692 7.77052 14.2807 21 19 14
25.6506 12.6689 13.9513 60 40 18
-54.5904 -33.5624 -8.10452 55 39 18
-23.3376 8.24618 14.333 20 21 16
-30.1622 12.489 16.1054 47 36 21
-66.5638 -27.8641 -6.28648 27 22 16
-30.5736 -27.5513 13.0209 33 32 24
39.8169 -31.5496 13.7318 55 35 17
10.79 -18.8021 -10.6273 70 60 23
30.1917 -27.1324 7.4789 158 144 72
-61.0219 -14.9253 -5.93695 151 104 46
20.3039 -13.9543 -14.2434 92 92 64
46.8902 17.9502 -10.7556 138 99 47
39.3775 -31.7668 7.21804 79 53 23
67.754 1.51295 6.33384 52 33 16
27.3379 21.6619 12.0882 63 41 19
19.5992 -16.0422 12.6016 62 51 23
29.7761 -10.6519 -1.10082 76 76 45
20.8633 -21.776 12.8193 58 44 20
33.4644 -32.7894 5.926 166 129 75
34.5734 25.3487 -0.155197 59 38 20
-14.6197 25.6327 -0.766935 76 48 23
72.8241 15.5463 5.48793 63 38 19
-35.0952 21.3165 -7.79795 87 57 27
30.2833 -15.2222 10.8952 52 46 29
-24.7933 17.8984 13.7888 36 29 19
59.1559 25.4478 -8.96306 122 77 36
-44.6455 17.5406 -2.83898 50 38 31
-23.0535 -5.38161 11.2642 53 51 32
21.3294 -1.21303 -15.9883 130 100 46
-7.44096 -7.03953 -13.2095 138 115 51
-34.8684 -0.913391 14.9136 24 22 19
48.1252 29.5735 0.629295 62 40 19
-18.0257 9.92644 -13.6619 42 38 33
-21.0037 22.9709 -8.11577 90 62 29
14.1227 23.8443 -3.22727 86 57 29
31.1447 24.3215 -6.01252 76 49 22
18.947 23.3522 6.94375 54 35 17
32.3337 -33.2618 6.9389 186 147 92
47.6442 23.3546 -9.13522 115 80 35
-5.94324 5.60503 -16.096 143 114 53
74.6795 8.96369 6.56673 70 58 28
7.27365 25.0072 0.114681 54 36 18
59.4655 24.3529 9.15387 55 35 18
65.9954 15.5378 11.6128 22 23 20
-41.5939 -3.11305 12.6108 54 48 24
-25.2758 23.2911 -5.47151 61 43 21
57.6672 8.87443 -13.6574 136 134 87
-57.0323 2.55183 -0.404611 142 96 52
23.6685 6.94346 14.2003 37 28 16
-16.2677 25.9436 1.57904 63 39 20
2.84575 2.65152 -14.9035 139 129 78
-40.7018 2.09083 14.5023 51 36 16
-42.9988 16.9747 -6.06367 28 24 22
-51.9242 8.88442 6.04325 62 40 19
31.7187 8.96364 -13.7678 134 112 49
7.79179 -14.0912 -14.9295 123 89 41
52.992 11.1512 14.9637 60 40 19
58.2195 22.1287 11.1942 59 38 18
-66.0251 -12.6086 -2.81841 33 24 17
63.1085 25.2827 5.80693 42 30 17
69.1913 4.0208 5.62241 51 27 25
21.1602 -18.6778 13.8194 52 37 17
-9.0739 0.234885 -14.9977 136 121 61
-54.5704 -33.4999 -8.72672 82 54 23
18.8889 -31.1079 -17.7608 53 36 18
7.63429 -31.2383 -16.33 44 32 17
56.3908 0.676804 -6.9182 110 121 89
24.5817 -7.3217 -13.4123 131 141 97
36.9993 24.6817 -5.40322 96 66 32
31.5767 -33.7714 7.40149 137 96 45
9.58235 -35.8612 -17.8303 55 55 40
76.0268 15.6613 3.85007 58 41 21
42.7268 11.3494 -10.6663 147 122 57
30.1272 -9.98305 11.8452 68 58 24
-40.3984 -25.3405 14.1584 41 30 15
-54.6184 2.02185 -1.59075 158 107 47
-46.8554 10.767 -5.20335 59 37 17
29.417 21.7146 -11.0745 77 58 37
-41.1415 23.4667 0.77375 80 57 32
-23.3841 24.8623 3.69627 60 39 17
2.26424 20.736 10.3958 52 36 18
-76.6405 -22.5891 -5.81657 140 101 49
27.161 26.0077 -3.08186 64 41 21
29.2231 8.64597 14.0895 51 39 20
-43.8472 -10.2096 -11.9348 129 95 45
33.0316 -22.7066 9.60278 120 92 39
-29.4289 7.33675 -14.1796 130 113 58
25.7609 23.1112 11.1114 32 24 16
-54.4682 -34.054 -9.3751 77 54 22
33.024 12.3811 13.4237 50 37 18
-4.67538 22.0039 10.2624 57 37 18
-18.4592 25.5573 -0.043232 70 47 23
64.1072 26.5536 -0.480755 42 31 19
48.8967 21.4817 -10.4011 137 93 52
26.3095 -17.961 6.88616 165 159 95
68.5798 5.81217 -4.05199 102 79 66
-31.1587 -27.0446 12.6834 39 32 22
23.5341 -17.6072 14.719 57 38 16
9.95026 3.62273 13.9351 62 44 20
16.1005 23.2455 -4.57177 31 26 19
32.2915 23.3745 6.94616 55 37 19
-35.8033 21.4027 -6.66544 32 27 22
-9.47624 -2.77613 12.033 60 51 24
68.8781 14.4632 8.05326 45 33 17
47.384 7.0609 -11.9481 134 106 42
58.105 23.8479 10.6526 61 40 19
-55.001 -8.87946 -6.0037 31 33 28
-40.7679 -18.9484 11.7902 53 35 17
8.06245 19.8896 -9.36815 119 80 35
59.5266 14.4496 13.2309 56 39 20
-55.0576 -26.7495 -6.64541 43 41 25
38.6534 23.4091 -7.37236 36 32 27
-11.3059 -3.42759 11.3323 59 48 21
-21.9781 16.1753 -12.7896 150 111 47
67.4753 3.90195 6.69421 45 23 20
7.89839 -33.9321 -19.0115 81 57 28
-54.4926 -34.5984 -10.6202 57 41 18
68.0705 17.5665 7.41499 24 22 14
-15.646 -2.88765 10.3367 61 49 25
14.74 -8.59539 10.403 61 45 19
57.9068 1.92212 -6.81356 111 118 91
-54.9294 -33.0962 -7.40887 61 40 17
34.6914 -26.8706 9.96161 77 56 20
-23.1533 -6.00212 11.2622 58 54 31
55.1507 8.48625 -14.7594 55 55 45
-55.2961 -32.5276 -7.94929 58 40 20
-6.23116 16.7969 13.7823 55 39 23
56.6587 24.5229 -12.4515 141 107 53
-47.0571 3.72069 7.8585 56 53 31
-4.46506 21.5058 -9.63096 70 55 37
-51.7696 0.00505066 -1.38905 85 73 52
33.0117 23.4624 -7.20463 65 45 27
2.8506 19.3835 -10.5486 124 86 41
-36.2581 15.0973 -12.9797 127 90 43
25.4001 -8.57669 -10.6795 67 71 49
-18.9418 3.11098 -12.1292 70 60 39
-59.369 -16.6434 -8.85172 148 99 46
-32.6663 -1.62601 14.6577 24 22 15
62.1971 25.5524 5.40782 35 26 15
-61.5995 -12.7101 0.895645 49 38 18
-54.7707 -35.8876 -11.8364 99 78 31
-14.8714 25.518 3.11419 64 39 18
24.0265 10.2921 -14.336 54 45 35
-46.4448 -6.00048 -9.68952 110 82 42
-48.2042 6.05405 5.91599 55 48 26
-42.6369 5.29429 13.5237 30 22 14
-26.3936 -13.0371 13.4266 63 54 25
50.2004 18.7864 -14.581 178 146 88
-41.0824 14.8224 -10.758 56 43 29
30.9912 -5.3479 -9.39817 140 148 101
-0.0900345 24.9209 2.61581 61 39 18
-44.8103 8.27643 10.8739 52 35 17
54.4621 1.89043 -11.2003 146 160 120
-50.4837 16.0704 5.67522 59 37 17
-54.4236 -34.6856 -9.39683 70 50 23
23.2577 1.29852 13.9886 58 44 22
-46.0065 -3.54749 -9.67967 152 111 51
18.746 19.157 10.676 61 39 18
-21.9177 17.35 -12.4932 142 100 42
8.8591 -7.75758 -14.4006 105 69 32
-76.6896 -21.4706 -5.83498 116 75 40
54.7683 25.2511 9.89244 73 47 19
16.7133 -20.0914 -15.55 143 114 47
-53.4069 7.03668 -0.596916 148 99 42
-65.6933 -29.907 -8.73641 112 84 49
31.4426 2.51756 -13.3075 91 92 59
56.5688 28.6107 -5.40841 90 56 28
39.0447 22.4253 6.68645 66 44 21
69.6441 13.5927 -8.99535 126 117 63
66.9994 23.428 -2.68077 44 31 18
-56.3996 -17.1367 -9.35819 130 82 38
26.0991 19.8519 -12.6531 151 96 42
-45.2981 -5.94794 0.828629 99 81 31
-62.6507 -33.9002 -3.79784 23 19 15
25.8784 25.8267 3.66415 57 37 19
17.1155 -5.54903 -14.8725 40 41 35
74.7708 11.1117 -6.07296 146 140 84
-61.731 -14.153 0.39119 53 39 19
-84.4119 -21.7046 -2.19849 76 66 33
-12.2155 5.86975 13.3697 18 17 15
-31.664 14.1555 -14.1127 138 99 48
-55.7444 2.75669 4.99136 53 39 17
-13.2926 -1.3294 11.2637 59 43 18
55.3723 4.93755 11.567 63 50 22
-54.6452 -34.063 -9.9624 73 50 21
-27.3637 5.57437 -12.9909 121 122 76
-30.5397 -26.4747 11.8485 36 34 24
-37.0838 -33.1766 15.112 26 23 15
17.4182 0.74659 12.4751 60 51 28
15.8179 23.4696 -3.52827 37 31 25
36.6774 -30.1695 6.69463 74 56 24
-7.35522 12.4926 14.5641 61 42 20
-10.4165 21.2049 11.6391 44 30 19
-47.1134 1.14576 -8.96812 151 110 58
-12.5501 16.9813 -13.0406 133 88 39
55.2372 27.3704 9.33163 53 39 19
-56.0997 -5.06152 3.37939 61 50 22
-80.0747 -17.9092 1.20955 17 17 14
2.72701 -5.29565 -13.5614 144 142 85
5.95581 5.6567 -14.0456 145 120 54
-18.675 22.9075 -8.04199 31 28 26
19.1339 11.101 12.4333 66 43 20
-44.2181 -7.10201 -11.1414 128 86 38
57.6149 6.49272 -12.4419 146 155 117
-7.70461 16.8434 13.5041 63 42 19
-44.2296 3.2188 11.9596 48 36 16
14.8825 12.8079 12.5728 25 19 15
19.7214 15.066 -11.0891 132 91 40
-64.4999 -34.2396 -10.4193 94 68 33
29.442 7.71581 13.9219 55 44 22
-40.6896 18.141 11.6879 20 17 14
-13.4221 25.3978 -1.58615 78 50 20
26.9129 0.0752106 -15.317 118 97 54
6.39374 21.2239 9.3085 60 39 19
-9.88113 25.4404 -1.6982 95 66 31
17.8079 -7.35103 12.5507 53 38 19
-1.38437 9.15829 15.3455 56 42 20
-5.71202 20.8 11.4306 24 22 16
42.1228 19.2328 -9.37184 155 125 53
-38.1812 21.6429 -4.67286 68 45 21
53.2977 24.153 10.551 71 46 18
-22.6624 -5.84103 10.8497 51 47 27
-54.8532 11.1974 4.66293 56 35 17
18.3589 -17.71 -14.729 145 117 52
-7.19176 21.1336 -10.0005 121 80 35
-42.1292 6.99558 13.7288 22 17 14
-40.7533 21.3575 -2.56975 90 61 31
-42.1496 9.48871 13.0747 55 38 17
73.7047 13.5775 -6.18402 157 121 58
-59.1939 -6.57849 2.7934 57 44 24
-31.3427 -23.6975 12.099 53 44 21
-7.54482 7.1219 -15.9836 143 111 54
-33.7883 22.5753 8.41009 44 29 17
34.8066 -3.93388 -8.93236 137 146 96
-54.471 -35.1821 -11.256 62 47 21
67.8107 13.7916 -10.8331 142 136 74
41.1532 9.99732 10.08 58 42 19
-37.6335 17.2307 13.8047 38 28 18
48.5023 1.57804 7.90087 67 71 48
4.17583 22.0134 8.37701 22 18 13
-35.2626 2.40011 -13.7552 129 109 52
29.1481 -9.47288 12.6629 67 59 25
-9.11427 -0.122017 12.9264 55 48 22
48.7597 18.5847 -12.8826 102 72 32
31.0652 24.4962 -5.15195 68 45 22
24.5032 25.575 2.77952 65 42 20
10.1277 -29.4512 -19.7246 150 106 49
26.4883 3.35051 13.9188 53 44 21
36.0965 18.9208 -10.1968 144 108 49
-54.5421 -0.387856 4.50462 60 44 21
54.9375 18.6483 14.2405 64 40 21
-12.1857 25.0055 4.20657 61 40 19
-16.7127 6.78043 -14.0088 42 41 37
-65.2347 -12.9083 -4.60231 88 64 39
58.362 12.7713 -14.2425 118 103 52
41.0135 26.0212 2.41492 63 40 17
54.6199 0.313934 -8.8771 95 104 76
58.7822 8.09386 -12.8941 134 143 104
32.6552 -29.2642 13.6599 62 40 18
-45.0997 5.5758 11.0262 46 32 17
66.3726 4.86506 6.99545 50 29 20
21.5565 24.8971 -4.13842 72 48 25
14.0367 -3.50003 -14.5213 84 63 37
-33.8674 -35.7024 15.857 30 23 14
33.7287 13.6401 11.9037 47 39 24
31.7393 -28.1687 13.8159 60 39 17
-51.6271 13.0054 -0.134373 149 103 45
-54.2589 6.56213 -0.497795 151 105 45
-68.3706 -14.8166 -3.66578 24 22 18
-10.3299 0.291875 -14.686 145 110 50
-11.2718 0.367859 12.3882 57 47 20
13.8952 -8.39764 10.1975 59 44 19
65.4851 25.138 -1.70675 63 46 24
-46.5732 -1.58889 5.20034 64 57 27
-16.3875 15.1564 -13.7334 142 99 44
56.8361 16.98 -14.5542 42 43 36
-80.8515 -21.4081 0.780014 45 43 26
59.6849 8.36722 -12.4477 123 129 92
-10.9335 20.4847 12.0991 26 19 15
-3.98483 24.3885 -4.09606 106 78 41
-10.5671 -3.60756 11.4992 60 49 22
-6.64528 3.6138 14.372 55 46 25
20.6543 21.0618 10.1528 56 38 19
-43.8201 15.45 -6.66186 45 36 26
21.1257 1.33379 -15.1646 123 94 45
-48.5942 19.2838 5.0084 63 39 18
72.7664 12.4877 7.98299 59 37 17
-27.4978 18.1468 14.2212 58 41 21
-57.3205 -7.52539 2.60988 62 54 29
-41.5226 23.1065 0.41243 94 62 35
-18.2622 -1.32082 -11.024 146 122 60
-13.9943 -1.16513 11.0882 60 46 19
-28.3885 11.4452 15.851 21 18 16
23.8405 4.70211 -14.7402 132 119 71
48.5362 3.89155 11.6974 68 67 41
-11.0824 24.876 -2.94959 89 62 26
-11.6142 24.4074 -3.97377 81 57 28
35.1605 24.9459 3.5337 59 38 17
-42.7543 20.8902 -1.48032 102 68 33
-79.5794 -17.701 -4.07101 86 64 37
46.9031 20.2681 9.44175 66 41 19
-49.2879 8.6389 6.22842 58 42 20
25.6014 -12.4466 5.69974 147 150 96
-64.4659 -31.9128 -9.89037 115 80 41
-41.7952 15.8818 11.8699 37 28 19
-41.4586 -1.02398 13.4239 52 42 19
-45.0166 16.4969 -3.21724 56 42 26
20.1352 -17.4899 -12.343 35 35 28
30.769 -33.04 7.84794 138 98 44
28.6435 -1.77202 13.3561 18 17 15
3.33047 20.4841 -9.4736 114 72 35
48.8147 29.8578 -0.174664 56 38 18
77.1156 11.0702 2.8568 62 54 28
48.5012 26.435 -6.80061 123 78 37
-38.2012 -7.51893 12.1871 57 46 20
-49.1212 4.58591 -4.22015 37 37 30
-13.8669 7.24522 13.1363 44 40 26
-7.31207 19.1069 -11.6575 128 87 45
38.1634 -32.2092 4.91101 104 69 32
-49.5258 -15.5203 -3.63088 56 40 19
22.4631 -13.0022 2.84227 88 88 59
7.92557 24.8193 -0.884113 69 47 23
-41.969 -12.7841 10.0853 33 34 27
-55.0739 -10.9408 -7.37744 68 70 55
21.5785 1.88373 -15.1263 61 53 34
-6.11722 22.7831 -7.93451 82 57 31
68.5233 22.988 3.61492 47 34 18
-54.5462 -34.5058 -11.8428 91 65 28
74.1427 15.1099 -5.00748 125 80 36
-21.6996 23.3947 8.62988 63 40 18
-1.42676 3.47519 15.1038 55 45 20
-79.4923 -24.2826 -3.63172 113 97 45
22.0292 16.612 12.7991 27 22 14
47.7975 29.0122 1.69796 65 41 18
-32.6874 -3.49846 -12.1861 127 133 95
55.0786 10.7515 14.1774 66 56 28
13.4495 0.590149 12.2582 19 20 18
8.94348 -17.1261 -10.8792 62 52 22
19.2872 23.0449 7.56019 59 38 16
-10.1879 24.8337 4.92756 35 26 16
15.1207 22.6563 -5.48052 61 46 28
-9.58112 -6.31517 -12.7653 141 133 70
-42.8375 11.8524 12.3947 36 26 15
-11.9354 25.2836 3.05848 65 42 20
-62.4319 -22.8782 -3.87576 33 26 14
59.7967 16.7313 12.7736 56 39 18
-48.5042 -0.502716 4.35511 49 39 20
0.889526 -2.32795 -14.5796 141 132 84
-42.1918 15.1067 -9.24711 128 106 80
-47.6672 7.45046 7.13556 54 48 26
-46.5701 -11.1269 -10.6395 105 71 36
-31.143 -23.7841 11.0176 62 53 29
60.2002 4.89095 -8.84877 87 92 68
-63.2739 -8.22283 -0.176376 39 28 15
-39.3057 10.4651 -13.5306 154 99 43
19.5549 -33.856 -17.1147 67 52 21
-48.9218 6.12254 -0.920494 71 68 51
40.7298 -35.3203 9.12077 60 62 46
10.6965 -15.0607 -16.3822 148 100 47
-30.8931 23.2906 7.24786 59 39 20
-49.0924 2.0235 -7.36237 84 63 38
-23.8013 -34.6677 8.03167 138 106 43
-65.5226 -23.2642 -7.96387 129 116 81
33.1227 4.46695 13.0193 58 49 23
-37.5791 1.4117 15.5011 25 22 16
-41.8983 14.7364 -9.78297 42 38 29
-55.3041 10.2202 4.59078 58 39 18
-18.6865 15.4809 -13.1222 104 80 44
20.7042 23.6831 -5.95697 81 53 26
-42.9834 20.9016 6.17275 66 44 21
18.8252 -6.92439 -14.8252 118 116 70
16.1225 24.6117 0.181467 54 35 17
-13.4705 6.1151 12.9386 37 31 18
33.119 24.8869 -1.90986 64 42 22
-79.6263 -17.249 0.535904 18 17 15
-30.5374 -26.7597 10.5044 95 74 37
-42.8712 16.4854 -7.34797 44 32 21
-45.577 3.0186 10.4753 50 43 26
-0.309616 6.04294 -15.6581 68 59 44
-43.7348 8.01373 -10.9878 40 31 24
-11.1008 -10.3934 -8.17685 111 111 63
-9.1416 18.574 -12.221 68 53 40
29.378 -11.947 8.81531 127 120 67
-14.9893 24.1272 8.66837 20 16 13
-39.8597 -6.0123 12.1807 55 49 23
-61.8528 -8.6813 -3.53288 125 87 48
18.5689 20.7256 9.60022 63 39 18
-5.59425 15.3648 -13.3789 131 91 43
-45.9684 3.2969 -9.60494 138 92 42
2.99599 1.25463 14.6784 62 54 28
52.5401 25.4927 -15.1962 120 117 80
-34.6543 -33.7469 10.4479 135 94 44
20.4005 19.4678 11.0737 37 28 18
6.67296 -17.4455 -13.1138 55 42 20
14.5854 24.8551 -0.845757 57 41 22
-44.5066 0.913452 -10.2432 147 107 45
46.9596 8.81584 14.6706 47 35 19
-45.0824 -6.14384 -2.37383 64 48 20
-5.22878 4.35642 14.7512 23 23 18
-47.0726 10.04 -5.09711 59 39 17
50.4508 0.689285 9.08011 66 70 49
-74.4807 -23.8347 -5.95144 139 114 51
-40.0484 18.3802 11.7751 32 25 17
9.05119 -9.2436 10.7894 64 53 26
-16.2246 20.2861 -11.097 97 72 42
-34.2531 23.9271 -1.12682 93 61 33
60.5312 27.1035 -5.09651 74 50 33
34.9122 9.7729 11.9162 66 47 21
-18.0019 5.83616 -13.1976 142 111 46
-52.0784 -18.0486 -4.04531 63 44 20
-26.0715 10.6853 15.5873 62 48 24
62.5311 25.6974 4.64421 23 22 15
63.2673 27.011 -0.0143433 52 37 20
33.8097 17.7025 10.6556 57 37 17
17.1933 1.93895 12.5433 59 50 28
15.9873 -19.3604 -10.7755 68 63 29
-46.6254 -0.748634 6.20661 65 60 31
-20.9028 25.5715 1.72508 61 39 19
-42.1046 -14.1532 8.58711 114 115 102
24.7254 -6.32206 -13.8755 129 138 96
69.6163 17.4113 4.57 58 44 20
-66.0229 -16.023 -5.84927 137 92 47
27.5129 17.5116 13.6168 61 39 18
-43.9889 -4.31139 -10.664 112 81 36
-32.3051 -23.5074 12.4209 53 42 20
-65.0161 -18.1659 -6.75476 140 115 59
-10.9312 -3.22467 -13.2658 119 98 48
49.8549 1.54769 9.94994 71 73 50
-25.5511 25.0783 -0.293001 98 67 32
-50.8927 -1.23684 -3.78556 34 35 29
59.7461 27.1354 3.80564 20 18 15
-6.1992 25.8498 1.00108 56 37 19
-24.2246 -6.28443 12.6041 63 55 29
16.6619 13.6367 11.8302 28 25 17
-0.950867 23.8156 -6.48405 74 52 29
9.07928 -29.9433 -14.6444 50 35 17
36.2636 -3.27958 -8.58503 117 124 84
-0.874283 23.8365 -5.25704 50 44 28
12.8445 2.39896 12.9595 17 17 14
67.3947 22.2952 7.33227 44 32 17
-38.3976 -17.6679 13.0741 55 34 16
13.7182 -29.0898 -17.48 156 116 44
-60.7416 -11.1009 1.36955 51 37 17
54.7268 28.0248 4.79732 63 40 19
60.121 6.5821 -11.1249 143 151 116
48.4198 17.4039 -12.4184 120 86 38
58.4018 23.6612 -11.6659 126 87 37
-42.0994 8.75661 13.0863 55 37 18
15.7254 6.74607 12.8112 65 50 25
-48.0768 20.9255 2.69806 50 38 26
59.0518 25.2624 8.08903 39 27 14
32.9801 -0.705666 10.8748 70 67 36
45.8343 23.7328 -8.03273 139 96 43
47.7225 17.4544 12.3556 58 36 17
74.2464 14.0016 6.69061 56 37 16
-5.65298 -12.2136 -8.87976 88 87 50
-41.6018 4.8584 14.2121 52 36 18
-9.60516 8.97919 -15.589 57 49 40
66.3077 2.71373 6.87246 51 34 17
1.02132 23.0446 -5.94044 41 35 28
-31.6114 -25.7258 12.1185 48 38 22
53.8237 25.9405 9.90806 68 51 23
-55.5472 -20.2096 -10.7215 141 111 46
49.9483 1.6032 10.5606 62 65 46
12.2789 23.734 -3.80249 99 70 30
76.6057 16.5154 1.95278 43 30 19
-48.428 -3.40436 -8.58754 137 102 53
23.3759 2.97725 13.8757 56 39 19
10.6873 6.47926 14.0713 58 46 22
-19.1298 25.4437 2.69089 64 41 19
29.0838 21.3015 11.9775 68 43 20
-61.9165 -5.49075 1.26742 43 30 15
-13.5006 -2.89281 10.8326 57 44 18
26.411 -6.10518 -12.5114 114 121 86
64.5546 14.2425 -12.5889 82 70 41
55.5195 10.0941 -14.8687 111 111 74
16.5766 23.9414 -2.88945 31 26 21
-61.7525 -11.6944 1.07027 46 34 17
-25.5144 16.0427 -13.121 50 41 34
-44.7162 13.6331 9.68615 55 35 17
-56.8731 -33.7854 -12.7907 116 81 44
-37.0744 21.0079 -6.59133 74 56 32
68.3112 13.2989 -10.4162 133 131 80
-41.943 -15.6284 10.3572 33 33 27
-29.41 14.3279 15.6631 35 29 19
-6.30702 5.13398 14.7278 24 22 15
41.9216 27.6705 -0.799463 58 41 22
-28.7598 24.2206 4.30718 64 42 19
49.3516 1.51809 8.85234 69 70 49
-42.2253 0.0895538 13.2095 50 39 17
6.49596 22.03 8.40744 61 38 19
43.3498 9.62719 10.4203 58 40 19
17.6178 -32.642 -21.405 144 100 42
-38.9404 -15.9965 12.3347 52 37 17
-39.6066 21.5781 7.19536 68 45 22
-8.30887 25.9461 1.43526 57 39 20
-0.305893 19.5415 -10.6078 42 37 27
51.7305 8.58078 -16.0586 132 106 53
25.2041 -3.85581 -14.4048 41 40 36
17.8646 17.4891 -9.3688 115 87 45
-54.1415 -1.48244 4.16909 59 49 22
32.9342 22.3386 -8.85915 131 95 42
24.1453 -29.7307 10.9354 44 45 39
40.251 -32.3931 6.68225 106 72 30
11.7332 -32.7117 -14.0586 58 39 17
49.1239 26.9164 10.4081 47 33 17
-33.8063 10.445 -14.7762 98 72 42
66.3686 23.5986 6.42951 47 35 19
33.8973 -32.0601 13.9776 63 41 19
69.195 13.5694 8.74361 24 20 15
33.08 23.8966 -5.18013 50 36 21
-45.9698 2.12422 -9.61131 150 102 42
-55.6322 -4.27073 3.58848 62 52 24
-51.9931 -2.89009 -4.44566 33 34 29
-7.57097 8.82256 -15.76 135 104 52
34.1346 12.5204 11.9742 54 42 23
-62.4485 -21.9004 -3.80391 35 27 15
-47.2264 8.59355 -2.08662 47 40 23
45.2498 24.1617 -7.5622 147 96 43
-37.5415 -26.9015 14.8649 44 33 17
27.9477 25.5155 7.91497 40 27 17
-42.3426 19.0029 -4.19468 88 64 33
50.7574 13.6649 15.4402 61 38 18
35.1836 -27.7245 10.5597 25 24 18
-3.32808 16.6366 13.4023 54 38 21
55.153 17.5449 14.2926 62 43 21
-36.2356 -10.9197 -9.98069 104 105 67
-1.58423 24.302 -3.73196 63 48 29
-14.6723 25.0675 4.62513 62 41 20
25.6914 4.20002 14.0019 46 36 19
22.867 -6.45656 -14.7599 43 54 40
70.776 14.2022 -7.79696 215 198 142
46.5653 6.81384 12.3803 64 57 29
-43.8841 11.902 -9.71912 108 74 35
60.3686 25.6721 6.236 62 41 20
-52.1828 -2.86517 -6.49849 60 60 50
61.9856 10.1906 12.6933 55 46 27
45.8006 14.5748 11.306 57 37 17
-37.5481 -15.334 7.47889 128 96 35
18.0766 0.382645 -14.5065 43 41 34
9.39061 -35.0116 -16.7464 55 39 18
31.4237 4.33358 -13.2062 37 40 33
18.1634 5.07292 -14.0402 145 106 47
21.8976 -14.4047 -12.8207 83 84 55
-33.7726 -33.9167 10.2022 150 106 49
-32.9901 -24.4206 12.8594 60 44 19
-12.0045 -1.09637 11.683 59 48 21
72.7796 17.9965 2.80536 58 37 18
-14.7401 23.3007 -8.02742 99 65 30
-24.007 -7.40988 12.1682 62 55 27
-0.57132 14.7281 -13.5196 124 87 39
-5.58577 5.50126 14.9092 24 22 16
-63.0694 -9.15728 0.843597 41 29 15
0.299408 21.9353 -8.17417 36 37 31
31.5927 21.6335 -10.1147 136 101 48
60.4455 27.6614 -4.08587 71 54 33
23.4069 18.3866 -12.4213 144 102 43
26.269 -5.66806 -12.953 122 130 93
-57.4392 4.90133 4.27691 55 35 17
46.2269 12.3126 12.2682 51 33 18
30.673 -16.9975 10.93 40 37 22
-31.1714 18.9923 13.6386 63 41 20
-8.16296 25.2035 3.57549 59 38 17
30.8737 -33.6729 7.8721 136 97 44
-67.399 -14.9194 -1.20431 31 24 15
-13.8231 -1.74087 11.0005 59 46 19
40.2043 18.7171 8.8327 63 40 19
-35.2471 -12.1481 13.5353 59 38 17
27.0546 23.3646 10.8701 61 39 19
33.4149 20.8317 9.36446 57 40 20
19.4542 -4.7325 -15.3205 123 110 56
-24.5544 15.4355 14.5242 19 19 15
77.4001 12.5238 4.29432 29 23 17
62.2451 9.19824 -11.8115 107 122 91
-41.3789 -24.8035 12.6887 31 28 22
36.0804 -33.2379 14.8079 54 38 20
27.025 -4.22406 -13.1101 120 124 85
-10.2471 2.84448 13.4774 38 34 20
14.0007 -28.5969 -13.6261 63 50 18
-30.5455 13.7725 -14.2939 140 102 43
-43.4644 13.2043 11.1077 57 39 18
-43.6083 7.52041 -11.3689 82 61 33
32.3686 -27.1141 13.017 66 43 21
-84.6212 -16.6827 -3.27221 129 90 45
-54.8647 -14.1834 -8.32428 148 98 46
19.3463 -32.9499 -21.088 127 102 40
51.6793 23.3218 -14.832 134 126 74
-53.9715 -6.95262 -6.80021 60 60 50
25.7504 -12.8868 6.14186 153 156 94
-46.6966 10.8843 -4.09701 57 39 20
38.3171 18.6451 9.07938 63 39 18
32.0065 -2.29397 10.552 70 64 29
-49.3496 3.9888 5.09211 49 45 28
25.5477 -5.08288 13.8047 44 39 21
13.7209 -27.2406 -16.9014 154 128 51
-43.0927 19.7123 -2.61159 107 70 31
24.5435 -4.95899 -14.6943 122 127 91
17.9046 -26.9281 -15.1964 31 35 29
-67.748 -17.0655 -6.02594 133 90 46
-54.0379 -19.1541 -10.3573 138 107 50
-51.6579 -14.7215 -3.64964 56 38 17
-29.6771 18.5795 -11.5898 131 85 42
33.1156 3.45989 12.6033 63 53 24
-6.5094 25.3299 2.96766 63 40 19
-46.4677 12.1933 -3.57082 54 37 19
21.1843 22.6361 9.31869 59 39 18
18.4443 6.00693 -13.9979 144 103 47
-30.1149 -19.8317 12.802 66 58 25
