ply
format ascii 1.0
comment Created by Open3D
element vertex 1385
property double x
property double y
property double z
property uchar red
property uchar green
property uchar blue
end_header
-33.1553 -12.9557 14.8603 52 35 17
47.0201 13.8285 12.9875 59 37 17
-32.4731 22.0046 10.5376 56 40 20
-42.6686 17.4857 -5.61994 36 30 22
-66.641 -31.2502 -6.45674 21 19 14
-3.5928 25.2742 2.53572 54 35 17
21.4785 17.9712 -11.3687 123 91 47
-8.99812 23.1651 9.19736 34 25 15
-81.0078 -23.6168 -2.98316 103 89 40
-83.8591 -12.7683 -2.1183 143 97 46
-13.4913 22.06 -9.29309 82 66 44
-3.66602 13.5427 -13.9903 50 44 33
-60.2037 -0.39325 1.46961 45 33 20
-4.38705 22.1879 9.89387 59 38 18
55.8522 25.8244 -12.7599 89 77 42
-44.6186 7.47617 -10.4974 90 63 35
-45.3146 8.64555 10.2033 52 35 17
69.2563 18.9146 4.21297 60 50 24
-72.0667 -17.1381 -4.53328 49 53 48
11.9706 23.5902 3.32247 60 39 17
58.8418 27.4026 4.55937 44 32 17
-66.9166 -30.2212 -6.70756 22 20 16
-14.9289 25.7215 -0.379917 79 51 25
19.0111 -21.696 -13.8591 32 33 27
-41.2303 13.2803 -11.3283 51 39 28
-44.6128 17.1121 -3.29469 74 54 34
-7.9912 4.71063 -16.0285 121 99 51
59.5499 25.4913 7.12451 46 31 17
45.4053 11.0846 -11.3383 164 139 72
23.1197 2.43504 -15.1728 118 87 46
-6.92113 8.89951 14.9644 40 30 15
-3.50256 23.7647 -5.91363 28 23 20
-64.071 -20.5119 -8.47258 133 117 55
6.46811 20.2974 -9.23573 34 34 28
-56.139 6.53229 4.78468 51 35 15
72.2251 16.6918 -3.9025 132 88 39
-3.43353 21.1409 11.0167 62 39 20
28.6498 25.7761 0.280855 55 35 16
-47.1673 -0.180191 -9.01928 93 71 45
27.8718 22.4192 11.5052 68 45 23
32.4093 20.3746 10.0624 16 15 13
-63.713 -34.4613 -10.8625 93 66 32
-40.8007 -20.6142 9.39314 93 70 40
76.6057 16.3867 -2.33912 131 86 39
68.8999 3.59855 -2.74612 94 59 46
35.963 -29.5727 7.00079 75 59 25
50.4491 23.0223 12.208 58 36 16
51.9927 25.5093 10.861 67 45 23
-36.6617 13.5625 -13.4764 68 56 36
9.35347 -6.37395 -13.1173 90 59 24
-59.0747 3.57606 2.0895 44 33 17
13.7396 -26.7462 -12.7818 69 56 23
-65.1213 -11.278 -1.97897 35 27 15
-24.9212 20.7731 -10.0008 36 31 28
19.8483 11.9243 -12.7779 124 86 45
53.8854 27.0064 -13.1348 55 39 19
-34.0728 23.295 5.24923 68 43 19
69.8183 2.10106 1.45349 58 34 28
-45.2872 5.24582 -9.89538 75 56 33
-37.4552 -15.827 13.261 51 35 16
22.6665 2.92706 -15.0676 84 71 38
52.137 26.6719 -15.5579 112 99 62
-9.83842 20.8936 -10.4292 54 47 37
13.3749 20.7005 9.19707 63 42 20
-65.7197 -33.7618 -9.3448 81 61 32
54.2661 13.4469 14.7904 60 44 19
10.8721 24.1849 2.17548 59 37 16
-55.2766 12.253 3.5146 50 35 17
65.2757 15.5908 -11.9316 60 52 37
65.4357 8.38942 -6.15531 126 129 104
-51.9727 11.3364 -0.224182 157 108 44
-44.584 16.8256 7.96631 64 43 22
69.3469 15.5762 -8.564 133 98 43
8.00545 22.473 -5.63 49 46 43
12.782 -4.43121 -14.2002 144 103 47
-3.91408 24.0076 6.94654 60 39 18
-44.7133 16.0509 8.37823 50 33 18
-42.9064 18.5499 -4.13088 95 67 33
-61.9336 -16.9431 -8.49617 123 114 61
71.8387 15.0926 -6.45256 140 97 44
-16.71 12.3295 -14.1921 139 104 46
6.46207 20.4622 -8.98717 38 35 27
-84.5091 -13.0334 1.74384 17 17 14
76.6186 9.70384 3.47073 63 58 35
69.2481 11.3971 -8.57418 82 85 65
-31.8911 24.0354 -1.27386 76 51 26
-50.3646 18.4877 4.35956 61 39 18
46.4122 18.1238 -10.5695 135 100 51
-57.7689 4.9534 4.01418 60 39 22
69.9341 17.777 4.08578 67 47 21
-5.41386 22.6687 -8.02894 47 42 33
-55.6556 -10.2905 -6.39747 52 52 43
31.0072 24.6469 -4.36751 69 46 22
-29.8441 24.5949 1.26791 63 39 19
7.34027 -14.7446 -14.653 146 119 78
-13.7736 25.4583 -1.26765 85 56 25
-4.49173 17.3851 13.3565 38 30 20
-62.926 -8.02304 -2.6234 65 53 41
-52.111 -13.4509 -8.78751 145 95 47
-27.3578 24.1893 5.13966 60 38 18
-63.9431 -27.7929 -4.26927 26 22 15
68.97 14.9302 -9.36459 133 116 54
-57.3876 -32.3612 -10.6738 75 48 21
-4.50775 23.5815 7.9524 59 38 18
-41.7186 7.13839 14.2846 20 17 12
-47.724 8.76154 6.95554 48 44 25
37.8802 21.1376 -9.2239 97 71 41
69.0208 11.7322 10.1824 61 45 22
-6.07993 25.9863 -0.458836 70 50 26
-23.0155 24.4957 5.90781 19 18 15
-6.55331 9.05464 -15.8172 44 42 42
28.349 -33.0069 12.3066 60 46 22
12.7944 20.6522 -7.76077 41 40 35
76.5405 15.516 3.55148 54 38 18
52.7147 13.5691 -16.2344 44 43 34
-22.5958 22.2123 -9.0792 91 64 33
-39.462 24.1527 1.89271 69 42 20
55.9257 26.4577 -8.89263 134 86 37
-13.2794 -2.08413 -12.6453 148 129 66
2.10939 21.8178 9.13075 58 37 17
-43.5122 16.3659 9.85765 51 34 17
-20.634 24.3447 -3.31699 88 59 30
31.8109 22.3955 -9.42811 78 56 29
-5.97909 13.7061 -14.0887 124 94 39
59.0667 24.9081 8.70294 42 29 16
50.8634 26.3425 5.52087 74 46 22
7.26309 21.8664 -7.03497 45 39 33
25.4645 -10.6228 13.5304 36 27 17
-65.1642 -32.1383 -9.49578 104 75 38
-42.4967 -0.430283 -10.891 141 102 42
6.02151 24.4292 1.69518 58 39 17
67.0334 16.1955 10.2008 29 23 14
-20.488 23.3047 9.82231 21 19 15
-35.4042 19.2077 -10.3043 126 86 41
-41.8137 -18.2076 9.70207 46 49 43
-46.5362 11.7282 -5.10394 72 47 21
47.1425 11.9787 -12.0165 41 35 29
-70.119 -21.4547 -6.91554 131 90 39
-2.56613 20.7272 -10.2035 133 90 40
-38.2294 20.8744 -6.30832 100 69 34
47.6848 19.5824 10.6118 65 40 19
-28.9392 6.13685 16.1402 15 16 15
-48.3983 2.41736 -7.94006 114 71 35
-31.7818 13.7452 -14.2235 141 98 46
69.4691 4.56395 -0.996672 44 34 24
-47.6592 7.8981 7.14298 53 47 26
-34.9776 9.9653 -14.6452 94 71 41
-41.6972 19.145 9.03786 60 38 19
-36.3341 23.1156 -2.11655 90 59 30
16.6153 -19.8977 -15.5411 143 114 47
32.5482 24.8142 -2.07106 66 45 22
-54.0668 14.3034 3.69417 55 35 18
53.2586 16.9221 -15.8072 68 66 50
35.6947 -30.0458 8.95477 93 70 28
-30.1798 22.5731 9.68106 64 40 19
27.6956 24.7182 -8.56018 115 72 32
-45.0378 9.78378 -9.71762 105 68 32
-38.2855 -18.3051 13.4755 54 35 16
12.2947 -16.33 -17.1142 151 109 51
-28.3226 15.2887 -13.7088 44 38 31
-51.2176 18.2244 2.35975 66 48 31
8.67621 -13.3939 -15.458 145 99 42
-24.2721 22.3442 -7.79788 40 34 27
-12.2099 21.0359 -10.4525 127 88 39
-30.866 14.9994 -13.9293 145 97 44
-26.3526 22.5795 -7.46415 98 64 30
-17.3871 20.6674 11.9954 40 27 16
6.1706 24.5479 1.42951 61 38 17
-46.6662 0.712799 -9.21319 135 97 47
-31.8291 18.4856 -11.2613 68 55 34
-34.6496 16.6439 14.592 21 19 15
-0.441437 25.5246 -1.31769 106 71 35
-4.63492 1.82452 -15.7875 145 130 76
69.4503 11.1961 -7.87344 98 102 83
31.2384 24.5364 6.31044 61 40 20
69.1231 18.1947 4.75505 53 39 18
-39.7913 16.0268 13.2376 57 37 19
-38.2025 23.0071 5.45037 63 41 19
-63.3166 -26.5682 -9.68493 132 94 43
6.62627 -18.0571 -13.9594 51 38 21
-49.6955 -15.0012 -10.2569 138 101 46
-56.0147 10.5793 2.5134 62 42 24
48.7391 14.4179 15.3782 30 22 15
-8.06902 23.6874 -6.71634 65 50 29
48.506 17.4695 14.0494 45 30 17
65.9399 25.3892 0.668295 70 46 22
-55.3609 11.8616 2.76094 58 39 22
62.756 17.7952 -12.0935 55 51 35
21.1191 19.7633 11.4552 27 22 14
-22.8461 24.8732 4.54995 54 38 20
66.6237 10.2884 11.0296 44 38 23
74.4097 14.5766 6.04942 56 38 17
32.3686 -27.1141 13.017 66 43 21
-57.2096 8.26982 3.41222 51 35 18
-53.8072 10.1974 0.395905 152 110 47
37.9736 25.8092 -2.95442 85 56 28
49.4833 11.729 -15.6966 146 103 46
30.6003 -25.7078 13.9661 60 39 19
-2.39852 25.3565 2.35285 65 42 17
-3.13625 25.9976 0.233027 48 35 18
-53.9239 -10.9641 -7.69156 135 92 47
-45.5814 14.9764 -3.95028 41 31 19
74.2664 18.4021 -1.65276 82 53 27
56.5763 5.99668 -12.7774 147 157 119
-32.0538 22.8734 -5.51479 90 62 31
-35.0307 21.575 -7.04965 69 51 30
76.56 14.0185 5.02499 52 36 18
76.531 16.1204 2.75399 52 35 18
-44.8239 14.9974 8.98067 54 37 16
-31.1202 -26.8707 9.98248 192 164 106
68.8826 11.8025 -9.50587 111 115 90
42.9017 17.5361 9.22293 64 41 19
35.6491 25.0992 3.27822 59 39 17
47.7164 20.7606 9.58373 68 42 19
-46.5169 11.2136 -2.07536 68 57 30
-45.9125 -1.21087 8.90643 64 59 34
-42.6517 20.1995 -2.54229 105 71 34
-13.8102 21.3315 -9.96918 41 33 29
-44.0196 11.1607 11.1792 56 35 17
-45.193 14.6033 8.59106 51 34 14
-0.18133 24.6557 3.58403 59 39 18
-45.2261 8.0659 10.4431 51 34 16
-23.691 -31.9016 12.8618 49 33 19
25.0403 9.73965 -14.5864 136 106 50
56.6317 4.08348 -11.2734 129 139 106
-29.2149 16.1156 -13.4279 105 84 52
24.6389 24.1079 -8.79279 74 52 29
-7.29886 25.7961 -0.700272 87 58 29
34.1756 -26.5805 9.39873 129 105 43
-50.8294 -0.565475 -4.05416 37 37 30
53.2821 22.5413 12.7606 63 38 18
54.4312 30.0907 -1.10855 53 36 18
-44.1181 18.687 -2.48309 65 49 32
14.0668 10.8692 12.9931 63 46 22
-31.6103 23.085 -4.34247 67 46 23
-16.8181 13.2097 -14.0129 140 102 45
-19.2877 19.7467 -11.2897 52 41 32
-53.021 -4.58045 -6.86465 118 121 106
-49.939 18.0925 1.06961 133 93 52
18.8768 15.7578 -10.2244 87 74 50
65.24 25.5575 -1.41351 58 41 24
29.9678 -15.7549 9.44094 123 111 54
-46.0401 21.7705 1.98558 57 47 36
68.1763 17.8005 -9.06734 137 129 81
-48.4706 6.06752 -4.59936 47 39 23
67.0847 19.6725 -9.6237 148 114 54
69.9769 19.2541 -6.91171 21 22 19
-34.4296 12.2416 -14.4282 133 97 43
-5.49458 6.15166 -16.0714 81 69 39
-38.0223 13.7288 -12.9171 73 53 40
60.7232 20.9796 -11.5206 71 53 34
44.3258 27.7072 1.26294 66 41 20
34.1311 -29.4408 7.94092 131 105 41
19.7889 20.2288 -9.06386 136 102 56
5.86844 23.2359 6.30361 47 34 19
-44.4322 -0.106578 11.0882 49 40 19
-40.7212 21.5319 -2.3298 93 60 29
10.6389 24.3239 1.85084 62 38 18
63.9174 26.4563 0.453114 45 33 21
-10.477 10.2497 -15.3387 122 96 47
45.46 28.4499 0.882561 75 49 25
-39.9842 17.5376 12.3643 51 36 17
61.2809 22.1379 10.2229 25 20 15
69.2109 12.0709 -9.2771 107 111 80
73.9674 18.6179 0.974747 46 35 23
65.9194 18.83 9.9607 36 28 17
-47.5594 -3.7581 -8.89032 57 46 33
69.955 0.506187 4.30244 54 28 19
-32.9073 22.6688 -5.42378 77 51 24
-29.1335 18.7192 13.8505 24 20 15
-35.0422 22.552 -3.96022 59 42 25
52.7026 3.56718 12.4368 68 59 32
-61.023 -17.7326 -9.05633 154 117 49
-7.45238 16.6071 13.6058 64 42 19
9.1886 21.7713 8.16667 53 34 18
-56.3082 5.88295 4.78529 57 37 17
-45.1393 17.2732 -2.55178 47 39 27
-39.5171 8.80438 -13.618 143 106 52
25.1295 24.39 -8.80492 77 54 26
47.5802 24.7376 -7.90793 134 87 36
-41.1353 16.5686 -8.98503 55 43 30
-43.9745 -11.4765 -11.9061 102 77 42
31.3934 11.5087 14.0453 21 18 13
-49.8745 18.9978 4.28334 57 36 18
-27.6556 21.1258 -9.53153 116 78 38
-0.808136 25.9734 0.161612 49 34 17
12.4219 23.0237 5.8447 57 38 20
34.0241 14.1348 11.6098 59 44 21
-2.36368 23.2824 -7.73922 102 83 46
31.3717 22.5401 -9.44682 87 63 34
-45.8143 -2.46369 8.50843 65 61 32
-42.7071 -6.06883 10.8476 46 41 25
32.934 16.779 -11.9744 98 89 65
-54.1112 5.35081 -0.9132 146 97 42
41.2594 -33.0345 11.2343 65 45 19
69.6441 13.5927 -8.99535 126 117 63
-61.8226 -11.4023 -4.79104 138 84 40
-53.029 11.4841 0.323563 145 96 43
24.698 -3.92319 -15.3161 54 55 45
75.8981 17.7683 -0.725891 74 49 25
-83.5785 -13.6511 -2.64896 143 95 47
-39.1777 -20.3415 13.9881 54 34 16
-0.39859 11.5717 14.9575 26 23 16
-84.9743 -12.2678 0.622646 19 19 16
7.40422 -17.1438 -15.2367 118 80 38
69.4231 3.25703 -0.0538025 52 31 25
19.112 -14.8204 -9.07076 71 71 42
19.6911 1.35977 -14.7283 138 97 46
22.5346 -11.3241 -9.15259 60 62 43
34.6573 20.3496 9.33147 64 41 20
62.0161 19.2583 11.4862 31 24 16
-49.4877 1.02029 -7.43013 72 59 36
-80.156 -18.4585 -4.41074 102 73 39
8.72591 -15.4346 -15.7044 145 100 45
1.05513 13.8889 -13.7647 58 50 38
10.7361 -10.5759 -15.5351 146 119 56
10.7731 20.8131 -8.19874 122 82 40
55.9583 19.5395 13.4981 60 39 19
-34.4639 10.3721 -14.7036 137 98 45
30.8041 15.7263 -13.521 87 70 41
-8.32838 19.2953 -11.6088 60 47 35
-10.6503 20.0572 -11.0234 111 84 48
40.065 25.7074 2.78094 59 40 18
-64.2116 -15.5033 -5.94323 160 113 55
-50.6542 15.6452 5.70174 60 38 17
-5.31757 22.9275 9.111 52 36 20
-40.5526 21.3362 7.15167 63 40 17
-14.982 16.3686 -13.5023 45 40 35
-54.6159 -8.52806 -6.64082 58 60 49
14.8253 24.8431 -0.201939 50 35 17
41.9105 26.2656 2.3681 61 38 17
-6.93799 16.6763 13.6207 63 42 20
-40.5714 15.3831 -10.8698 99 69 35
48.8263 6.92734 -14.3717 114 94 52
77.8168 13.9735 -0.912963 27 26 20
-49.2734 -15.2945 -10.4883 139 97 43
-34.9791 19.3413 12.752 24 19 15
-16.3951 24.3792 -4.39967 83 55 27
29.5693 23.5097 9.30151 60 38 17
-67.9468 -16.8283 -5.89195 122 86 44
68.8946 21.8694 -4.09263 32 26 16
13.6656 21.282 -6.99041 50 45 39
15.7318 21.4585 8.06736 30 22 14
56.1863 25.7741 -11.9744 63 44 20
36.0927 20.2091 -9.64993 125 93 48
45.9657 29.2225 -0.987297 55 38 22
-40.4591 23.6294 2.69143 81 57 29
20.3829 19.6607 -9.94358 187 147 96
-33.7917 23.8533 -1.31867 83 55 26
72.7178 18.8235 1.95649 51 35 19
52.8111 30.1893 10.0639 62 41 18
-17.63 15.9809 -13.2484 137 97 44
77.6246 14.1084 1.09054 18 18 17
54.212 26.3872 -11.9563 62 40 19
-4.04836 24.0341 -4.91765 61 45 28
-50.035 -10.5048 -8.749 141 93 41
-44.0684 1.43533 -10.4979 146 110 45
69.1494 21.9221 -6.22673 24 22 19
33.5601 -23.3446 10.5099 25 25 21
-52.9057 0.336609 -1.60474 148 113 49
-5.94679 20.1575 -10.9151 81 62 38
58.2192 25.7204 8.72115 57 37 19
-36.0409 24.4265 1.34037 55 37 16
70.1721 19.3418 -4.54977 70 64 38
-26.9043 25.2654 0.536087 59 41 23
42.8834 7.16594 10.1791 61 49 25
-30.0802 18.7237 -11.4304 126 81 36
2.46002 22.6117 7.59714 59 38 17
13.2099 -0.43541 -12.1856 132 86 39
70.0189 19.1163 -6.05353 24 24 22
-30.8225 23.2112 7.68747 59 36 18
5.6882 24.5427 1.47683 62 39 19
-24.5568 21.4671 -9.24231 38 35 29
55.0374 8.22168 -14.882 73 72 53
-42.2799 -10.0971 8.01182 80 81 66
31.688 -23.2471 8.51247 169 141 70
25.9297 25.6846 -4.99725 51 36 22
-18.2932 23.169 -7.23957 28 26 21
30.2156 -11.9425 10.1585 67 63 34
64.9418 24.7823 -3.99217 64 43 22
-39.7784 1.26717 14.7875 49 37 17
-1.94829 23.8351 -5.57924 27 26 20
12.5122 -27.9601 -17.7376 175 150 75
-39.0125 -1.22452 -12.7196 103 84 45
31.4588 20.9573 10.332 62 41 20
35.004 -32.7406 14.3387 58 36 19
-25.4089 19.1569 13.298 64 42 19
-37.4842 8.69365 -14.2761 140 104 44
-54.0325 -16.5485 -9.59174 135 86 38
77.9989 14.7201 -1.82355 85 64 27
-19.0799 24.5575 -3.48526 89 59 30
49.5992 17.5093 -14.0512 132 95 40
-48.3474 6.06262 -3.48494 45 38 24
-50.5011 0.448511 -5.85499 44 45 37
-10.4457 21.9519 11.2329 29 23 15
-24.3128 21.238 -9.62644 42 39 36
17.1242 -30.9265 -19.6191 55 35 17
-17.331 22.852 9.80737 53 36 20
58.3116 29.6198 -1.79231 27 23 19
44.1046 23.3695 6.8657 62 39 18
-8.54227 19.4261 12.5283 63 41 21
-76.2344 -22.4005 -5.94648 139 100 46
-39.2186 16.2984 13.5907 39 28 17
-53.6332 -8.87749 -7.45243 68 60 56
-10.1208 -7.10708 -12.2319 134 118 58
59.9168 26.6869 4.92061 34 26 17
-21.7696 20.0572 12.5206 22 19 15
-37.459 1.15682 -13.1474 80 68 44
-2.60685 18.8776 12.5681 67 48 24
19.0352 20.391 -8.54587 119 83 42
-59.1338 -33.4829 -12.2676 121 79 39
8.72958 21.7691 8.18081 56 38 19
28.9325 22.606 10.9162 65 43 21
66.3656 24.4151 5.34426 56 35 18
33.8737 16.3579 -11.4438 102 95 66
19.8156 -20.9851 12.0404 55 43 20
-12.4462 25.3929 -1.66795 88 58 27
0.0514679 14.6763 14.0034 21 19 16
43.4184 27.2518 -3.29371 101 66 31
-15.1109 19.3195 -11.8143 50 44 39
38.0155 -30.7036 12.1846 47 31 15
32.8417 -25.1422 12.0191 53 36 19
-55.8258 2.65353 -1.06294 140 87 40
32.3028 25.2665 1.82625 66 42 20
-37.9974 -31.3595 14.584 32 24 15
-40.4032 22.3847 5.49292 59 39 18
-42.7648 0.212323 12.8078 54 42 22
-68.6253 -16.9195 -1.01259 25 20 14
-49.148 18.9251 4.90461 63 39 19
22.0328 -12.3905 -13.7318 144 152 104
-19.2266 24.3188 6.69888 27 21 16
51.7547 29.0556 2.88631 64 40 17
-42.467 11.8575 12.7363 44 31 16
-37.334 19.8606 11.5746 61 38 18
48.1165 21.3545 9.79658 65 42 18
-73.0462 -19.4271 -5.59847 137 116 94
25.7493 -19.424 14.9297 58 38 18
-36.5046 23.81 3.3499 66 43 19
-16.8171 24.1024 -4.7765 87 62 34
7.87363 -34.4744 -18.4851 53 36 16
-65.8456 -12.3464 -3.60492 36 28 20
-45.4681 -7.64505 -10.4958 120 85 42
-57.864 5.87466 1.36139 65 60 47
17.0123 2.04002 -13.8319 120 95 44
7.43471 -24.796 -17.1268 109 75 35
49.427 26.0279 5.92789 71 45 21
-25.8942 15.9799 -13.1605 77 58 38
-48.6989 -13.9633 -10.4254 138 97 43
30.1291 -15.9039 9.78714 104 89 40
-58.8913 1.46602 0.20047 81 62 42
-0.32222 20.8919 -9.63058 80 58 33
39.4666 -31.5996 8.7069 66 43 20
-86.5185 -16.4545 -0.386971 35 29 20
24.6938 -10.6968 -6.37352 106 108 72
3.59612 11.9737 -14.0521 145 109 48
13.7684 23.3558 4.34819 58 37 17
43.6872 20.7723 -8.99776 166 120 48
-4.35272 25.6429 1.64109 59 39 20
-5.12956 22.918 -7.66697 46 40 29
50.735 24.18 -14.874 130 91 43
-21.5742 24.4272 -2.77613 85 56 27
-74.5949 -19.5898 -5.24144 56 46 36
-45.4473 2.78564 -9.91373 142 105 48
17.2202 24.6078 -0.734463 55 38 20
-39.2312 21.6641 7.34025 58 39 19
77.572 13.1347 3.55502 19 17 15
8.40005 -28.198 -14.8297 51 36 17
50.3028 29.6721 1.38696 58 37 16
-46.79 0.0482635 6.76008 62 55 29
58.2058 22.3935 -12.4545 95 73 37
68.0456 3.93832 6.34308 48 25 21
-70.851 -16.8134 -5.01374 97 97 92
-0.430161 17.4955 -11.909 97 76 40
-40.0979 21.0933 7.80043 62 40 19
41.9148 26.1764 -4.49784 121 80 40
-25.9436 15.1133 14.9109 48 36 18
49.1088 15.1532 -13.9772 116 86 37
22.1884 12.1083 -13.5532 150 112 49
-18.8217 24.2494 7.95872 17 16 14
18.8664 -31.7109 -20.9745 100 67 28
17.1529 -5.87169 12.1603 58 41 19
-22.8186 23.265 9.15335 64 41 18
-44.7703 15.0319 -5.73981 91 62 30
-25.8165 23.1293 -6.21722 77 52 26
30.7502 24.1412 -7.1249 91 61 27
68.8194 21.115 -7.87982 97 96 91
-21.7656 25.4119 2.35296 63 40 19
9.84619 24.3864 1.73868 62 38 18
17.9354 -28.286 -16.1419 48 50 42
31.0904 23.0947 8.57238 63 39 17
-34.3996 23.8082 -1.32087 95 62 29
-21.032 13.0239 -13.0874 139 105 46
-55.2951 -9.72417 -6.22631 42 43 37
2.86111 24.9514 -1.55966 85 57 27
63.0271 27.0714 -1.40711 40 32 22
4.26856 24.8777 -1.28727 95 66 29
-38.1715 6.25402 15.8686 51 37 16
73.5866 17.5141 2.83304 61 38 19
-0.276291 23.8474 -4.80245 60 44 23
72.7771 16.031 -4.4766 108 69 32
-55.5774 6.79381 0.273445 139 90 40
-46.1596 13.3793 -3.17445 53 38 23
-8.90836 18.331 13.0203 62 40 18
31.9211 20.3311 10.4874 29 22 15
33.1151 -22.8604 9.66366 110 84 36
57.9759 27.689 -6.57188 103 70 33
14.6892 -12.6442 -15.1128 97 81 43
53.0287 25.2202 -14.6237 116 116 79
23.4035 -12.0699 -11.6347 36 38 29
-56.4496 9.18902 2.26299 57 48 36
-17.9128 24.2265 -4.23423 90 62 30
58.8096 1.94508 -5.43144 122 131 103
-27.6816 22.9978 9.19636 60 39 20
19.4062 -32.8479 -20.8625 118 93 38
49.9151 24.3922 -9.34789 130 77 33
25.1665 -8.59953 -12.027 82 84 56
74.1431 14.9791 -5.2037 127 87 38
-41.296 18.8643 -6.39738 62 46 23
46.5536 28.103 2.45966 62 39 18
37.8567 -31.1953 7.56583 56 38 17
-35.522 -12.4143 13.4625 60 39 17
9.37375 -35.4025 -17.2121 55 45 24
-35.8878 15.7927 14.9403 60 41 18
-17.8716 1.60404 -11.9406 108 100 62
66.5681 23.0038 7.26593 18 16 13
53.5867 27.1953 -12.9969 54 37 18
64.6355 15.7176 -12.2423 129 114 58
-27.4282 -30.3269 9.38054 110 77 33
7.13956 -23.1219 -15.5054 50 36 20
29.1437 25.5782 0.814178 57 37 16
-16.2762 11.0902 -14.3357 147 108 49
-57.7066 -13.0154 -7.41435 49 50 41
69.4069 3.07285 4.70283 46 24 21
49.1846 8.0397 -15.2009 136 122 74
21.4028 -12.1142 -8.41345 59 62 42
46.6806 26.6015 4.48666 62 38 17
32.759 24.8741 -1.76162 67 43 21
-59.558 -15.1121 -6.80054 28 23 14
-49.8484 -0.768675 -7.78553 117 82 43
2.1228 23.5616 6.30438 55 36 18
54.5716 26.4117 -8.97776 126 78 35
-59.6796 -12.4062 -5.16201 151 109 48
-29.8671 10.771 16.301 51 42 24
-51.4858 3.42699 -1.13173 135 106 49
-66.9848 -29.8191 -6.85548 24 21 14
-9.10993 23.0747 9.59694 43 33 19
33.0518 18.8606 10.4348 35 27 16
24.5846 22.2644 11.2558 43 30 18
29.5706 23.5087 -8.99802 106 67 34
24.3723 25.289 -5.30703 64 47 26
19.8125 -33.2578 -19.2591 75 63 26
56.9034 29.8835 -1.97979 81 54 24
71.7862 7.26659 2.83546 118 109 96
-11.8658 15.353 -13.7254 153 107 49
-46.4063 0.220383 8.04024 63 59 33
-26.5725 25.3159 0.912521 59 40 20
-52.0018 -19.8263 -9.90511 144 122 55
32.1313 25.1289 1.0254 74 49 24
47.5984 11.9033 -13.154 102 86 45
-35.3715 21.6134 9.5907 63 41 20
-28.2774 20.2229 -10.3904 120 77 35
-84.7373 -13.3382 -2.03635 119 84 42
-30.3584 -36.3912 9.9509 109 75 34
-31.0751 24.3518 0.187443 64 43 22
-55.077 4.40547 5.28298 57 36 16
-36.0185 18.5685 13.1061 61 40 19
17.0204 23.2855 5.83203 38 29 16
65.5551 14.5461 12.586 17 17 15
-38.1155 21.8021 -3.92669 66 44 23
62.5927 24.9903 -7.01805 88 55 28
1.15648 12.5745 -14.2233 59 49 38
-25.4853 25.3484 2.08287 69 41 20
70.5473 19.141 -3.20636 90 66 31
34.3543 25.3685 1.71156 59 39 17
75.4153 11.4923 6.94168 66 43 20
-58.8348 0.698349 -0.358307 108 74 39
-30.0349 19.3843 -10.844 135 94 50
72.3066 11.3427 8.2323 61 39 18
66.2822 23.2344 6.91367 24 21 14
-28.5233 23.9186 -1.96169 76 53 26
68.5539 22.2376 -0.544499 102 68 29
53.7234 29.4309 8.94782 105 66 34
-30.7581 21.1269 -8.55809 48 34 26
-83.2244 -20.8894 -3.61675 132 103 45
3.30755 20.5944 10.4266 25 20 16
-27.2785 20.3295 -10.4028 130 87 41
-13.5801 24.3208 -4.17197 44 35 25
62.7162 11.9225 -12.762 133 125 65
-5.04819 17.928 13.3521 46 36 22
70.2728 6.02986 1.41559 136 122 114
47.0781 13.6665 13.2178 58 36 17
-70.2519 -19.8414 -1.12481 28 22 14
8.81682 -23.891 -18.1944 134 89 42
-47.3622 10.4726 7.00553 44 33 18
-41.013 -9.48744 -12.6674 81 70 45
-85.9122 -16.3862 0.505089 24 22 15
-34.1023 20.184 -9.28019 118 79 36
-30.3768 23.305 -3.83058 80 52 25
-65.9154 -35.3889 -8.98506 54 41 25
-29.7496 -17.0163 13.8796 64 55 26
50.8577 15.2888 -15.8286 169 132 75
-43.729 15.4085 -6.86558 42 37 29
22.7638 10.2413 13.8828 19 18 15
-25.3064 23.8969 -2.57898 83 56 28
7.87628 -31.6033 -19.1105 101 66 33
-18.4913 23.8069 9.03516 44 32 19
-51.3354 -4.67485 -7.5738 71 64 52
-9.81227 25.9101 -0.285187 82 52 24
-46.5423 17.2991 -1.6873 134 93 39
-33.752 18.2559 -11.3889 123 79 36
-40.6481 20.8176 -3.40952 63 46 28
37.6598 26.2404 -2.02402 85 55 26
-18.8371 22.3344 10.6244 67 44 21
-42.2839 10.5931 -11.4438 35 35 30
21.6906 1.79229 13.7187 32 25 16
-49.567 3.59758 -3.36619 43 44 37
14.9171 16.6329 11.3878 22 19 16
-6.13359 25.6351 1.94964 60 38 18
25.6087 25.8399 4.13296 65 42 20
29.8959 13.8888 -14.1307 88 72 39
52.3894 25.7371 -10.6084 68 43 22
-39.6545 20.5089 9.26761 27 20 15
43.1787 21.6442 -8.64622 159 111 48
20.8755 24.7808 0.737526 66 43 21
65.2046 8.77498 -9.16881 78 84 64
-43.5268 9.144 12.107 51 35 15
6.72581 -15.7508 -14.4807 89 65 40
23.39 22.3103 -10.0433 61 46 33
-24.6908 23.4096 -4.55515 57 43 22
7.4917 23.3569 5.36317 48 31 17
-19.5293 23.4736 9.87849 21 17 13
-18.0508 25.7684 1.58689 67 47 22
-45.2491 15.3741 -4.53913 83 62 34
2.61507 25.0856 1.09009 61 39 19
60.3316 27.0284 3.16648 31 24 16
60.567 25.9912 -7.4143 70 48 26
-56.8067 1.51457 -1.04609 135 87 42
77.8386 14.2022 -0.700343 24 22 18
-83.4881 -17.3631 -3.79742 148 95 45
55.3184 25.8694 -10.885 55 35 16
69.4272 22.6911 1.13948 92 65 30
-40.721 -11.2032 11.0851 48 36 18
68.568 22.6884 -6.46449 67 52 24
-27.7529 25.0021 0.356564 81 57 28
-0.518753 18.3463 -11.494 126 93 47
38.535 24.4452 -6.02015 119 77 37
-66.5635 -34.3061 -8.07137 45 34 24
-62.2619 -6.72652 -2.32182 70 57 40
69.8172 12.7863 -8.59733 126 129 85
66.9627 24.8068 1.86199 58 40 20
-44.6455 17.5406 -2.83898 50 38 31
-37.8421 22.8263 5.98132 68 44 20
73.4119 11.8145 7.92091 60 39 17
-51.9524 12.8278 5.81399 56 37 18
1.62781 15.5398 -13.0591 104 89 51
67.9697 4.35942 -3.84574 104 58 51
-11.6183 22.3726 -9.19371 92 63 32
-67.5394 -18.536 -6.46382 138 99 45
30.2991 -10.8962 11.0076 63 56 26
16.9294 8.07927 -12.5661 165 120 69
76.9487 12.9128 5.44911 55 37 18
69.6676 20.8416 -4.38849 34 28 17
34.7805 -30.7192 13.2032 61 39 19
52.4925 13.8687 -16.2003 55 47 34
55.7394 21.7707 -13.7998 100 85 48
58.9464 19.3674 12.2927 17 17 15
-2.17148 0.597213 14.5435 32 30 19
-37.5686 16.1241 -11.6922 56 49 34
-24.6113 18.7362 -11.6759 57 47 32
-42.3864 18.8141 -4.37474 98 69 38
49.3844 27.1281 11.5296 36 26 15
-28.9659 20.8103 -9.74583 113 76 31
13.2452 24.7043 0.728779 56 36 17
69.7496 19.457 -7.75486 39 39 29
1.33053 19.2986 -10.8396 39 40 30
-46.2292 14.6986 -2.48152 100 73 36
-43.2105 17.7737 -4.60205 94 62 33
-8.21658 23.4215 -7.26451 83 63 35
-16.6242 24.0328 7.8617 59 39 18
-51.3532 -4.54933 -2.64976 60 62 52
67.1611 17.5978 8.60649 57 50 24
-40.8232 21.3533 6.96455 64 39 18
27.0435 -11.8196 13.2706 33 27 17
-27.951 24.1856 4.74734 64 39 20
-52.9664 -3.56766 -5.42372 35 35 29
74.5647 13.1263 -6.00516 157 130 68
17.4499 22.3934 -6.65738 131 84 39
67.4311 17.6879 8.36483 57 52 27
-23.9686 23.9061 8.31731 59 38 17
-48.8887 -3.19669 -8.44042 157 104 49
62.038 20.8033 -11.0394 103 79 41
40.2665 -32.0227 7.75364 87 57 26
-85.6016 -16.7661 0.732632 32 27 15
-82.5283 -12.3084 -1.50755 109 84 38
13.046 -26.5226 -16.9414 158 141 64
-51.6085 -11.0191 -8.31502 160 105 51
-40.8717 5.10268 -12.557 137 118 59
-46.7019 0.864784 7.34976 62 56 29
69.5266 11.9702 -8.58599 101 104 78
-85.4221 -14.3771 -1.66787 103 71 36
-14.0629 6.8941 -14.8533 139 103 48
59.4304 8.19398 -12.5117 122 125 94
48.7429 29.7635 -1.75912 58 42 24
-6.78877 25.3573 2.99907 63 40 18
-83.9222 -16.5867 -3.57355 143 95 43
-16.0442 22.9249 -8.76417 109 69 33
-56.9915 -11.7933 -5.9025 24 21 16
77.5451 12.5449 -1.95631 43 43 33
60.716 4.28016 -6.6149 102 110 85
-30.9205 18.7659 -11.101 122 79 38
-23.1665 -34.6072 13.7354 63 42 18
77.2113 11.4425 -2.62122 41 36 24
-33.2993 20.0818 -9.55103 112 71 33
29.527 -2.02685 13.1475 40 33 18
-2.39427 20.7404 11.2893 45 32 19
-8.60488 8.2912 -15.828 125 101 56
76.2154 9.94033 5.66066 67 54 23
-6.88795 23.2393 8.84343 22 19 15
-76.6259 -18.6912 -4.29708 73 62 41
54.7318 17.164 -15.4053 125 118 74
-85.3324 -15.2452 -2.1785 111 81 42
-10.256 25.5714 -1.37487 86 60 26
-23.6441 23.6029 -4.39169 56 41 22
-45.125 10.1454 -9.34944 103 71 38
16.9736 23.5128 -4.56251 66 47 27
-65.9666 -12.6999 -2.21294 34 25 17
-28.109 25.0036 2.0956 61 39 19
-23.3547 -35.1481 8.92236 99 72 31
23.6311 -11.3602 -13.2114 95 97 65
70.7834 15.498 6.31464 63 40 18
-24.5985 25.3113 2.18093 63 45 21
58.414 29.5014 -2.15841 25 25 20
-41.0593 5.23853 14.5361 49 35 17
8.7555 21.2761 8.63142 50 35 20
42.7798 12.1502 -10.5961 156 128 56
56.4393 17.7667 13.6805 61 42 20
-67.3729 -21.4932 -6.80116 139 116 56
8.38069 23.0478 6.34268 59 39 18
24.2139 25.5875 0.0996971 61 39 18
-61.5287 -20.5133 -9.57829 142 103 43
8.20424 24.1185 -2.67159 88 58 28
64.0794 24.3903 -7.7398 110 69 36
73.759 15.5374 -4.65642 115 74 34
-3.1799 10.7369 -15.0757 58 51 39
59.1164 2.91817 -6.77942 117 127 97
30.8179 23.0245 8.88832 64 41 20
23.5365 6.76668 -14.666 89 80 47
70.1407 -0.224174 3.76361 54 31 19
-19.4628 24.7072 -2.96483 81 54 25
-16.0587 25.7288 2.70427 64 43 19
-31.6184 21.104 -8.58385 99 70 34
-45.4683 -3.16333 8.5223 62 60 32
-52.1491 12.4038 5.80643 59 38 17
58.1853 19.4976 -13.5194 45 41 34
-25.839 23.5206 9.46661 25 21 15
-39.1664 9.21632 -13.6796 153 106 44
-41.6134 19.5648 -4.38007 52 37 24
30.2528 -15.8625 10.438 47 39 22
36.7478 23.3757 6.29454 61 40 19
59.4943 17.9085 -13.4087 145 115 50
-40.0917 2.46433 -12.4421 134 101 46
-51.9568 -3.20491 -4.25553 28 28 24
-34.35 17.7303 -11.7648 126 85 39
-45.0265 11.6124 -8.15242 40 31 20
-49.9366 13.861 -0.541134 154 108 47
72.5007 15.4805 -5.7171 196 155 106
-5.32326 25.9893 -0.130543 53 37 18
-27.2241 19.2837 -11.3318 127 83 39
-45.3639 12.1386 -7.19138 105 78 39
23.5406 -7.56845 13.1704 51 40 20
77.1187 16.4624 1.11512 34 29 23
-62.9791 -7.23505 -0.34066 42 28 16
-36.234 -12.6383 13.1488 61 40 19
-64.4965 -18.2171 -7.06169 127 96 44
-20.7906 25.6358 1.22387 51 36 18
-32.9616 24.2594 -0.263138 77 51 24
63.6016 20.8235 -10.5996 147 106 45
45.7452 25.3303 5.26625 60 38 19
36.6769 24.5977 -5.47842 93 63 28
-55.5541 8.49536 4.81874 57 36 17
-38.9044 9.64636 -13.7417 152 103 45
-42.5975 16.3322 -7.93803 83 58 31
76.3085 9.01651 3.43966 64 59 36
-31.3672 19.1328 -10.6935 115 81 40
-43.6275 13.1021 11.01 55 35 16
-37.0127 15.3185 -12.4863 72 52 37
-42.7447 15.9107 -8.19681 90 60 34
-15.9908 22.6035 10.8676 19 20 17
-33.6081 -12.1415 14.4972 51 35 18
33.2557 -24.7481 9.33362 143 119 55
48.5637 25.4198 6.25903 67 42 21
23.8661 24.1676 9.01958 60 39 19
-37.2235 21.9042 8.73138 60 39 21
15.7721 -23.7476 -13.1722 71 62 26
69.4255 12.6013 9.57487 21 20 16
-53.7515 12.5877 1.24064 115 75 39
6.1174 -3.90984 -12.8999 147 135 69
61.4959 26.8221 2.46636 25 20 14
-60.8738 -19.2854 -9.45698 152 109 47
-27.3407 22.0195 -8.32867 101 65 31
-48.9091 -10.0942 -9.11813 138 89 41
-9.81908 25.9025 1.65761 63 40 18
11.9489 -2.9387 -12.0999 63 46 26
-64.1561 -33.886 -4.49674 20 19 13
11.656 24.2371 -2.09636 73 48 23
-40.7516 8.84756 14.8255 23 18 14
47.5484 16.1522 12.6909 57 36 17
47.4603 12.3635 -12.6673 54 48 28
2.36832 14.1695 -13.4524 95 74 43
29.7237 25.3998 -0.251711 64 42 20
53.4347 29.2303 8.6739 109 69 35
-35.3491 23.6097 -1.52115 99 65 34
12.0315 -29.7873 -18.9305 170 140 77
-39.3059 -1.43256 -12.6474 69 60 37
40.5449 -32.0392 9.26984 79 55 25
31.1539 23.5648 -8.02582 93 62 30
-21.1102 23.3099 8.93658 51 36 20
-40.3643 21.966 -1.89828 96 65 31
6.93748 21.2102 -7.89165 39 37 30
-60.3227 -6.12296 -3.03682 128 81 40
76.3448 10.0005 2.05146 78 72 42
-69.5263 -15.5271 -3.32052 23 19 18
-65.8433 -12.5743 -2.03046 35 24 15
65.6935 24.3819 -5.27053 56 38 19
29.6841 -22.1643 7.50758 159 132 58
5.13213 23.1516 6.4353 56 38 22
55.5496 8.22943 -14.5046 62 63 54
-52.4717 6.57769 -0.940567 161 105 48
-11.9554 24.2112 -4.9046 47 33 18
-51.6349 9.37144 -0.440704 167 113 47
-51.7933 5.05946 5.78356 61 43 21
20.4093 2.44982 13.4349 35 29 18
-8.16908 25.6796 -0.813766 78 49 25
18.2999 -5.12543 12.8518 51 39 20
70.8213 15.0464 -7.43882 136 109 47
-43.5338 21.1873 -0.442327 113 80 37
49.1502 17.5118 -13.426 126 88 35
25.7061 25.7638 -4.11332 71 47 25
48.173 21.4896 11.4341 57 37 19
61.7816 21.03 10.7424 48 36 19
56.998 29.483 -2.93679 92 62 31
46.9552 20.9948 8.86079 61 37 17
40.3315 23.5205 -7.1579 78 58 32
-26.4772 23.1742 -4.46009 33 25 18
74.164 17.7641 2.2107 56 37 18
64.6395 26.0647 -1.2587 28 24 19
-33.0491 -13.4392 14.8494 50 37 17
-38.8658 21.6496 7.83471 40 30 18
37.184 21.2322 7.88971 67 42 21
24.9868 23.5462 -10.1159 118 76 35
-42.0684 7.00666 -12.2939 133 103 46
-27.0451 23.9788 6.17333 67 45 21
-48.9534 -1.48734 -8.20734 165 116 56
60.3418 20.2266 -12.0894 80 67 41
8.73842 -21.278 -17.3171 132 87 41
6.8382 23.9403 -2.865 94 64 30
-35.7108 1.58304 -13.6672 97 87 52
-0.973412 22.3844 -8.09978 122 86 44
-27.9253 23.2776 7.90412 63 42 18
-57.6712 -4.1792 3.57626 55 39 17
71.7789 14.2549 7.35225 62 41 20
0.293991 21.4126 -8.77573 60 55 42
-52.9942 -4.87256 -7.02233 84 83 68
57.7602 20.4681 -13.5595 130 110 59
-70.4018 -16.4239 -2.34696 19 19 15
14.858 -19.5118 -16.4621 150 142 79
65.1514 24.5852 -5.20999 55 36 17
15.4524 24.5612 -1.7206 84 58 30
-1.68262 24.3539 4.63998 61 39 18
24.644 13.6236 -13.8572 151 103 48
61.094 17.5396 12.5328 43 32 19
27.8106 25.5924 -4.14684 50 38 22
22.6859 10.3908 -14.1103 130 98 46
67.4443 24.4061 0.742698 101 66 28
-39.6196 11.3035 -13.2726 151 102 46
-54.1966 11.6507 4.98556 59 37 17
31.2323 14.8979 13.8275 58 39 20
-44.3328 3.37013 11.8456 50 37 17
-78.4851 -24.0992 -4.45675 130 106 50
-11.0775 24.1194 -5.41469 78 57 29
-52.8388 -3.76423 -4.84142 32 33 28
-16.1774 25.5229 -1.01061 73 47 23
35.6469 -29.5398 5.87024 115 86 35
7.26241 -16.0067 -14.9325 103 72 37
-53.8799 -13.1785 -8.13194 144 93 40
-46.5172 -0.761348 7.05402 63 58 30
46.4869 24.1272 6.49473 64 39 16
70.2581 15.1065 6.81392 71 45 21
-52.6679 -5.03275 -7.15202 88 86 71
49.3229 18.014 14.5266 38 28 15
63.0164 21.6017 10.1966 51 38 23
14.6559 3.65961 -12.5608 42 37 29
-62.8376 -13.6111 -5.41978 156 100 50
-51.4536 18.2104 2.92754 59 40 20
64.0916 25.5662 2.39427 35 25 18
-3.84541 11.1073 -14.9193 76 61 35
39.3079 -32.5964 5.3242 102 64 27
54.5039 29.6474 0.976349 59 37 18
-25.4933 17.2603 -12.5743 40 42 37
-40.1491 -18.3589 7.67279 120 95 47
11.3794 -25.488 -18.4781 131 113 56
-42.5054 -8.1609 10.2114 54 49 29
-25.5346 23.6525 -3.12586 52 38 26
-39.4821 13.6128 14.4137 28 21 17
-42.2028 -11.8859 9.90162 45 45 29
68.4374 15.5272 9.59616 48 35 18
-49.7911 16.3149 -0.146809 144 96 46
68.5179 1.91341 -3.18213 100 61 43
-29.3743 24.6944 0.713852 65 43 19
18.4167 23.1065 -5.76303 92 58 28
-61.6246 -17.5396 -8.94822 155 136 67
6.87291 2.24535 -13.4052 130 121 65
19.5077 -34.1853 -17.2268 67 52 21
55.103 26.0728 -13.135 104 95 58
-29.397 16.9548 -12.8891 123 83 41
-54.0918 -5.43677 -6.55124 54 54 46
-35.2666 16.3575 -12.665 130 89 42
69.4915 16.0566 6.54653 58 41 18
-17.5813 10.5974 -13.8556 86 66 42
-42.5223 -9.03137 8.24784 58 60 49
23.4834 25.7057 -3.03667 67 45 24
-18.5515 21.7709 -9.55618 60 43 30
54.044 28.6706 -5.70356 90 60 27
27.5793 14.3776 -14.2021 141 102 47
-4.32628 25.99 -0.141823 53 38 19
34.0195 -28.5292 12.378 61 39 18
-35.7279 -4.59267 13.5017 61 54 26
-64.4404 -35.0054 -10.4097 86 61 35
-59.7066 -8.16004 -4.00109 158 107 53
11.2362 14.2127 12.7888 35 27 16
17.998 10.7742 -12.0363 126 92 42
50.2908 26.2916 -12.7004 59 37 17
8.75261 21.6312 -7.80619 124 88 43
67.9325 23.1293 -5.07844 41 30 18
-36.1092 -34.1042 11.5885 110 80 37
69.2078 21.1827 -1.07816 90 62 29
66.5187 23.9283 -2.88208 53 36 19
60.2779 21.3783 10.8656 24 20 16
68.3127 5.73296 -4.17079 99 69 59
34.5996 -27.5845 11.3626 50 37 19
2.23965 24.8522 -2.05573 91 61 28
49.2946 21.9066 -10.512 91 55 24
-48.395 6.90321 -5.76835 50 42 23
-7.88873 23.8509 -6.29021 52 42 25
-54.3764 -6.69978 -5.66584 36 36 30
-14.3519 3.37463 -13.9227 66 57 37
-1.93172 17.9472 12.6973 64 43 19
-26.0346 18.6513 -11.833 49 40 28
-33.0574 18.4026 -11.2993 104 75 40
66.3174 3.0941 -4.9396 136 129 91
-64.6233 -32.5936 -9.95175 107 73 35
36.3996 22.679 7.19224 63 39 19
-43.0466 14.9435 10.853 59 39 19
-41.3964 -20.9118 11.7092 59 39 19
-60.6327 -9.51855 -4.39518 148 101 46
50.269 23.4049 -11.4502 60 39 20
-65.3869 -12.3583 -0.892036 35 28 13
-38.6894 -16.3302 8.30135 141 108 49
-24.2428 21.2182 11.638 64 40 20
71.4511 19.9698 1.46284 46 32 19
16.0289 -12.5485 -14.8586 52 49 33
24.5197 21.2486 -11.5903 143 93 42
35.7096 -30.1311 8.73858 86 66 27
-25.7236 19.0924 13.3835 65 41 19
-54.1256 -7.00015 -6.39979 50 52 43
19.0104 -34.2365 -20.1299 100 98 64
-28.7641 19.7402 -10.7697 129 87 37
-48.919 3.8518 -6.77677 63 57 37
52.2251 26.6994 5.96342 63 41 20
60.2184 25.1786 -8.6358 113 71 35
-51.7293 14.3992 0.18264 136 87 40
-26.6768 20.2388 12.7789 65 43 19
-42.1672 -8.1335 -12.4212 111 81 43
-44.3176 20.8034 -0.339928 109 74 33
-41.8378 12.3381 -11.0911 30 32 27
8.99043 22.8217 -5.49838 42 34 25
17.2651 19.1307 10.5443 60 42 22
6.52921 23.6579 4.41368 62 43 20
-67.2625 -14.4796 -1.79712 28 23 14
-46.7597 4.43465 -8.94812 130 85 37
72.3135 15.3273 -5.97859 141 96 41
16.7806 23.73 3.22515 63 44 19
-13.3729 24.5698 6.09652 35 26 16
35.4806 25.4247 2.14118 62 39 18
-14.508 22.552 -8.77848 81 55 31
-1.20341 24.4312 4.35938 61 38 17
-44.4583 16.4755 -4.52871 83 55 26
-66.179 -29.5239 -5.82428 22 19 15
12.9115 24.332 -2.21634 84 57 28
61.1747 28.3229 -1.37069 38 29 20
58.0136 24.3139 -11.2765 113 71 30
-39.0596 -2.62405 -12.6886 59 47 33
46.3472 10.0214 13.5945 56 42 22
-19.5665 24.2553 6.95502 34 26 17
63.3525 5.4003 -5.50892 155 165 128
65.5406 24.48 5.90065 52 36 18
-33.7686 21.9527 10.3847 32 25 20
52.2533 23.7638 -14.3563 134 133 90
74.5571 18.149 -1.90132 97 62 30
-56.7871 5.0289 4.62507 53 36 16
-46.3579 7.44659 9.33444 44 38 22
-29.0833 21.343 -9.05318 103 68 31
36.7164 24.421 -5.98754 101 68 33
38.4383 -30.8455 11.8502 46 31 17
-45.7744 -5.61758 1.72516 81 71 28
35.7523 24.5727 -4.70066 64 43 25
-41.194 18.514 -7.44811 96 62 35
31.3002 24.7935 -3.1671 69 43 21
-51.0884 11.7555 -0.414318 163 115 46
54.58 23.5598 -12.7814 185 178 109
-34.5647 24.4035 0.297268 62 42 21
54.9967 25.7006 9.63018 70 51 21
59.3963 25.7514 -8.5351 117 75 33
38.8721 -31.675 6.96045 76 51 25
69.1047 14.7383 7.5594 54 36 17
-0.683243 15.2677 -13.2604 133 97 45
48.9174 25.8381 6.05411 64 41 19
-83.9569 -18.7793 -3.53286 143 94 45
16.5381 23.714 3.26096 62 43 19
21.5788 15.514 -12.1695 164 116 63
-2.5939 18.01 12.8314 68 44 22
-84.5799 -19.0195 -3.0713 133 88 40
56.4569 17.0301 -14.7135 43 44 36
-56.9561 -35.6057 -13.1829 100 72 43
66.29 20.2409 9.71576 24 23 16
-32.7255 -15.5534 14.8192 54 38 17
-41.2725 -14.7106 10.9868 35 32 23
51.1912 27.681 -13.0217 58 37 18
-46.9809 9.44907 8.19778 44 40 24
11.2343 24.1337 -2.26448 72 48 24
-39.5992 -3.29231 -12.6139 122 86 41
49.8 28.615 3.13312 76 47 23
-33.529 20.5292 -8.96905 113 72 33
1.93283 25.1461 1.06503 60 38 19
-52.4731 -17.7188 -10.1502 142 103 48
-9.66164 22.865 -8.02898 41 33 25
8.99041 23.8557 3.51868 62 39 19
-4.34201 22.8605 -7.87741 49 44 36
5.81442 21.9368 -7.12094 81 59 33
45.2834 11.5484 11.6372 36 30 17
-48.7422 5.39711 -4.45959 44 39 28
-61.4947 -15.6404 -6.46815 124 93 42
-26.5071 19.348 -11.3539 97 73 45
-60.6628 -2.86174 -0.971798 62 51 36
-17.057 22.7853 10.1018 37 28 19
-30.1634 -26.9889 11.3951 40 39 28
-9.62135 24.1358 7.54281 59 38 17
25.7473 1.34193 -15.4597 123 101 49
-43.7701 3.33129 12.4462 49 35 17
9.51833 -24.4695 -18.5675 144 105 44
58.7466 23.4923 -11.576 160 120 68
7.05285 24.8786 0.545162 56 37 18
14.323 -22.7631 -16.4766 149 139 70
-44.3019 -6.95806 -11.0548 132 91 43
24.0182 25.3564 -4.88329 65 45 23
10.5748 23.06 -5.59737 90 58 25
-12.9351 25.8081 -0.508224 79 54 25
-23.0192 16.6926 -12.6299 148 104 46
48.8756 20.3189 -11.812 79 53 23
-27.322 19.912 12.9284 62 39 19
11.9903 15.2283 -10.454 75 73 61
77.6359 12.882 -1.20801 39 38 28
37.9572 26.6155 -0.412408 61 39 20
-36.9314 -18.6337 7.15447 137 96 40
67.2781 15.8269 -10.3722 144 104 48
2.48702 14.3236 13.9051 64 43 20
41.2683 21.9682 7.64048 33 26 18
-38.2213 -6.63181 -12.9148 139 112 54
-38.3596 -2.8157 -13.0881 67 56 40
70.7081 20.8469 1.40992 57 41 21
4.98953 24.3187 -2.08825 102 70 34
53.3952 27.7581 7.15693 114 73 35
10.18 -4.77768 -11.871 122 78 31
13.0974 -13.1508 -15.6282 146 100 44
48.4842 28.5928 2.70361 67 43 20
-5.98863 23.9298 -5.64837 71 48 24
-12.3068 13.6792 -14.2787 133 97 41
-39.2373 23.682 3.13658 69 43 18
49.5766 27.3409 -6.28705 107 68 33
66.3749 23.7841 6.09958 51 36 19
52.6777 21.1885 -13.9049 158 140 76
28.1182 25.9152 0.200052 54 35 17
40.8625 27.0206 0.110569 61 42 21
1.63443 20.8007 10.4208 58 36 19
21.2588 24.9773 -3.56157 63 43 23
17.5976 21.9779 -7.02043 124 80 37
28.4751 25.5567 -3.30886 72 48 24
34.5823 19.2954 9.76007 64 44 22
-61.63 -5.62939 -2.24712 81 66 49
-40.206 -6.22363 -12.8285 127 93 44
48.2369 17.6642 13.4172 48 32 17
52.0934 30.2092 10.977 58 37 21
75.5967 10.1449 -5.29918 111 110 73
62.1408 19.3879 -11.8571 146 117 55
59.5895 5.14265 9.78655 72 70 43
53.6492 29.7503 0.763897 61 39 19
26.0624 -15.6079 14.1112 63 41 19
15.8805 -16.4037 -15.5072 152 133 68
18.0199 23.6857 3.44853 59 39 18
-40.5808 18.3338 -8.09837 114 75 39
-55.3168 -20.3641 -10.6675 142 108 46
-48.7163 5.32039 -6.08203 58 52 31
76.3078 15.7562 3.47974 57 38 19
44.9607 26.2921 4.00759 64 40 18
71.1463 16.46 4.90608 66 41 18
38.3784 -31.2094 10.2528 66 41 21
18.9237 23.9897 2.33918 63 40 20
-57.6543 7.09517 1.94843 57 44 27
-50.6298 12.7407 6.19006 59 38 17
-65.8864 -35.4727 -6.26702 18 16 13
32.0484 24.2097 6.12893 57 37 17
-32.8494 -12.5733 14.9406 50 34 17
71.3039 17.3638 -4.11967 125 105 47
8.29329 -14.5107 -15.2907 131 94 42
-86.5618 -15.5456 -0.714389 48 41 24
59.6681 24.7347 -9.48989 113 70 28
40.4544 22.2497 7.36612 28 24 20
-35.9042 21.5519 9.46095 66 43 21
37.4782 -30.5331 12.3891 50 33 18
27.8651 -21.4935 14.5436 64 44 19
-47.7092 8.3089 -6.24611 78 57 30
61.7949 27.9696 -0.278858 32 24 19
-43.9502 12.8003 -9.01821 88 67 37
-56.6781 2.40744 -0.697853 132 84 39
-52.4369 12.35 0.150993 143 96 41
-6.89755 24.5004 -3.92124 95 65 31
77.4515 12.6351 3.8125 29 28 21
54.6012 28.5171 3.71234 67 42 17
76.7133 15.8802 2.82623 51 33 18
76.5665 9.78217 4.72995 62 51 25
-65.6574 -16.2961 -6.0069 136 89 43
-45.579 0.026947 9.69792 56 55 32
-31.6691 21.9216 -7.02442 90 61 30
58.0762 25.714 9.12304 60 37 18
-51.0087 -2.33807 -7.40277 61 60 50
23.3094 24.8721 -5.7804 74 50 26
-52.857 15.6939 4.25563 58 37 18
17.5997 -27.9006 -16.5272 81 83 77
59.6122 25.9261 6.4596 48 33 18
30.7236 24.9403 5.96926 58 37 18
57.0086 29.9045 -0.675236 33 24 18
30.5589 24.9658 -0.728191 65 41 20
22.065 18.092 -11.6545 75 59 34
-56.342 -16.4748 -8.96942 147 99 46
53.8398 27.9027 7.20699 114 72 32
34.6132 25.3537 -0.243187 59 38 19
-22.9301 19.5491 12.9279 42 29 17
-52.4308 -6.49752 -7.59616 70 70 61
30.528 25.4212 1.37119 69 44 21
50.6577 27.0614 -12.772 59 40 19
-51.7553 15.609 0.93924 106 67 30
28.0489 14.8609 -14.1315 154 114 50
-55.5067 1.86012 -1.47892 151 102 43
-12.3705 25.8278 -0.553804 75 51 23
5.8082 16.9943 12.3053 49 34 19
17.7618 -0.487741 -14.7584 64 55 37
45.0506 15.2994 -10.9649 131 105 50
-62.4663 -20.8921 -9.26427 158 127 53
-48.0125 18.3864 -0.11618 127 86 43
-58.1631 -0.458819 4.01072 53 34 16
2.07898 25.3898 0.138313 54 35 17
65.704 24.402 -4.11662 56 38 20
-45.3749 -1.65341 9.46881 62 58 34
-66.7579 -28.7467 -7.72348 59 57 47
-41.9737 -2.39183 -11.3113 140 92 45
-30.5829 13.5273 16.0087 44 34 18
7.81537 -20.0403 -16.1995 132 92 42
36.3823 23.8345 5.79987 49 34 19
-48.1532 18.0127 -0.306969 159 115 70
-2.54166 20.0742 11.8502 47 33 19
70.5607 17.7354 -5.37631 61 56 30
-78.4641 -18.6006 -4.55292 96 74 40
30.1994 -11.6345 10.05 68 66 35
-40.7301 -4.16599 -12.3165 130 95 42
-17.2057 21.3956 -10.2388 122 84 40
31.0156 15.5476 13.8013 59 41 19
-4.74365 25.0426 -2.96761 91 57 26
35.302 25.0452 3.34483 61 38 18
-50.1413 9.88457 6.23735 62 42 19
-12.1451 24.6367 6.10556 21 19 13
-31.8017 16.6432 14.9951 60 39 18
71.1272 17.1543 4.04197 66 41 18
67.447 14.288 11.1658 57 38 19
70.0682 6.46989 6.50579 55 35 32
72.7558 18.6618 -2.37851 104 68 31
-9.2132 1.08282 -15.1984 121 116 70
8.81647 -31.815 -20.193 121 82 41
57.5461 28.2173 2.27204 46 32 19
-16.8087 7.93915 -14.2197 41 40 36
75.7555 16.7698 2.65319 56 37 18
60.3716 22.594 -11.032 136 103 43
-36.3642 21.6167 9.23711 64 43 20
-3.93959 24.1341 -4.51674 79 57 36
25.9717 25.5046 -6.14141 22 20 15
-13.4834 25.6003 -0.950058 85 56 27
-39.4501 14.9872 -11.7963 134 89 40
-75.494 -17.9397 -3.60305 33 33 31
10.7976 -10.1617 -15.5272 142 123 58
22.4522 15.7424 -12.5867 145 104 48
-48.7405 17.5705 -0.243804 126 82 37
-41.4611 -19.1538 9.35044 57 58 48
15.2924 -16.2446 -15.8911 190 168 101
-58.6426 -14.2587 -6.68826 24 23 19
74.5548 8.28083 -0.847821 65 59 47
0.68808 23.8089 5.9812 32 26 16
50.749 25.5908 -8.68568 112 74 34
-50.2028 16.419 5.71785 59 37 18
48.3766 20.2029 12.6376 42 28 17
61.9333 21.913 -10.5265 146 101 45
15.6107 20.7392 -7.67303 132 87 39
51.2693 30.1808 10.4358 68 47 26
51.5154 30.2083 11.1087 56 35 19
29.8871 25.2403 -2.49438 63 41 21
27.5128 -19.3631 6.97131 169 155 84
-42.7686 13.5626 12.1085 40 27 15
58.701 19.5906 12.2607 20 16 12
49.1004 29.887 -0.476376 54 35 17
14.6945 21.3112 -7.15735 85 61 36
-5.66515 25.0445 3.39889 58 37 17
15.9268 22.7768 -5.85625 84 56 30
-43.25 20.0194 -2.12197 105 67 32
-40.6405 20.1876 -4.58598 36 29 23
-43.3436 9.33867 -11.0124 34 38 27
11.0477 23.6779 -4.12548 85 58 28
5.05405 18.1833 11.7157 31 26 18
-26.5754 22.9799 -6.34031 69 48 23
56.7285 19.9357 -14.2162 130 121 71
23.9652 24.4356 8.66376 57 38 18
-73.8494 -17.8045 -3.44748 19 22 19
-42.231 -11.3579 8.12865 72 77 54
44.858 18.1541 9.7301 59 35 17
18.8557 -32.0803 -14.0679 46 38 20
-67.2464 -18.2136 -6.41135 139 97 46
69.1357 21.0733 -2.6885 43 33 19
-51.7003 -9.45872 -8.07724 144 98 47
68.9182 21.6782 -3.64844 34 28 18
-13.3053 22.4201 10.2867 61 39 20
-44.1894 8.54942 11.5047 54 37 16
75.1456 14.6869 5.4283 56 37 19
11.0181 23.7908 3.03251 58 37 17
-37.5721 21.8333 -4.83393 70 47 23
68.6236 21.1718 -7.96458 36 34 30
-71.1591 -19.0851 -6.05016 115 83 53
-6.34537 25.1049 3.50192 61 39 17
-23.141 -32.1462 10.0664 94 66 29
40.2211 25.5585 -4.72739 101 64 29
-57.2178 -6.89595 -3.7192 162 108 46
-32.284 24.4203 1.40827 59 41 18
0.322823 25.0253 2.10841 61 39 17
8.1948 22.7602 7.04441 59 36 17
-46.3014 20.9549 4.76425 63 39 18
-85.0669 -12.6883 1.1338 14 14 14
57.2217 15.3269 -14.4789 105 108 75
57.8203 29.4069 0.0787621 30 24 16
7.7448 22.2887 -6.02366 31 28 25
57.5877 28.278 -5.64935 85 57 30
-27.1559 -30.1885 10.1274 67 47 25
-79.3298 -22.3411 -4.95812 148 105 47
-60.6539 -34.3754 -2.46672 26 21 14
-45.7945 7.03593 10.0165 50 38 20
62.5758 22.0853 10.0337 23 22 15
-0.636078 23.8894 -4.33527 41 31 21
20.3145 23.6814 -5.55768 80 53 26
-82.6146 -21.6029 -3.7184 133 106 45
-27.2135 -33.5745 15.2438 57 39 18
-61.9322 -5.28094 1.22332 44 30 17
44.5466 28.054 -2.55376 89 61 30
56.8561 29.0363 1.33284 17 17 15
-73.8813 -19.8899 -5.71822 92 69 42
-85.1087 -14.3338 -2.05443 113 79 39
25.8932 11.1658 -14.55 141 114 54
-22.766 25.0001 3.37494 59 38 17
-36.5987 23.3918 -1.49872 91 59 27
31.9844 24.4739 -4.27414 77 50 23
-45.2327 12.1129 9.44613 51 35 16
56.5771 13.6175 -15.1288 55 47 35
64.6314 25.69 -2.14149 58 44 27
-31.299 23.3025 -3.11836 67 45 23
12.9327 23.2834 4.89496 60 39 19
34.7681 24.3769 -4.62183 46 33 22
-25.7741 18.4136 13.694 61 40 18
-50.115 1.23865 -6.03478 43 44 36
-37.8266 20.7777 -6.58709 93 63 35
-39.4869 23.9362 2.48286 71 48 22
-45.9717 12.2442 -6.35323 81 54 25
-81.3026 -19.8651 -4.56143 151 103 47
-33.3279 17.2202 -12.1988 67 47 31
74.5088 8.5887 -4.74172 112 117 84
-26.5774 -31.1455 13.704 35 27 17
52.4044 26.8218 -8.0606 124 80 38
43.4964 13.3924 10.1798 54 35 17
9.12062 13.1449 13.681 40 29 18
-45.2402 -2.91251 9.07863 61 57 31
-24.7214 24.2149 7.11565 19 17 13
69.1584 22.7993 2.57085 49 35 20
-33.8989 -34.4252 16.2689 29 22 16
-17.3394 24.1549 7.83697 53 37 19
1.96065 25.0702 -1.6314 81 54 24
-41.6695 -1.73798 -11.3295 138 94 45
-82.2477 -17.1504 -3.89032 132 99 47
27.9026 25.437 -6.09753 65 42 19
-13.4167 25.5174 -1.17545 88 56 28
38.2503 -33.2235 3.63503 132 92 43
59.5837 22.0323 10.5776 59 40 21
27.3261 25.8509 1.4149 56 36 16
-40.326 18.9282 -7.7071 104 67 31
-43.5149 13.3872 10.9257 59 39 18
-59.9094 -9.27848 -4.40424 152 100 49
76.7751 10.3615 2.64885 67 55 31
69.8575 21.0621 -0.22288 105 73 33
-46.2104 7.43195 9.51225 42 35 19
-58.0545 -2.03639 3.92931 53 36 16
9.57817 18.9833 11.1986 29 25 17
-28.2642 14.8314 -13.9376 62 53 41
62.252 25.7781 4.64393 18 18 15
16.2743 -20.0135 -15.6655 149 125 57
-58.1397 -16.7247 -8.95447 147 94 42
-53.2823 12.164 0.696899 139 93 41
-40.3368 20.3552 8.44269 61 40 20
49.0428 25.6139 -7.89083 119 77 36
-45.3853 -4.2216 -10.0148 147 99 45
-37.258 23.8616 -0.298851 81 54 26
12.7023 -20.5642 -17.9564 134 118 61
-49.1589 15.6566 6.34601 57 37 18
-30.3609 24.0656 -1.35664 79 52 26
-45.3456 -6.66434 -10.3748 126 85 37
13.8509 18.7784 -8.85223 108 88 51
-63.0137 -7.09718 -0.735432 38 30 16
28.824 22.6351 -10.5203 125 86 36
-17.3383 25.8611 1.27964 62 40 18
59.6937 20.2548 -12.3655 65 52 34
31.691 -19.4202 10.9886 30 29 20
61.9776 22.6929 9.51237 33 24 16
-22.18 21.2779 11.5437 22 19 16
-50.0864 -15.1571 -10.1616 137 100 44
30.7405 23.3543 -8.53788 104 68 34
56.7525 27.4692 6.04167 33 23 14
17.9831 -27.2566 -14.3089 32 34 27
22.8264 21.0465 -10.7339 53 43 32
-37.8053 -3.07791 -13.216 73 62 42
-52.9104 13.8048 1.01151 99 64 29
-48.7683 4.95224 -2.92842 40 40 33
-38.643 23.8551 2.93393 69 44 19
-9.60516 8.97919 -15.589 57 49 40
-44.8065 6.94279 -10.3993 116 80 38
69.6766 18.9699 -7.71371 75 74 36
-55.1469 4.56561 -0.74512 146 95 41
-3.40439 18.3024 -11.9211 145 100 45
-21.192 25.6217 1.4515 60 39 18
-49.7447 -0.486209 -2.18345 54 56 47
55.3957 29.6257 -3.30972 92 60 31
12.818 23.9118 2.32015 61 37 17
18.3692 23.9757 2.0174 58 39 19
-64.6146 -21.1783 -8.18704 113 92 49
-64.5012 -10.8504 -0.566643 32 26 15
16.7159 20.8735 8.99684 23 19 17
70.9136 18.0302 -3.78766 128 111 53
-0.363663 25.8989 0.608408 52 35 15
-14.1027 25.4309 3.28205 61 40 17
-35.437 -35.9363 13.9159 31 27 17
8.18471 24.8308 -0.66222 63 43 21
-41.0633 10.162 13.8053 38 29 18
-27.8618 22.3413 10.4893 52 35 17
-11.7211 24.5898 6.30785 33 25 15
-16.4436 25.0507 -2.48377 78 50 24
15.965 7.86877 -12.0705 190 148 94
-53.2882 2.87211 -1.44942 163 116 48
-86.0415 -16.2193 0.400215 21 21 15
58.354 20.1243 -13.2486 124 117 103
-4.37397 15.3802 -13.3237 103 79 45
-39.8202 5.38617 -13.0262 56 52 40
36.939 -30.6476 10.5784 62 46 26
-67.6526 -15.6089 -5.37718 80 57 36
49.7636 29.9058 -1.27336 53 36 21
74.4621 16.5388 3.84464 61 37 17
-41.1159 -21.4943 12.3484 55 36 18
67.1533 23.2249 -2.35827 51 35 20
68.6867 11.4989 -9.49964 104 103 84
-20.8185 24.1899 6.98669 60 39 17
44.9948 27.3119 -3.74577 173 136 96
52.5766 23.2204 -13.686 155 156 106
29.1212 3.11441 -14.0009 142 141 81
45.4604 24.7636 -7.05757 122 74 34
52.0853 27.7872 -6.69809 105 68 33
-53.818 13.9303 4.5172 58 37 16
