ply
format ascii 1.0
comment Created by Open3D
element vertex 1416
property double x
property double y
property double z
property uchar red
property uchar green
property uchar blue
end_header
59.4879 27.0169 4.78224 27 21 14
69.3022 20.2137 4.08056 46 36 19
64.8674 25.0835 5.25336 35 25 15
32.0409 25.3307 3.47273 60 40 19
-2.68053 21.1034 10.9727 54 37 20
-6.54115 25.8474 1.20202 56 37 19
33.0071 22.0878 -9.11494 141 102 47
75.6524 14.3238 5.43847 57 38 19
75.071 18.2027 -0.820778 69 48 23
77.0938 10.6443 3.66441 58 46 22
72.915 15.591 -5.16809 114 73 34
-1.44508 22.9471 8.67823 38 29 18
-28.6364 24.5717 -0.280521 88 61 25
2.49796 20.1373 -9.95764 113 79 41
28.7843 -20.3018 13.6063 64 43 19
58.7435 25.5183 8.06711 45 31 16
19.8288 12.5118 -12.3956 185 146 101
68.0027 23.7154 3.22254 45 32 17
65.0812 15.8769 -11.958 112 98 56
58.8007 27.8342 -5.67923 75 53 30
18.2697 1.72791 -14.2261 71 55 34
69.0957 1.67786 -2.35631 94 60 46
17.0354 23.3924 4.64704 60 40 20
19.521 -33.5498 -15.7566 69 55 21
32.1698 20.1174 -10.6143 141 94 41
65.7868 23.5004 -7.9193 73 51 32
33.3505 -27.2899 12.4082 61 40 19
-27.5082 25.2169 1.31979 54 37 18
40.0258 -34.5597 4.89028 107 81 35
76.0169 10.5079 6.26498 70 52 22
67.1671 22.5341 7.31221 37 27 17
30.6306 -21.785 8.18379 164 129 56
69.2838 16.3957 -8.11204 192 163 101
-12.8654 24.0762 -6.63234 92 59 31
69.4957 20.7579 -1.45698 70 48 23
-61.0229 -3.07623 1.76329 47 31 17
76.61 17.3343 -0.620989 69 45 24
-8.01144 25.9951 0.485439 55 38 21
45.917 27.4744 3.07439 59 37 18
55.5304 27.6896 8.97636 49 35 17
7.81801 3.42184 14.4671 64 50 24
9.33266 18.8386 11.4473 17 16 14
18.4942 -31.1886 -19.9084 77 51 23
-1.41035 24.3848 -3.55009 70 53 31
62.4868 22.9244 -9.64943 145 98 46
33.402 -27.0676 8.37323 156 130 53
40.806 26.7151 -3.0734 100 70 37
64.2627 25.3183 -3.29379 85 59 30
-42.0418 17.5202 10.2871 58 38 20
62.1676 25.8486 -5.69378 90 59 25
61.8555 26.9301 1.9753 25 20 15
61.6359 18.5085 11.9539 35 26 16
74.8312 11.2547 -6.05062 146 140 84
33.01 14.9179 12.1094 25 22 18
70.1232 19.6624 -2.89697 54 40 20
-0.969009 18.908 12.2927 62 41 20
70.1456 16.7475 4.96583 64 43 19
-3.68489 19.6631 -11.1197 138 91 46
57.8189 28.2533 1.90685 51 36 20
75.7795 12.3391 6.61097 60 39 17
32.4698 -20.9751 10.854 25 26 20
17.7937 24.4866 -0.834026 55 38 20
-41.4934 23.5642 1.99438 64 43 20
70.4364 17.6235 -6.73424 95 77 36
34.765 22.4213 7.91032 37 25 15
18.7963 -21.0374 -15.0669 64 62 36
66.5557 17.22 9.33218 56 46 22
-57.5318 6.40913 3.96874 55 36 18
66.9336 10.2396 10.4247 58 52 34
63.5197 25.846 -3.76881 64 48 28
70.0592 2.83206 2.83188 44 25 20
69.8172 20.694 -6.68591 60 53 32
68.0166 22.3373 -7.48103 111 83 37
63.8541 22.4427 -9.54218 136 88 39
14.2598 24.1057 1.70334 61 39 18
68.5303 17.0236 6.79059 23 19 15
53.9263 2.59299 10.9829 65 59 30
56.5562 25.607 -11.7892 74 52 26
68.4231 15.7805 9.06725 46 34 17
60.4528 24.8484 7.48829 59 39 19
53.852 25.732 9.87942 69 51 22
77.4234 14.5183 3.15426 17 16 14
-24.2159 25.1621 2.55952 63 41 20
69.4928 12.1335 9.55005 23 19 14
-16.7472 25.6131 2.78711 64 41 19
77.4759 14.717 2.0834 15 16 14
66.1888 24.3243 -1.38158 72 50 23
7.36305 23.3211 5.53866 48 30 16
27.6111 19.0439 -13.1422 158 109 47
-51.6617 -1.71104 -6.3258 47 49 40
59.9212 25.1964 -8.79527 121 77 37
42.662 26.356 -4.3672 104 67 31
53.9937 27.5369 6.68994 96 61 28
61.717 27.7449 0.473253 18 18 13
40.5594 -32.7211 14.4114 54 36 17
23.7391 25.3225 -4.83167 68 44 23
57.2464 29.9169 -1.30144 36 27 17
7.77327 21.7152 -7.5557 43 36 24
63.134 25.2312 -6.02433 79 54 30
-19.3906 23.369 -7.15641 56 41 26
77.0718 13.6033 4.92655 52 35 17
54.4421 11.3539 14.3967 66 54 26
-48.5252 5.70934 -3.96673 42 36 22
37.2836 -31.1693 9.08072 58 39 17
-0.952576 24.6952 3.70157 63 40 20
-2.90808 23.5927 -7.24308 38 31 25
77.2076 13.2708 5.06516 44 32 19
70.6734 17.5368 -6.35405 87 66 32
47.0253 29.5158 -0.844385 55 36 17
61.3115 20.2229 -11.7471 127 96 48
69.1231 13.8497 10.0899 56 39 20
69.9699 0.295059 1.68966 55 27 19
78.0531 15.085 -0.952402 48 37 20
11.7242 22.2465 7.40005 58 36 17
75.8288 13.1108 -5.14913 152 123 58
77.3566 14.7797 2.71875 18 16 13
20.635 24.0732 6.44325 61 38 18
-33.1504 24.1376 -0.776606 82 54 28
64.1733 26.4273 -0.937386 47 37 22
7.83864 24.5459 1.36945 62 40 21
61.3405 24.923 -8.17569 114 72 35
2.55229 18.6899 11.7154 63 44 23
60.6587 25.4178 6.48696 61 39 19
64.8154 25.3564 2.46856 41 33 20
77.8627 13.5673 -1.63616 53 49 28
51.592 27.1347 11.3143 64 47 25
33.7962 -24.8525 10.0788 95 71 31
36.26 -30.5154 5.5241 202 167 112
32.6973 -27.7543 13.1047 65 43 21
68.2533 19.7909 7.41108 27 26 17
66.3686 23.5986 6.42951 47 35 19
68.3116 21.9525 -1.80619 66 47 22
-12.5494 23.6342 8.83835 59 38 19
-61.2605 -3.24475 0.790764 43 28 15
67.4737 21.8395 7.70003 49 35 19
65.7923 16.656 -11.2417 88 75 43
68.2884 22.026 -1.65621 76 54 25
66.2361 13.9186 11.9171 28 23 18
70.176 20.6527 -0.272717 94 61 29
76.2883 10.4963 5.92911 67 51 21
61.7952 27.7969 -2.2113 62 48 28
63.7 26.3221 1.13194 25 22 15
56.04 27.5084 7.87602 51 34 16
68.1637 22.3653 -3.56687 44 34 20
66.505 11.602 11.984 47 40 23
-6.4212 21.402 11.1757 29 24 18
59.6002 19.4229 12.0335 22 18 14
59.0849 23.9679 9.75193 55 36 18
62.436 17.6694 12.3527 20 18 16
59.4826 25.0511 -9.23677 116 71 32
29.1111 21.5826 -11.3955 106 75 40
-46.5553 11.2568 -3.3204 54 39 20
-1.44217 19.9077 -10.5257 137 98 45
68.7783 15.1702 8.9897 50 35 17
-34.2994 16.3004 -12.7671 87 67 40
67.042 15.0829 11.0403 42 32 19
68.1512 21.8211 6.37703 51 36 20
55.3661 29.8757 -2.53936 90 60 29
69.2191 14.1332 9.70918 52 37 19
33.4063 -29.3301 13.2456 63 39 18
65.7748 16.9591 11.272 42 33 17
5.65335 23.2281 6.33098 52 37 22
-7.92735 25.7549 2.0494 59 38 17
31.3844 -19.0941 11.2084 40 34 22
30.485 -19.2736 8.27742 173 148 79
59.0995 28.3084 0.873617 20 18 15
34.7305 -28.0977 11.5185 51 35 20
57.1493 29.9233 -0.975864 39 28 19
65.0873 25.4344 1.83047 47 33 17
71.0535 20.3689 2.18809 45 32 18
38.5982 -31.1363 13.6945 59 38 19
62.8802 25.7743 3.33456 34 25 17
-23.3786 21.7267 10.9714 62 39 17
-3.0343 24.3764 5.16037 57 37 16
67.0716 24.1514 4.33771 57 38 19
-24.2863 23.7156 8.7201 60 38 17
41.4467 -33.9389 10.5242 72 54 20
9.91212 22.5829 -6.51316 106 74 35
77.3406 12.881 -3.31592 92 87 53
58.7282 25.9785 -8.69794 128 83 36
39.7412 27.245 -1.55654 51 36 21
19.2575 -32.4618 -14.7124 60 46 19
77.5842 13.0171 -0.787727 33 33 25
58.729 24.6888 -10.1713 115 75 31
56.6306 24.8492 10.6014 63 39 17
-79.4536 -15.5217 -1.5011 33 26 17
65.3958 13.973 13.0342 32 27 17
66.8439 19.6155 -9.75456 152 117 54
17.3921 24.6122 -0.538738 52 37 20
67.5161 11.533 11.1275 65 50 22
29.8532 -16.5851 8.90956 184 182 125
69.5247 21.0741 -0.675611 99 69 32
51.7772 4.01902 13.3911 68 59 35
67.4048 16.6865 9.23261 51 40 20
65.2256 24.0088 6.65563 57 37 18
-22.2008 25.2184 -0.681698 88 60 29
30.3948 -23.7521 7.74593 163 142 65
32.9513 15.8836 11.7649 18 16 15
42.5364 27.9115 -0.977253 50 36 21
77.343 15.224 2.11785 28 22 16
58.7111 24.1418 -10.8422 123 80 37
41.2938 -32.9886 10.1777 65 52 23
-40.9562 7.86905 -12.8005 86 70 45
73.6827 18.7104 -1.17605 73 49 25
37.2422 -31.0116 10.0829 70 46 26
62.9654 27.0393 -1.75236 33 27 21
25.0755 25.6104 -4.60184 69 46 23
77.9719 14.6666 -0.956554 34 28 19
55.9207 20.9522 12.8746 64 39 18
76.3216 17.2719 -1.39421 91 57 28
6.4239 23.6715 -3.65531 79 51 24
30.6254 20.3623 11.6938 52 35 16
66.8938 22.8974 7.13826 20 19 15
51.6744 30.0431 -1.86146 61 41 20
2.26894 22.6501 7.6249 59 38 16
27.3436 25.797 -3.76699 64 44 20
68.8042 22.0176 -6.86345 39 32 24
68.3948 18.6789 -8.9834 130 121 72
-54.1343 -14.8084 -4.26906 61 39 18
67.9737 16.4761 8.20277 44 38 21
67.1793 23.8573 -0.412542 101 66 32
77.9631 15.4713 0.00489235 29 27 21
-39.3329 22.7545 -1.39693 101 68 33
75.341 17.6239 -2.11897 108 70 34
53.4454 28.8976 3.23849 65 41 18
76.8474 15.5873 3.08334 49 34 19
-10.0051 20.2773 12.1759 59 39 18
-8.9958 14.4397 14.1289 56 40 21
14.1301 22.0942 -6.274 30 29 27
65.3056 25.1438 2.77858 49 34 20
57.5107 26.3534 8.47831 60 39 17
57.7606 27.2108 5.91057 51 37 20
57.5572 28.0518 -6.12948 97 62 28
-7.2881 25.7983 -0.69619 87 58 29
66.7021 24.33 4.91809 59 38 20
60.3507 26.346 5.09555 55 37 19
-39.1683 21.2841 8.48986 31 22 16
76.2971 9.93915 -1.59045 52 46 23
-64.3809 -9.96684 -2.30119 41 32 21
66.5552 23.5008 6.40945 42 32 18
62.301 25.6044 5.25754 24 21 15
58.6867 29.4697 -0.914944 45 32 19
36.4118 22.7632 7.10737 63 40 20
38.3391 21.2441 -9.13473 131 96 44
70.5232 17.7213 -6.53386 83 67 33
50.1243 24.5921 11.8865 50 33 16
77.7257 15.783 -1.68554 100 62 28
68.066 18.8681 -9.27088 136 123 68
58.3082 20.31 -13.2647 81 66 42
32.9848 24.7721 4.42356 59 39 19
37.694 25.5293 2.42221 58 39 19
56.091 25.8625 -11.1755 51 32 17
-64.7412 -10.4433 -2.00752 38 28 16
39.588 -31.3428 13.1668 62 39 19
21.2071 13.5232 -12.6934 143 100 44
9.27281 23.6031 4.26113 63 41 19
0.152359 25.8184 -0.135288 57 38 19
66.376 15.9099 -11.0191 111 98 57
-10.7261 19.8127 -11.2237 114 85 45
-18.5832 23.1063 9.84283 58 39 19
68.5149 15.553 7.69225 44 35 18
0.366867 23.799 -4.63932 94 73 35
57.5156 28.3198 -5.56206 84 56 29
-50.8678 -0.358688 -4.35311 38 38 33
-39.6325 13.461 -12.4953 123 84 42
-8.14912 23.651 7.78465 64 44 21
73.6423 14.7304 6.24058 57 38 18
-30.0232 23.8429 -1.95264 80 52 26
48.4302 29.4397 1.29778 64 42 20
62.6944 23.0995 -9.4282 140 90 40
74.4765 17.103 2.98559 59 37 18
57.5938 24.0505 10.9183 60 38 17
3.22581 23.3451 -4.67794 54 49 36
53.6841 20.9153 13.5611 60 37 19
30.0299 24.2675 -7.36776 93 57 26
-38.5015 -19.3853 13.9323 52 34 16
22.4099 6.32303 -14.5322 138 117 51
-64.6418 -10.6089 -1.43524 37 27 17
68.2591 22.3622 5.39142 50 37 20
-7.74464 25.891 1.56534 61 40 19
68.6433 15.363 8.95756 47 34 17
-71.126 -18.8394 -5.94125 93 63 36
59.3267 25.6912 7.07355 41 29 17
14.7199 20.0764 -8.11752 120 83 39
54.5622 28.3882 3.98002 66 44 19
63.3993 19.4003 11.17 35 30 18
59.3833 16.7183 -13.5807 131 123 73
65.083 25.7281 0.726839 60 41 21
68.8825 21.7086 4.50207 56 42 20
-63.8159 -9.25917 -2.31185 40 33 20
27.7483 25.8972 -2.983 63 41 21
64.9735 17.307 11.6609 54 37 17
61.578 22.6973 9.60392 39 29 18
65.3412 25.5441 -1.03994 62 43 24
69.4118 12.5977 9.92004 26 23 16
32.6536 24.9788 -0.61375 61 40 20
64.3886 23.6047 7.67745 59 40 21
60.1662 24.6063 8.07022 61 40 19
57.4869 20.9134 12.2853 59 38 17
-47.2789 17.8571 -0.95546 177 133 89
66.1927 23.7356 6.36715 46 34 18
66.3192 24.1465 -2.06522 69 48 23
-17.9706 24.2098 7.84346 32 24 16
70.2633 20.8026 0.0952034 95 65 30
-26.4142 19.8317 13.0227 64 41 18
29.7299 25.6914 3.55445 49 35 19
65.9173 24.4375 -2.8189 62 43 22
9.09781 24.4056 -1.90238 88 57 30
-27.7251 24.5457 -0.537807 100 66 31
-34.6175 22.9422 -2.97141 78 53 28
65.0366 24.971 5.64487 41 30 18
-5.05023 14.0813 -13.9567 135 99 41
69.3338 20.6127 4.11937 48 36 19
54.8839 25.8651 -13.3736 190 186 139
-2.72485 23.9063 -6.21911 31 27 20
29.8081 25.4799 1.50328 61 38 19
48.0824 29.6663 -1.70421 57 40 25
71.6703 19.5535 0.0156403 68 47 27
51.8629 29.8844 0.638578 64 41 20
65.2963 25.3637 -1.71289 56 39 24
28.6809 24.6875 -7.94725 93 59 27
56.3925 27.4801 6.579 53 35 21
66.4302 18.3086 8.9876 40 36 20
66.0453 24.5088 5.56744 54 35 17
59.2419 27.0428 5.00244 29 22 14
37.7885 20.9756 -9.36432 102 80 43
-43.2492 22.4264 0.651939 101 67 33
76.7131 10.7527 -4.10018 90 86 47
18.8369 -31.6886 -14.3696 51 40 21
29.1828 22.4978 10.8655 67 43 20
58.0073 21.0875 11.8207 59 37 17
-13.6406 21.7679 11.1309 66 46 23
62.2868 25.9957 3.45996 19 17 15
27.7026 25.7766 4.07225 62 42 19
25.9175 24.9761 9.25801 21 17 16
72.3572 14.8161 6.76756 59 39 18
70.2342 15.2549 6.67967 68 45 20
37.9111 -31.3135 9.07475 59 40 21
6.64581 22.325 -6.16527 37 32 26
67.9324 17.8552 -9.33494 167 156 101
59.0476 24.7864 8.92975 49 33 19
-36.8197 22.1366 -4.33662 71 47 22
65.955 24.8712 -0.620594 81 56 25
38.2891 -30.8109 13.1273 55 35 16
51.9224 28.0808 -13.7273 48 31 17
-0.315567 23.8281 -5.01448 65 50 25
58.6242 28.6256 0.727695 45 31 20
67.2655 22.1049 7.73399 50 34 19
-15.4713 24.6951 -3.74313 86 58 28
69.2432 13.0184 9.7746 35 29 17
42.5274 27.7517 -0.429581 53 36 18
68.1584 22.2558 -1.49088 80 55 26
38.8093 25.2016 3.87001 32 21 14
41.4302 -33.8464 9.27277 58 47 19
34.4954 -28.5822 9.18711 139 113 54
62.7596 22.3999 9.76009 23 19 15
-18.1865 25.0254 -2.18711 89 59 27
-9.30688 24.3514 -4.51684 49 35 22
-39.2115 19.0296 -8.29596 116 73 40
27.1961 23.1689 10.9905 65 42 21
-32.5278 24.0049 2.87446 66 42 20
26.5698 25.777 -4.34869 63 43 20
30.2671 -13.8955 10.5118 54 50 29
58.4654 25.9536 7.77668 57 37 20
63.2134 24.0989 7.55847 57 39 19
69.4127 0.119217 -0.849957 75 49 33
-26.6719 7.18626 15.6204 22 22 16
70.7393 19.0261 -2.84477 93 65 28
20.1838 23.4729 7.46305 58 37 16
57.1516 27.7894 4.58804 28 21 15
-18.3626 24.1465 8.26276 27 20 15
-35.4835 16.6402 14.4449 49 33 19
-79.2264 -15.6306 -2.30766 56 47 28
68.7884 22.6864 3.5132 49 35 19
64.8976 17.9251 11.1916 55 38 17
0.951599 20.7446 10.6234 61 39 18
41.4299 -33.5014 8.48347 66 52 24
70.167 18.5302 -5.54637 33 31 23
58.5397 25.1145 9.09181 42 28 15
-3.84825 18.001 -12.1361 139 99 49
57.5052 27.3627 5.75197 45 34 22
-51.0849 -2.8087 -2.03877 86 88 72
-37.8815 21.5558 -5.44567 78 53 25
76.951 10.2435 3.79397 57 45 22
-17.6465 25.8289 0.970646 62 42 18
38.1019 -32.4375 4.36434 109 75 33
71.0629 19.2055 -1.81485 83 54 26
56.4393 17.7667 13.6805 61 42 20
58.9897 25.8588 7.21086 40 29 17
68.1058 16.4979 7.91123 41 38 21
69.3592 15.8404 -8.38562 139 105 46
51.9238 29.9791 0.259485 60 39 19
77.0979 15.146 3.0377 39 29 17
57.5419 28.5159 1.60074 34 26 15
13.614 24.8505 -0.515865 52 36 23
67.6676 24.4377 1.82033 50 35 19
77.4188 12.801 1.79005 23 24 17
70.1338 -0.00281715 2.8455 69 37 23
76.2062 9.93592 -0.632765 55 48 22
37.7938 -31.0602 13.8607 60 38 18
1.52118 20.5471 10.6815 60 38 17
16.8536 23.698 -3.57031 29 25 19
71.6493 16.4584 4.67323 68 43 21
-0.387833 23.8031 -5.38026 70 53 31
49.2377 29.8713 -1.36168 52 37 21
70.3125 21.3787 1.24066 77 54 26
-16.5542 24.6515 -3.66208 80 53 25
-13.5199 24.5858 -3.50623 81 58 29
77.9896 15.9441 -0.661758 55 38 20
36.1876 24.7732 3.94821 59 41 22
45.3597 27.657 -3.43355 111 69 33
70.0371 1.57475 2.90819 42 21 17
29.4215 -17.1404 12.4046 62 43 18
31.739 -27.7769 13.7088 62 39 16
-35.2665 20.6954 -8.45153 99 68 33
64.0524 26.362 -1.62415 68 49 26
66.263 24.3636 -1.03909 81 54 25
59.5546 28.7771 -2.60981 89 60 31
65.9923 13.1553 -11.992 127 124 80
3.41817 15.8047 13.1552 45 35 19
36.6624 -30.2982 7.29015 74 56 23
30.3515 23.7118 8.33282 64 40 19
74.6266 18.1422 1.36072 48 34 21
-34.9544 23.1244 -2.50283 88 58 30
-37.967 18.8173 12.1716 59 39 19
52.9975 25.0785 10.2024 67 46 22
57.7272 14.5732 -14.1374 125 116 65
62.2057 27.6402 0.15337 21 18 14
19.4539 1.4827 -14.6315 140 102 47
76.7813 14.6989 4.26864 59 42 25
60.1356 21.9933 10.4708 50 35 20
77.5155 14.6123 1.85947 16 17 15
71.4891 16.6563 -5.10648 74 50 23
64.4894 20.5143 10.4934 21 19 16
58.8402 27.5948 3.12639 48 34 20
-38.9313 -17.5451 12.6318 53 35 16
76.4816 13.8045 5.26025 53 39 18
61.2413 26.3123 -5.74748 48 38 25
60.4501 25.6934 6.12916 62 41 20
59.167 19.2989 -13.0606 113 89 46
64.9174 25.512 -2.08973 40 31 21
75.8745 17.9464 -0.130886 63 45 24
60.0989 26.2627 -7.35807 85 57 27
-25.4344 -31.3302 11.6399 42 31 17
-39.197 23.5891 3.35265 76 47 23
30.6301 20.2592 -11.3008 125 89 44
59.2033 26.6899 5.68653 27 21 14
59.4827 28.2864 0.73761 19 18 16
-57.4754 7.4953 2.04217 58 45 28
51.8717 22.4875 -14.5061 137 133 77
29.2302 25.5521 1.61499 52 34 16
29.2932 25.1859 -3.56917 69 46 24
33.7624 25.2545 1.06971 62 42 18
70.326 21.3985 1.46672 66 46 23
32.1245 22.857 -8.57767 68 45 27
77.2529 16.1542 1.3183 36 30 22
31.5216 22.0218 9.548 59 39 17
77.4503 12.9244 0.885406 19 19 16
32.0427 21.9146 9.30388 37 26 15
29.2246 25.7761 4.06478 45 30 18
-45.4318 21.1138 0.675823 104 68 34
77.3512 12.2819 -1.0902 46 46 32
-28.0486 24.8665 2.57214 59 39 16
56.9977 19.259 13.1549 60 40 19
65.4462 15.1693 12.6462 30 23 16
-7.70004 26.0057 0.60054 51 35 18
59.284 27.4619 3.14506 27 22 14
77.2338 15.0651 2.6795 27 22 15
75.8545 17.9696 0.175159 32 29 23
71.6198 19.6583 1.99111 48 33 18
39.7971 25.7216 -4.34896 94 58 26
-22.226 23.9391 7.74987 63 41 18
-17.8734 19.8114 -11.4298 132 88 40
68.9558 21.6596 -7.08453 76 73 70
9.02008 24.5089 -1.62612 80 53 24
69.7507 3.12641 4.2939 45 26 23
77.7008 15.6828 0.774982 29 27 20
-26.2869 23.1327 -5.23294 47 33 19
41.2947 -33.8878 11.4739 67 49 20
61.4013 25.6024 -7.11455 93 63 31
72.9174 11.9015 8.05273 59 37 16
-36.6503 16.7303 -11.843 129 95 62
7.88155 -24.7417 -17.572 119 80 37
37.4639 -30.9759 10.3878 68 47 26
1.48094 25.0099 -1.91465 90 59 31
65.9444 19.0379 9.90405 38 29 16
57.1896 3.33308 -10.2133 107 115 87
69.6384 0.672548 -0.640545 66 40 33
6.86421 22.0842 -6.52769 31 28 25
-42.5513 22.9261 0.791683 89 62 36
77.3947 13.4201 4.36119 24 21 14
54.142 26.6151 -14.0981 81 71 40
53.438 26.174 10.13 68 51 24
41.3425 -33.3814 10.9324 66 48 21
35.3878 -28.7201 11.1225 40 33 23
74.9694 18.4093 0.321985 36 32 25
56.2885 29.2461 -3.95091 95 62 28
30.3467 21.0401 -10.9111 93 75 41
57.1693 28.4082 -5.57069 89 55 26
30.1788 25.2861 5.80038 55 36 18
12.4357 23.0298 -5.21855 112 78 41
77.2722 11.5696 3.16499 55 49 28
55.834 1.84688 9.15314 66 59 31
-0.338577 24.5935 3.75294 59 39 18
-39.2599 20.6395 -6.06117 84 57 28
37.3257 25.2384 -3.89972 84 55 27
7.05133 24.9854 0.226833 54 36 18
3.18535 23.3684 6.00527 59 38 17
28.5654 -16.9136 13.05 63 44 19
-64.007 -19.8088 -8.1821 121 103 50
30.7093 24.5316 6.80495 59 38 17
72.2176 14.0637 7.41174 62 41 20
77.3272 15.0608 2.38125 22 18 15
52.8069 29.3833 -3.86508 92 63 28
27.1664 -14.4797 7.79495 147 146 90
54.6369 24.8962 10.284 74 44 17
65.7056 17.6936 10.6929 44 34 19
4.62029 24.7915 1.01022 59 39 18
63.6243 25.5279 3.19407 43 29 19
55.1404 22.4306 12.5157 62 39 18
76.9069 15.2398 -2.76301 129 87 34
53.3308 29.1837 -4.40779 94 59 28
42.2713 21.8663 -8.5866 156 111 47
-16.0986 23.6039 -6.66816 41 30 20
76.055 17.7407 -0.470276 69 48 27
-14.774 20.1151 -11.3846 46 41 35
76.1832 13.423 5.79987 55 39 19
68.2082 16.1231 -9.35483 132 92 37
75.7835 16.4636 3.09944 57 37 18
67.6963 23.0361 5.70739 34 25 17
31.1031 24.3157 6.75213 57 37 17
68.7875 15.2862 7.44686 58 41 20
66.254 24.802 -0.253128 96 64 31
28.1456 -23.6321 14.5993 58 40 19
-46.6333 10.285 -1.93622 63 48 24
51.2243 29.7646 1.14549 63 41 19
72.1983 19.4376 0.606964 50 38 26
14.3854 23.7406 -3.27765 80 57 33
30.1119 22.7842 9.79482 57 35 15
72.5128 15.672 5.43809 62 39 19
18.122 24.5352 0.171177 60 39 18
-61.9377 -4.23293 -0.704985 43 32 18
42.8132 26.8664 1.76489 66 42 19
75.9719 17.8792 0.167374 35 30 22
-41.9278 23.4281 1.36016 55 42 31
69.3757 21.1317 -6.95817 49 42 28
-48.8425 20.509 2.86054 51 36 22
58.1304 27.0567 5.94607 53 35 16
63.9365 25.2759 5.09556 51 36 18
69.6868 3.58541 0.833543 64 41 34
62.4565 24.9909 6.62169 21 19 15
64.0011 26.2003 0.974638 21 20 14
29.7615 21.8328 -10.6604 50 39 32
61.252 27.9661 0.447929 35 29 17
69.0526 21.8045 -4.34742 30 26 18
56.092 28.8621 2.53711 54 37 21
68.9149 23.1734 1.27668 71 48 21
72.0129 18.5559 -2.8536 123 82 38
36.3295 23.5368 -7.19106 122 78 37
-14.1013 23.0181 10.114 57 39 19
27.9774 25.0878 -7.96327 99 63 30
76.4107 10.2264 -1.18224 54 45 21
-22.4504 23.7103 8.29672 63 40 19
64.2163 26.4638 -0.262114 46 35 19
73.8363 15.2536 5.49994 58 38 17
73.0952 19.0588 0.221352 46 36 26
71.9954 19.2152 -0.845015 74 49 25
70.5081 18.5202 -4.2037 103 95 51
73.6253 18.6702 -1.52672 78 50 26
69.6532 21.2839 -5.91795 41 34 22
58.2324 28.2046 -5.11217 41 32 22
28.7233 -0.84491 -13.8129 130 120 64
32.0218 -20.7128 11.2656 40 37 24
68.1281 23.5821 0.486061 111 74 35
-22.9186 18.9242 -11.8248 138 95 42
29.3727 23.7336 9.21973 60 38 17
-22.8531 -32.7828 12.9207 52 36 17
72.6852 16.634 4.20066 67 43 20
59.6985 27.3345 -5.73412 97 63 30
78.0084 14.9928 -0.421988 29 25 19
71.1308 17.0361 -5.00373 78 55 25
68.7724 15.106 9.35436 51 35 17
62.4892 26.8171 -3.51077 73 53 29
67.6391 20.7692 -8.88553 152 119 75
31.6606 19.4672 11.22 63 50 33
26.6148 25.923 -0.970364 55 39 20
51.8854 29.4378 11.421 54 37 20
2.2254 23.8672 4.77785 33 24 15
67.9815 21.336 -8.28473 105 76 40
-6.23129 25.4823 2.55398 62 38 18
59.2016 18.3555 12.6743 26 19 15
-59.4765 -14.9389 -6.90162 28 23 15
68.646 1.97491 -3.01989 93 53 41
-8.1264 25.838 -0.370663 76 50 25
35.0392 -28.1563 11.2514 47 35 19
23.4858 19.2188 -12.1001 140 99 42
33.5002 24.7809 -2.78288 69 45 22
77.4433 16.5165 -0.941624 76 50 24
66.8017 21.7304 8.61311 52 37 20
72.2403 19.0886 -1.14664 73 50 26
52.1617 20.7992 13.9061 54 33 16
-11.0759 22.6923 -8.27116 56 44 29
57.4552 28.391 1.98278 32 24 16
30.9641 19.6727 11.8079 57 39 16
72.3708 18.2007 2.8807 58 36 19
-50.5075 -0.0902557 -3.87406 36 38 32
56.4914 19.4057 13.3298 63 43 21
74.1257 15.5688 4.9773 61 39 19
74.8274 18.0047 -1.90116 99 63 31
50.0637 29.9484 0.206896 54 35 18
6.60596 23.1969 6.31336 42 27 17
57.7458 24.812 -10.7151 110 68 30
69.4736 22.6817 1.26039 71 48 22
69.2072 17.9597 4.8624 53 39 19
58.0084 11.8348 -14.3854 57 55 41
69.4786 20.6487 -2.61379 37 29 17
60.604 22.9641 9.57789 60 39 19
-41.2976 17.797 11.3848 24 17 13
65.0564 22.1878 -9.33933 135 92 43
-70.434 -16.317 -2.64596 22 21 17
29.8395 -18.3977 12.446 60 41 18
55.9072 29.5161 0.84977 51 35 17
33.6045 11.9078 12.7123 38 28 19
63.5654 22.1901 9.73629 39 29 20
29.1639 -1.08865 -13.4374 133 130 75
70.1626 -0.364056 3.55493 57 34 21
77.0926 10.596 3.43156 63 50 23
-37.0085 19.9211 -8.3284 28 27 22
70.2953 19.7041 -1.49419 75 50 25
-21.3931 25.1025 3.6227 66 42 19
77.2078 12.1686 -0.386351 49 50 36
67.0302 24.2314 4.01167 54 36 17
31.4804 23.2072 7.99648 60 38 17
63.3387 26.2036 1.78312 25 19 16
-31.7699 22.9198 8.9849 61 40 20
69.2937 19.4424 -8.19117 110 107 65
66.0205 10.8623 12.0441 26 23 15
63.18 23.1799 8.70674 51 35 19
71.6748 19.5973 0.333563 60 44 28
28.118 25.8792 5.23947 24 19 15
22.625 14.5179 -12.9902 126 90 45
38.4885 -31.5195 6.98942 76 52 24
62.104 27.0751 1.51246 32 26 17
77.4001 12.3763 2.78567 42 41 33
-54.5827 -14.9595 -4.36189 61 40 18
67.8931 2.38332 6.06665 45 25 17
58.0213 28.2023 -5.39635 56 42 24
70.7512 4.67875 3.66598 54 30 26
27.6862 25.7607 3.66118 62 42 20
-23.6284 23.8641 8.28703 60 40 18
-32.4143 24.368 0.749527 57 39 20
-17.3208 19.3333 -11.8292 121 83 40
55.6349 27.6796 5.94878 63 42 19
77.3204 11.9519 4.05355 50 40 20
52.8481 24.2774 -13.9719 131 132 93
68.5865 22.0216 4.9901 54 38 20
-1.6021 24.9301 -2.6381 94 63 27
-15.3464 22.9875 10.4748 19 19 14
65.167 25.6528 -1.35474 52 36 22
59.8124 26.9614 -6.19733 97 61 29
53.4917 10.7459 14.7323 59 42 19
-13.7731 24.7718 5.31988 62 40 21
69.1461 1.24166 5.11936 56 33 20
61.48 21.1164 -11.0483 97 74 40
41.289 -34.6495 7.30571 87 76 36
55.4365 28.0511 8.18081 53 38 19
61.0821 18.1699 -12.6434 125 105 55
27.5479 25.5331 -6.16898 63 42 21
5.71341 21.8427 -7.25127 96 70 38
77.6306 14.2795 1.19469 18 17 16
65.4232 25.4708 -0.796072 64 45 22
71.151 19.9516 0.242085 74 50 28
65.6003 19.8131 10.1514 37 29 17
55.5221 27.8498 7.36156 68 45 22
31.4221 22.7792 8.75734 60 38 18
34.1843 19.2238 9.89974 60 41 18
-2.2731 25.7956 1.29255 58 40 19
22.2537 25.081 -4.43297 74 49 24
69.4867 1.80601 -1.06976 72 51 38
63.2588 26.6049 1.16261 41 30 18
26.3569 25.7967 5.2829 56 37 18
-51.0364 -0.390503 -5.85527 42 42 35
58.5899 24.7538 9.54031 48 31 16
70.4746 21.0403 0.873795 85 59 27
70.4458 4.63976 4.52527 49 28 23
55.6577 16.7266 14.0809 63 48 21
69.2688 3.22039 -1.96332 64 33 28
-16.5342 22.3701 11.1502 20 18 16
30.0324 25.1249 -1.05556 55 37 18
52.8832 27.544 -14.8577 93 68 38
56.5433 15.9109 13.7159 60 44 21
59.0982 24.7621 -9.85618 117 74 31
52.2986 23.9766 -14.4363 134 136 90
50.5557 28.1197 11.855 56 35 19
76.5438 16.3801 2.31646 45 32 19
44.0017 27.2144 1.99537 64 42 23
35.1445 -29.5058 8.94114 108 87 36
13.4964 12.0101 12.9032 62 43 20
70.0703 1.29377 3.16407 43 21 18
69.2806 20.8996 -2.68337 43 33 17
49.7026 27.6774 4.24529 70 45 20
24.1503 25.5257 0.376146 61 39 19
57.0432 28.8747 -4.31796 96 63 31
37.3376 25.2722 2.82947 60 39 18
75.1045 14.1055 6.0882 54 35 17
-57.4211 7.95692 2.58925 52 37 19
29.489 -20.9934 13.2819 67 44 20
-18.0443 25.7067 0.517612 64 42 20
54.6158 29.6497 -3.47898 95 65 30
46.0197 24.7381 -7.26515 127 79 39
-46.7215 21.0737 4.25523 64 41 19
-28.4603 14.9192 -13.9368 72 58 43
73.3241 12.4623 7.82757 64 42 21
-42.8725 22.7506 0.811646 90 63 34
71.5397 16.0775 -6.22861 168 135 88
-35.9496 21.8775 8.77544 61 39 18
12.7882 23.1412 5.37133 59 39 19
53.697 12.1196 14.8137 65 48 23
73.7191 13.7533 7.1258 58 37 17
70.3168 19.16 -3.88852 77 62 28
77.4891 16.54 -0.468657 63 42 21
71.6848 18.8531 -2.53835 103 66 30
64.108 26.3536 0.349821 41 32 18
60.0702 27.3454 2.40319 31 24 16
70.4716 4.56147 4.31475 48 28 23
49.6649 29.3585 1.87097 63 39 18
58.7413 17.6132 12.9741 30 24 17
10.8039 22.7726 6.67368 56 37 16
22.8951 18.2604 -12.2774 113 85 43
67.2349 23.6253 -5.62696 22 20 15
59.5806 20.9346 -12.2024 128 99 46
-2.82536 21.7126 10.3183 43 29 18
54.5074 28.7589 8.43165 88 55 26
29.924 24.5506 7.35503 60 37 18
65.4496 13.7837 -12.3147 66 65 46
26.4454 -16.1229 14.1511 64 42 19
26.7752 25.5972 -5.99957 35 25 17
-20.9866 18.4168 -12.0584 129 101 50
54.7546 30.1182 -1.33967 55 38 19
63.1655 26.4929 -3.06014 55 43 25
3.64343 23.6325 5.13853 61 39 19
-39.5601 -18.4403 12.4813 54 35 17
72.6868 15.3958 -5.60357 130 89 39
65.4151 13.6921 13.0132 28 23 17
31.0298 19.8246 -11.2671 189 154 97
3.01508 23.1496 -5.1433 40 32 21
61.0181 27.5367 1.4145 22 19 14
55.9583 19.5395 13.4981 60 39 19
24.6063 25.7356 5.57178 61 39 19
61.7902 27.9738 -1.10804 41 31 20
-10.643 25.0858 -2.53624 94 63 30
70.1441 16.8079 -7.2861 139 112 54
-41.6382 7.25711 -12.4465 128 99 46
58.5487 28.0637 1.65316 31 22 15
76.3136 13.5975 5.5661 54 39 19
62.3395 27.6881 -0.916725 20 19 16
52.6328 26.9239 -11.7318 63 41 17
69.4456 2.22858 -0.579424 58 40 30
-21.9624 16.0096 14.0728 43 36 23
57.7155 23.7212 -12.1448 135 91 39
67.4125 1.44461 6.46889 53 33 18
-20.0542 25.1484 3.44075 62 39 17
70.0716 19.8073 -2.153 48 36 20
58.6916 21.8331 -12.4241 146 110 49
-22.5424 23.529 -4.7247 53 40 23
77.071 14.3463 4.32242 41 30 17
18.2042 23.6696 3.80972 58 39 17
11.2589 23.1655 5.675 57 37 17
10.1789 19.071 10.9514 31 24 16
11.7335 -27.6184 -18.3349 141 121 59
76.6132 13.1737 -4.29101 127 115 59
-32.3579 22.5302 -6.1304 99 65 28
-31.8947 22.671 -5.94942 94 63 30
-70.0178 -16.3587 -2.08471 21 19 14
54.7338 28.8736 -5.29094 96 59 27
53.9434 11.4804 -15.7017 123 123 81
68.1081 20.9196 7.41948 20 17 14
41.2787 -33.0194 8.77583 60 43 19
26.8624 25.8229 2.07329 64 40 20
9.15646 21.0968 -8.2026 130 86 41
66.39 16.6388 10.4347 39 32 19
56.2444 28.7645 -5.21807 97 60 29
63.5992 24.7799 -6.89215 71 50 27
65.4813 8.63221 10.0535 64 62 42
66.9808 17.2835 8.93896 56 48 23
77.4473 14.6363 2.33188 16 16 15
54.2809 26.0424 -11.2331 64 40 18
66.3355 24.0904 -3.57019 50 35 19
61.6239 27.9954 -1.90903 62 49 28
77.123 11.5943 4.76212 60 43 20
68.1567 19.0844 6.9967 52 47 24
77.0113 16.7767 -1.4868 93 61 30
30.8444 24.903 -1.45837 61 39 17
64.956 24.8274 5.90158 40 29 16
65.4283 25.5282 0.870079 56 36 17
63.4377 23.3933 -8.89981 135 83 36
74.3888 18.4152 -1.27573 73 49 26
53.7818 15.6498 -15.6068 103 93 49
76.7149 12.7924 -4.29567 128 114 60
40.4177 27.2436 -0.812309 59 38 20
63.4873 23.2856 8.38852 60 40 21
51.0007 28.0756 -5.76594 92 57 28
-37.9363 16.6314 -11.2011 83 78 67
31.6816 -20.3813 9.46137 129 111 51
-16.8502 20.6591 -10.8265 114 77 35
-8.40321 24.3614 6.46913 63 40 19
-71.3005 -16.257 -4.20429 21 20 16
69.7741 1.3042 0.480587 55 28 24
50.0427 28.9489 2.58971 69 43 20
76.6788 10.91 0.79686 59 57 37
8.43832 19.6964 -9.46199 131 87 38
-1.72797 24.6647 3.90705 62 39 19
-31.9687 24.4082 1.19242 58 38 19
-58.7852 0.517578 3.55042 53 35 17
69.0655 16.1369 6.80168 53 39 20
76.177 11.1577 6.27925 67 47 22
33.7007 17.741 10.6783 56 37 18
63.2422 25.5557 4.3278 44 33 18
41.3027 -33.3591 11.3569 67 47 20
65.0906 25.8489 -0.118729 47 33 18
14.192 -27.9898 -16.9961 157 117 49
77.3873 15.9797 -2.00411 113 75 36
31.9704 24.9397 4.79176 53 35 19
68.9873 12.7505 -9.68866 123 124 86
-15.4203 23.7824 -5.71736 30 23 17
62.8361 17.8206 12.1052 21 19 17
57.2486 28.4944 -5.21541 90 58 29
69.8142 -1.12948 2.90199 60 42 25
55.7166 27.7462 7.15603 64 42 21
63.3779 26.9506 -0.0933781 52 36 21
59.985 27.4383 -5.19738 90 59 30
76.1172 13.6343 5.69586 54 37 18
61.227 26.2628 4.14953 49 34 20
69.4717 2.66368 0.115372 51 29 24
-33.6553 23.6606 3.85018 64 40 19
70.1276 21.0611 3.23013 52 36 20
40.0629 -31.4831 12.4693 65 44 20
75.4694 14.8618 -4.12625 124 83 37
69.401 3.01231 -1.02324 60 33 29
6.35144 23.9123 3.56118 58 36 18
52.5039 26.0455 -10.8632 69 43 20
75.0974 15.1002 -4.17912 142 99 57
69.8624 20.0745 -6.72363 40 37 29
0.667923 22.1324 9.07441 59 37 17
-15.5719 20.3075 -11.1295 59 48 38
77.5599 12.5973 -2.59966 61 62 41
31.5311 -19.1527 10.4195 31 31 25
69.1221 19.0245 4.2768 59 49 25
70.2414 18.2988 -5.67964 34 28 23
51.3907 29.715 11.5256 55 36 20
-2.74113 24.0179 6.17702 63 41 19
-37.4081 15.1028 -12.4524 84 70 48
68.1202 22.8423 5.12038 43 32 18
69.2077 20.4204 4.20438 37 30 17
24.7202 25.5433 -4.55648 70 48 25
77.1651 13.6655 -3.41752 110 95 52
69.3695 15.259 -8.74902 135 98 42
43.585 27.9976 -2.01912 72 51 29
-12.1563 25.4295 2.81153 63 41 19
69.1453 22.9548 1.99433 50 37 21
37.5111 24.5503 -5.85037 106 70 33
68.392 22.0575 -7.35089 91 72 48
67.2945 23.053 -2.60595 38 27 15
20.6676 15.2033 -11.6065 139 99 42
-64.0755 -9.68623 -2.35318 42 33 23
-31.3656 24.3557 1.78982 66 41 19
34.5417 -26.2272 11.0401 27 25 20
-33.5322 22.0092 -6.81162 97 66 32
-59.1049 -19.3412 -10.088 141 94 46
57.2032 26.271 -8.92546 134 85 36
35.9282 24.1752 -6.16027 90 57 28
65.8355 23.6077 6.66512 49 33 18
-59.2363 -15.1046 -8.23704 147 127 98
-2.7493 22.8653 8.73669 56 37 19
-49.1806 20.2786 2.4681 52 36 19
77.1248 12.048 1.34538 49 48 27
10.1664 19.5869 10.4646 33 25 17
71.7983 13.1721 8.04049 59 38 19
77.3814 12.6468 1.85478 32 33 24
-44.062 21.7465 4.95945 64 41 19
75.9353 13.7645 5.74113 55 37 17
30.7392 12.9545 14.2642 19 16 14
59.336 27.3109 -6.19057 107 72 35
-0.146072 24.8902 2.7425 62 40 19
76.8083 10.1231 4.26179 56 44 20
65.4529 15.6839 12.4104 30 23 15
33.3048 20.8653 9.38849 51 36 21
76.9005 11.3801 -0.936092 54 50 27
64.5649 17.1337 11.9932 52 35 16
65.4589 16.8336 11.7339 39 28 17
52.8497 27.0935 -12.0911 65 41 20
33.0289 -24.0712 9.37633 147 123 55
70.4437 19.2404 -3.21051 79 59 27
-33.6774 23.8854 3.23426 63 42 18
65.7175 25.4735 0.959801 55 37 18
55.0826 28.8794 2.90449 62 38 18
68.0349 18.613 7.29568 43 38 21
67.9277 22.835 -4.13201 41 30 20
-31.8383 24.151 -0.901812 70 47 22
72.9734 16.0607 -4.21885 116 75 34
69.1978 20.9966 4.20114 54 40 20
72.8708 17.3374 -3.30112 156 112 46
74.9656 13.1528 -5.75679 155 131 69
41.0617 26.9435 0.397758 62 41 19
62.5304 18.7775 11.727 22 20 15
52.3045 28.1436 4.30159 63 42 17
76.0856 17.3777 1.24905 39 33 24
77.4293 14.2913 3.69935 21 18 14
72.8265 15.3624 -5.56442 127 86 38
69.467 17.5795 4.71295 55 41 17
67.4005 23.7667 -0.244453 103 68 30
51.7059 23.2101 -14.807 145 138 86
30.2575 -14.3445 10.0671 81 63 30
-7.21933 25.1709 3.65088 62 39 19
72.4698 18.1338 2.87333 58 36 18
73.4615 13.8537 7.14712 57 38 19
57.3793 21.105 12.2227 61 39 18
71.2369 16.4001 -6.37499 113 83 36
36.825 -30.3533 11.755 47 33 19
31.8872 -27.7011 13.6 62 39 18
69.6137 1.79154 4.23438 43 22 16
-12.7012 22.7776 -8.0276 78 56 29
39.3334 24.1632 -6.19461 118 77 38
52.5773 23.717 11.1528 72 44 18
77.5936 13.3218 1.98831 21 21 18
51.7179 23.5913 -14.805 134 128 80
68.62 15.0127 8.25521 51 35 17
41.4175 -33.8085 10.7232 70 51 22
-26.0459 -31.3842 13.178 41 28 15
-42.7763 13.137 -9.87783 52 42 30
69.6274 17.8883 4.16615 62 45 20
32.3261 -27.9481 13.4412 63 41 19
42.0343 27.1754 -2.85981 94 63 30
69.8775 20.3237 3.61354 58 40 18
-9.45451 21.8245 -9.40007 44 38 29
18.1787 -29.3181 -14.9993 30 30 24
40.2598 25.8566 -4.22992 90 57 28
66.3589 22.9341 7.58233 18 16 13
-0.983383 24.0867 -3.97548 45 35 25
-39.264 -18.0265 12.5338 55 35 17
1.82004 9.30957 15.1313 18 17 14
61.9228 17.6088 12.4796 18 17 15
67.6088 21.6654 7.67931 47 33 16
57.2513 26.6053 8.24013 57 35 17
30.7196 24.131 -7.17423 93 61 29
68.041 16.4994 8.0848 33 30 16
65.2883 16.0883 12.3459 27 20 15
-22.1859 25.1675 3.04136 62 39 18
46.5505 25.5822 -6.672 129 84 38
26.447 26.0537 -2.74675 60 40 20
23.1676 -7.52671 -14.2265 49 46 41
33.5106 -27.6169 8.36502 215 190 115
-9.18379 25.9931 0.278851 65 44 22
68.2581 22.5571 5.13955 51 38 19
68.2512 20.2635 7.45161 26 23 18
18.1386 23.5414 5.59424 29 26 15
31.0131 24.8843 -2.66019 64 41 19
58.7158 24.242 9.86564 53 35 17
-26.9744 15.12 -13.5258 135 103 49
-33.2427 24.4378 1.47841 62 40 19
27.5602 22.1297 11.7621 67 44 22
32.5514 -24.0612 8.94699 153 135 59
-22.9385 -34.7815 12.4833 58 42 17
69.843 -0.117821 1.39256 62 34 24
-21.9599 22.4428 10.3143 42 31 17
-25.1871 23.7106 9.08557 40 30 17
77.3817 16.5478 0.243519 35 30 22
70.0589 19.6609 -3.23739 54 43 21
67.9259 16.8062 -9.33552 137 108 55
67.3215 23.5613 -5.23038 22 20 15
65.5467 19.5646 10.2034 46 34 20
32.3468 -24.7475 8.50723 155 131 58
75.0482 17.7594 -2.17705 111 72 35
66.9231 23.5 -2.6285 48 33 19
-29.1201 24.4974 3.23767 64 42 19
57.1237 29.8168 -2.05977 79 55 29
-39.8942 19.6136 -7.18043 104 69 34
69.1193 21.4633 -3.73095 30 25 18
26.2079 -15.7664 14.1176 62 39 17
29.2329 22.1396 11.2228 66 44 22
65.7423 24.5576 -2.80359 62 44 24
77.8147 13.7651 -2.06747 73 66 37
-70.8198 -16.3315 -3.19344 20 19 16
69.7471 20.443 -3.8692 33 27 17
37.8662 -31.2706 9.5466 70 48 24
18.6485 23.0075 7.35142 59 39 19
57.7071 11.7843 -14.6655 55 51 39
64.0473 25.541 -3.2377 90 62 34
26.66 -17.4642 14.3186 62 42 18
-49.8592 -0.103989 -1.83626 73 73 62
31.8821 -20.7614 11.4442 45 39 22
-58.0785 -14.1787 -5.66847 27 22 15
0.262161 24.736 2.96432 65 41 19
67.615 15.7619 -10.1666 145 104 47
55.2483 28.4217 8.62917 48 33 17
59.2562 28.9759 -2.53903 82 58 28
75.9128 9.21911 -2.35905 47 46 30
31.8147 21.7555 9.58562 46 32 18
2.09444 21.509 -8.53718 81 61 39
69.0743 19.2926 -8.3641 178 174 125
66.4505 16.0807 10.9415 18 17 13
66.9015 22.7436 7.42727 23 20 13
76.3004 16.154 2.95925 55 37 19
-8.73495 25.7858 -0.589375 82 53 24
61.5528 21.9644 10.3242 25 22 16
60.8825 26.0671 -6.85646 64 45 22
69.6132 1.03573 4.57626 52 30 18
53.483 28.0286 -6.82843 108 70 35
-41.6903 17.6814 10.8299 48 34 20
-50.9255 -0.17157 -4.82675 37 38 33
58.8128 26.3708 6.59878 31 23 14
63.3259 26.9454 0.218079 55 39 20
-39.7327 19.4569 -7.49564 100 65 29
52.3987 6.0668 13.6395 66 59 28
69.9702 1.48872 1.69635 57 32 24
-10.8722 25.9155 1.57172 62 39 19
60.6722 24.9761 7.19371 60 39 18
33.5836 23.1516 6.91855 53 35 18
28.8637 -18.2543 13.1569 64 44 19
72.0525 17.6934 -3.44038 153 112 45
63.9067 26.3857 0.707152 38 29 17
-46.5943 10.5387 -2.75138 55 40 19
37.1204 24.9103 4.19112 52 31 16
-0.630188 24.372 4.27528 60 39 19
69.3238 22.3866 3.11654 50 35 20
-52.2946 -2.82376 -5.1282 33 34 28
68.5893 16.1193 -8.94352 137 100 44
69.1365 21.7081 -6.63013 24 24 21
77.0681 14.5171 -3.0018 186 147 101
69.7805 21.1535 -0.214355 112 80 40
57.5262 12.933 -14.6736 99 94 59
69.5985 -0.0569706 0.078516 61 32 26
71.2787 19.8535 2.36347 46 34 19
11.916 24.2271 1.89395 59 39 18
32.4619 25.1746 3.91258 55 35 17
71.4781 18.6891 -3.03912 121 85 39
69.6597 20.5102 -1.62428 69 47 22
-12.0919 24.2401 -4.64729 43 28 18
69.4533 21.3866 -6.42383 35 31 21
75.7721 14.3248 5.3558 55 37 18
69.6985 20.6991 -4.16278 30 25 16
-8.64978 24.8807 4.79811 49 33 17
33.9768 -25.7016 9.61513 114 88 38
33.0425 25.0988 3.70049 53 35 17
-17.465 23.2527 -6.99556 38 29 20
-1.33031 25.1759 2.52953 62 40 18
76.4586 11.3058 -4.77252 120 109 51
66.2409 21.3285 -9.48162 135 95 44
-15.2093 24.3617 6.16376 59 39 18
-22.4077 -33.2369 11.8801 57 40 21
69.9617 22.0578 1.28282 96 66 27
60.0512 23.0519 -10.9181 137 97 43
63.2876 23.0198 8.95012 38 28 18
69.9444 0.403351 4.37248 54 30 19
69.9745 19.6665 -6.35117 24 25 22
-18.9088 24.9091 4.20517 62 41 20
68.9882 1.49287 5.20588 53 31 19
-0.135651 23.8261 5.79126 37 26 15
64.5201 25.1898 4.99607 33 24 16
69.4887 4.15917 -0.893559 55 35 29
-5.87357 20.3068 11.8766 26 22 16
51.7039 25.0906 10.9182 68 46 24
51.1768 29.0571 -4.07687 100 63 31
-21.9692 24.681 5.4107 27 21 14
62.3347 17.0719 12.7178 25 22 17
77.7007 13.0261 -2.35717 62 62 45
71.2219 17.8859 -3.68472 221 195 127
61.1461 26.8291 2.7333 34 26 15
54.3859 26.4672 -13.7371 78 71 41
56.4712 28.9314 1.989 28 22 14
60.4683 21.1121 10.9334 22 21 18
62.0935 26.34 2.88713 19 18 14
69.9385 1.5542 3.58134 39 20 17
53.9732 19.0027 14.2291 66 43 19
0.870132 16.8606 13.0216 61 44 24
22.43 24.1893 -6.6804 86 58 29
10.8343 22.2306 7.49476 61 39 18
62.902 26.6929 -3.10676 45 35 25
77.5459 14.6473 1.64946 16 16 15
47.8321 29.6997 -1.27384 57 39 23
41.2689 25.9418 -4.61532 112 71 35
72.9079 15.7173 5.19065 67 41 19
-42.8997 12.6546 -9.98579 77 61 43
63.427 25.5339 3.81721 52 37 20
-42.2512 12.1277 -10.7445 35 37 32
-14.1528 20.7392 -10.7817 47 39 34
58.9104 23.9859 9.9036 56 37 17
75.5128 17.4795 -2.2287 112 71 35
31.1638 18.1733 12.7004 57 39 21
61.9638 26.8202 2.08453 31 24 17
6.90553 23.6866 4.25857 63 46 22
28.596 24.776 -7.84537 90 57 25
-38.4911 19.5316 -8.15815 83 57 31
70.244 12.081 -7.756 133 144 105
32.8262 24.9071 4.29079 56 37 19
70.7198 17.5039 -5.1851 70 57 31
56.2698 18.4674 13.6468 62 41 18
63.2716 25.1309 6.08748 52 36 19
30.0102 16.3373 -13.5982 43 39 32
67.42 23.279 5.68412 39 29 17
73.4231 18.4646 1.89026 53 35 19
68.9836 14.3301 8.90983 50 35 18
-28.6867 24.6523 2.95119 64 41 19
-14.5661 23.7718 -7.04827 79 55 27
74.6335 17.7351 1.9355 54 36 19
66.243 18.4323 9.39757 29 26 17
-21.5281 23.7078 8.00253 61 37 17
-54.4184 -9.17303 -3.99897 77 79 64
32.0667 17.8861 11.7218 37 31 20
23.3915 24.8158 7.8545 57 38 18
-4.27356 22.975 8.73039 60 39 18
70.3098 21.1606 2.85696 42 30 18
41.1698 -32.8372 11.761 60 41 19
67.4333 23.2551 -4.10237 27 21 16
65.6541 24.4141 -5.52383 57 38 18
30.3726 23.6237 8.44369 64 40 19
-29.8092 24.0424 -1.4413 76 51 25
-26.1275 20.4288 12.5991 68 46 22
-50.0648 15.7362 -0.18964 139 94 43
65.9954 24.7848 3.90997 56 37 19
68.5438 19.1375 5.79086 45 35 19
52.5728 24.0911 10.806 72 47 21
23.5125 25.2665 1.47295 58 39 18
26.1127 25.8119 5.21202 56 38 19
7.1877 24.2147 2.11256 58 37 17
-6.07993 25.9863 -0.458836 70 50 26
15.2089 22.924 5.60212 63 41 18
69.2459 21.9191 -5.81445 27 24 19
-19.6351 24.355 6.03575 58 39 19
52.6216 27.9859 -13.8741 44 31 16
56.2093 29.2009 1.6156 30 22 14
66.826 15.9469 10.6678 22 19 15
6.7236 21.5333 8.91711 59 39 18
54.694 18.8267 -15.3052 124 98 47
47.2017 27.3082 -4.9544 107 68 31
36.4401 -30.6774 9.46338 77 53 22
56.895 21.0544 -13.8426 111 96 54
74.6022 18.5192 -0.0544033 44 34 23
69.772 13.1992 -8.78154 119 117 69
-23.8361 24.359 6.41945 20 18 14
36.4842 -30.5867 9.82279 76 53 24
56.2688 24.9405 10.465 64 39 17
57.7879 27.9437 3.15378 47 33 20
28.2984 25.9184 -0.246868 54 35 16
33.7304 23.4738 5.98798 57 37 18
52.3424 29.6358 1.30651 62 38 17
16.0691 24.7723 -0.847763 47 34 18
71.1471 19.652 2.7531 47 34 17
-40.4343 -3.83499 -12.3683 133 105 49
67.9148 22.4443 -1.75971 69 50 24
53.8689 29.6098 9.20582 94 61 32
60.1545 28.8948 -0.977867 22 20 17
50.6564 26.3936 5.47941 71 45 20
68.5181 15.0959 -9.72616 138 116 51
70.7533 16.1024 5.55835 63 41 19
74.9775 13.7557 6.45504 59 40 20
69.9592 20.4322 -0.92948 91 59 27
42.35 23.7408 -7.45673 139 90 39
55.063 30.0841 -1.1891 53 35 17
71.4808 19.9471 1.25054 50 36 22
-39.8465 23.2214 3.98959 67 43 21
66.0235 13.0937 12.5534 20 20 13
77.1224 12.7553 -3.67141 106 94 49
36.702 23.9209 5.62477 51 34 19
61.6959 22.7137 9.54957 36 27 16
8.51817 21.7878 -7.63758 107 76 41
76.677 10.6248 1.65675 63 56 35
31.5819 -27.3686 13.6541 61 38 17
76.9455 16.9772 -1.06938 77 51 25
40.9747 -32.7841 13.4532 59 40 20
68.4821 22.7391 -5.29414 54 40 19
67.5567 21.8789 7.55005 48 33 17
65.9007 23.2082 7.30712 23 18 14
69.3844 -0.450266 0.107882 73 54 38
-37.6803 -18.8073 14.1033 53 34 15
67.2356 23.4697 -6.91142 39 33 26
-32.7305 22.2176 -6.60015 105 73 33
-44.7385 21.3095 5.20503 64 41 20
68.2092 2.13257 5.82458 48 28 16
-10.2883 24.5552 7.08701 58 37 17
66.0898 25.0367 -0.0560284 91 60 28
10.2816 23.8545 -3.03205 56 40 26
-8.61125 24.4139 -3.94627 65 47 27
-41.4135 14.9351 -10.1261 36 29 26
30.4467 24.6275 -5.48487 67 43 21
-52.2423 -2.61383 -5.52694 34 35 29
-37.1726 21.9739 -4.85463 70 47 24
66.7917 24.9943 1.34761 65 46 24
59.5467 21.3823 10.9362 43 32 20
56.827 23.8577 11.3755 66 41 19
53.3907 27.3549 -14.5571 73 58 32
50.7288 28.6963 -4.53472 109 70 34
10.0398 18.1663 -10.1469 140 102 42
67.6631 18.8726 7.82664 54 48 27
-26.5332 24.0711 6.05679 64 42 20
-60.7645 -3.70747 2.37284 49 32 16
29.6278 24.943 -4.95188 64 40 19
50.0979 25.8858 6.70449 65 41 22
53.7115 29.5568 1.42799 64 40 17
27.3434 24.7811 -8.60375 114 74 33
-40.3176 19.3791 -7.16011 101 71 34
43.2961 27.6555 -2.53435 89 62 31
71.9449 19.4704 0.175024 61 42 24
69.645 1.92667 4.1161 42 22 17
70.3641 12.0596 8.58979 60 41 18
65.0302 25.17 4.23828 43 30 19
58.8678 23.8122 -11.1649 130 91 41
30.9432 25.1892 0.764481 75 49 23
69.2965 22.477 3.01766 51 35 21
53.0049 27.7339 -13.8106 49 33 16
64.8524 21.8866 9.47128 29 24 18
72.627 16.9469 3.87219 66 42 18
68.9562 16.73 6.5369 34 26 16
69.9762 19.893 -2.22031 47 35 20
31.8675 -19.7602 10.8935 35 33 25
67.96 11.8996 -10.4 132 133 94
8.4921 17.64 -10.8124 145 99 43
-46.0333 18.0555 -1.60015 163 121 76
68.1796 2.62881 5.82144 43 23 17
18.8764 11.8281 -12.0182 108 100 89
35.0574 -27.665 10.7063 28 25 17
-45.717 17.7514 -1.96723 134 96 52
68.7637 0.381752 5.61132 53 34 19
66.4411 13.082 -11.7111 135 127 69
-43.7241 7.91615 -11.0495 40 35 29
56.9434 28.4438 -5.62506 89 57 28
26.4702 -18.9936 14.6882 58 39 17
16.7637 23.2624 5.13699 57 38 19
64.9153 21.219 9.92197 29 26 19
72.1882 17.4414 3.50694 66 43 19
69.8425 0.331442 0.754742 66 38 30
-1.98271 23.9083 -6.16889 31 27 21
36.5271 15.1722 10.416 19 18 16
70.248 19.5233 -2.90389 64 45 22
76.2122 16.4457 2.63475 51 34 18
33.9195 11.0067 12.3834 40 27 17
-49.0938 4.58124 -4.97088 40 39 29
67.4692 22.3384 -7.86371 123 94 44
56.6206 27.4729 6.23419 37 27 15
40.1308 -33.1781 5.62945 143 106 64
52.12 29.6237 9.24637 103 65 34
76.5287 17.4108 0.0933762 49 37 24
-47.3199 20.366 1.13503 112 75 41
57.8065 21.7741 11.6092 60 37 17
46.4617 28.7983 -2.65612 93 62 31
0.687408 24.4887 3.46049 60 39 17
31.717 -19.4801 10.3444 31 34 30
26.7293 18.228 -13.3174 144 105 46
-26.3701 -31.2501 13.5299 37 27 17
-26.5018 19.2792 -11.4219 103 75 44
59.7293 22.052 -11.7277 164 121 64
26.7377 -14.0984 7.39362 139 135 82
65.345 17.1983 11.5654 53 38 20
5.62358 24.83 0.40567 57 37 17
61.7914 18.8504 -12.1214 134 107 49
44.1574 28.0708 0.444748 68 43 19
71.5956 19.8331 1.60227 46 32 18
66.7784 22.1918 8.2906 47 33 19
-37.4538 22.179 8.00174 40 31 21
65.437 25.4975 -0.128119 62 43 20
-0.413849 13.061 14.5125 23 21 16
61.374 27.8775 -2.77441 55 40 23
66.9434 24.3704 3.58729 49 35 18
65.9394 24.9851 -0.393181 84 55 27
34.6817 23.9588 -5.79419 83 57 30
59.2461 28.2475 0.876225 19 17 15
52.5579 27.2661 -12.0964 62 39 17
19.1808 24.4894 -2.42093 47 32 21
65.056 19.0377 10.5885 54 39 22
70.445 18.2755 3.68828 68 47 20
68.2395 17.2686 7.09825 21 19 13
29.4437 24.6777 -6.95236 82 53 24
59.559 29.1067 -1.46913 59 42 25
-15.811 24.4589 -4.28797 86 58 30
50.3798 22.4194 12.6611 52 30 15
66.1153 23.377 6.79864 31 24 16
52.8167 26.637 10.5327 68 50 25
61.2882 24.3863 7.81542 60 38 18
-37.6123 19.8544 -7.99053 32 28 20
24.0663 15.6409 -13.298 149 110 44
71.9659 19.3835 -0.344635 70 47 27
67.786 18.5341 7.71827 54 50 28
31.3162 -18.5594 10.8071 25 24 19
28.3091 25.8792 0.107075 54 35 17
53.4336 13.7372 -15.6752 59 54 41
59.0657 25.8632 7.11428 40 29 17
-11.0947 25.9276 -0.475288 74 48 22
70.1046 18.6382 -6.01473 23 23 20
-8.98956 25.5033 -1.51947 89 60 30
68.2914 12.2418 10.9784 66 47 20
58.729 16.6744 13.0339 23 18 15
68.4405 12.1572 10.8267 65 47 20
67.0394 23.6208 -6.79276 28 28 21
70.3765 20.4583 -0.210646 92 62 30
8.13586 23.929 3.44892 56 37 16
64.3517 25.2633 4.75931 33 24 16
39.5834 -33.2556 4.96445 121 90 45
68.0463 15.4165 -10.0471 137 106 45
-30.0069 23.2953 7.64687 59 37 17
10.1249 24.5821 -0.899044 63 42 22
43.7268 27.6288 0.924068 68 44 20
-9.42586 26.0358 1.19274 62 43 20
51.8422 26.0626 11.0255 65 44 23
15.753 21.2227 -7.38877 135 91 40
27.6028 25.1603 8.93862 56 40 22
0.798386 21.1387 -9.0938 40 37 28
33.269 -22.6238 10.5554 26 25 21
-46.3627 20.6343 0.90139 120 82 45
-48.0149 17.4935 -0.683685 126 79 40
69.6289 21.2422 -5.43003 37 30 18
74.9392 17.2771 2.39861 57 37 19
-9.69817 25.0353 -2.63375 87 58 26
76.8907 16.7006 1.13211 35 32 23
51.7946 27.6935 -15.1418 103 67 38
-41.9644 -18.8426 10.3083 35 30 22
75.4275 18.0805 0.655586 31 29 24
62.7264 23.434 8.45764 56 36 18
55.1201 27.2809 -8.17413 117 72 34
60.5931 26.6352 -5.84811 71 53 32
70.1454 19.4158 -4.56758 68 61 36
71.474 16.4968 -5.85838 113 82 39
76.3046 10.1873 5.6869 66 52 21
30.7502 23.3584 8.45663 64 39 17
19.5345 -32.1476 -19.1899 74 58 26
66.9415 24.1243 4.98422 60 39 20
66.0533 17.0624 10.6543 39 30 16
52.8414 29.7766 0.782711 64 40 20
50.9901 26.487 7.28057 94 64 34
71.6836 19.643 0.651142 52 40 25
65.6913 25.1445 -0.86235 82 56 28
55.0709 26.1821 -13.1164 87 75 43
68.4666 23.5154 0.864775 100 66 34
34.3457 -28.1351 9.16252 143 124 59
-6.81133 25.604 -1.15109 89 60 28
65.9773 24.3233 -5.92617 49 33 19
63.3814 25.8962 2.32631 24 21 15
66.8331 13.5471 11.7264 54 42 21
72.9999 19.0769 0.375456 41 32 22
52.2255 29.3371 -3.85726 100 64 32
29.3171 25.0533 7.04134 51 33 16
68.4693 15.4532 8.33465 42 33 16
26.4208 22.7287 -10.9947 138 85 42
68.96 18.9085 4.51021 53 42 20
65.6443 24.9386 4.43129 53 36 17
69.0675 22.1269 3.78774 51 37 18
16.526 23.5231 4.01817 61 39 18
51.9089 28.4238 3.98602 67 43 19
68.6468 12.0117 -9.82293 111 118 84
55.8 27.7365 8.08874 58 41 19
67.1769 21.7534 -8.56755 144 115 68
30.3103 25.5993 4.61345 50 35 16
56.7083 18.7551 13.4001 59 38 17
56.529 22.6114 -13.009 121 93 47
62.8237 23.7358 8.0778 55 36 20
-65.0082 -32.3736 -9.6455 103 71 36
63.3678 25.121 -6.13089 58 42 21
17.7817 22.6828 7.50413 57 39 17
65.9927 23.7286 6.4563 51 35 17
51.8349 25.5779 -9.40145 92 62 30
73.8269 18.0966 -2.55752 129 84 39
56.4412 28.4645 3.05954 45 32 20
-61.472 -3.5954 0.297302 44 30 18
30.4356 19.5321 12.4561 63 42 23
65.3206 25.2462 2.42733 48 33 19
-39.9121 23.3198 3.72386 64 40 18
49.6564 24.6395 -9.03938 131 82 34
47.6241 29.5798 -1.76306 56 41 24
5.02428 24.8767 0.199211 56 35 18
70.1445 0.392708 2.82056 59 31 20
5.32932 22.689 7.58372 48 33 18
77.5336 14.2373 -2.73089 114 85 35
77.8317 15.9747 -0.0489235 36 31 22
63.2673 16.8208 12.4977 53 38 20
68.6699 14.2192 -9.97824 147 129 68
32.3859 -20.5832 10.7082 26 27 21
9.83401 15.6304 12.6558 23 22 17
-6.02882 25.7362 1.46454 57 39 19
62.5827 16.0577 13.0949 34 27 19
34.6849 18.0247 10.2446 65 43 19
-11.6105 23.1006 -7.43224 87 61 34
41.3639 -33.3854 10.7274 66 48 21
65.6554 25.1383 -1.01327 83 56 28
-2.87125 23.9036 6.57668 63 41 19
68.0221 22.7395 -0.814159 95 63 29
67.6823 24.2042 2.51627 51 34 18
66.3227 17.076 -10.6476 135 117 68
33.1497 -22.1913 10.5151 26 26 22
29.5112 25.3299 -2.82222 62 44 23
74.5027 18.1455 1.46366 48 34 21
60.226 27.3018 -5.16344 84 57 29
68.7252 23.4247 1.20301 79 52 24
77.7713 13.3573 -1.36986 40 39 26
35.8109 23.4707 6.63204 38 27 16
-48.8958 5.03387 -5.05061 39 39 23
12.1215 -30.5381 -19.3516 160 129 72
-29.3575 24.2538 -0.904514 79 53 25
-7.40004 24.1454 -5.12591 36 29 21
77.1271 11.5172 2.35371 64 59 37
64.8974 24.9656 -3.40556 64 44 25
36.0549 20.7243 8.57302 62 39 18
63.7109 26.7714 -0.356779 49 35 18
-46.7144 17.9445 -1.25581 184 140 103
69.7466 20.9706 -5.54385 46 36 20
53.992 26.5206 9.8739 66 52 25
13.733 -22.685 -16.8851 143 136 74
42.3314 27.2128 0.659252 66 41 20
41.2108 -33.4959 13.3437 63 43 20
-19.0498 10.9474 -13.3048 94 76 47
53.9267 29.6638 9.31113 86 57 31
58.1853 19.4976 -13.5194 45 41 34
34.2868 -25.743 9.9923 93 66 30
-12.3036 21.644 -9.9785 120 84 36
41.1572 25.4427 -5.21017 125 84 38
70.0779 19.2338 -5.25332 59 56 40
57.8027 28.9346 -3.72797 69 51 29
42.309 27.5696 -2.24167 83 56 28
