ply
format ascii 1.0
comment Created by Open3D
element vertex 1375
property double x
property double y
property double z
property uchar red
property uchar green
property uchar blue
end_header
-55.4184 -25.7313 -5.59183 50 43 25
42.4896 19.0632 -9.42145 156 113 44
29.9096 -9.94508 12.061 67 58 23
57.0352 13.1393 -15.0567 91 86 58
-44.0227 8.41108 11.6787 54 37 17
34.9808 13.6041 -11.4284 149 118 50
-62.8376 -13.6111 -5.41978 156 100 50
32.2076 12.3745 13.6571 55 38 18
63.3933 6.52238 9.08541 68 64 36
-15.429 -1.05013 10.7238 59 46 22
-75.757 -18.0413 -3.67093 31 31 29
23.2359 -12.8116 3.83374 103 104 65
32.8673 22.0295 -9.23979 140 100 44
-42.6685 -9.46296 9.52219 49 44 25
18.0264 -28.995 -14.1482 33 33 26
30.8131 9.28622 -14.1447 129 109 52
19.3903 -4.773 -15.3046 123 110 56
3.09642 13.6529 -13.5685 141 106 50
-34.3025 0.283371 15.6436 49 45 24
-30.7416 5.68874 -14.1585 130 107 49
16.8431 -31.0828 -20.1521 68 44 20
52.4424 19.8781 -14.8949 139 105 45
22.4659 -17.487 14.4671 55 36 17
-34.1042 19.0195 -10.6457 114 73 33
-55.4419 -18.1788 -10.1664 139 90 40
-5.88072 7.99876 15.0184 29 25 17
-56.5474 0.781002 -1.54051 144 88 41
51.4345 29.8699 9.88586 87 61 36
30.6426 -21.7607 12.6016 61 39 17
-10.7094 22.7835 10.0072 35 32 24
-52.1579 14.2788 5.42171 57 35 17
31.2739 23.4891 7.81834 61 39 18
3.76447 -6.55463 -13.107 147 124 58
-34.4172 -26.9441 14.1886 57 38 18
-46.3561 1.11726 8.53628 63 59 36
-49.5137 -14.1837 -10.1288 129 85 39
70.8144 5.2025 3.80473 52 32 25
40.3461 18.7759 -9.75137 161 113 50
-84.8815 -13.4185 1.68279 16 15 15
-31.209 -33.9565 9.43918 150 101 47
-58.283 -33.7879 -3.67067 54 35 18
-34.0309 10.0476 -14.7657 124 93 46
-45.7023 14.4283 -4.367 54 39 23
3.31649 -4.32749 -13.5803 145 144 93
67.035 9.35394 -6.26908 159 165 133
12.5014 23.0334 5.73293 59 40 19
-39.612 -20.911 13.9109 54 35 17
33.8058 25.2097 0.168434 60 41 21
66.867 18.8786 8.7031 32 28 17
64.8946 3.09706 6.99083 62 45 21
-46.937 10.0184 -4.10467 60 41 22
-39.7813 11.3929 -13.1785 145 100 47
-34.7678 -22.7281 7.60208 151 128 59
-80.9019 -22.3166 0.0927277 55 52 29
-15.3769 9.40183 -14.7242 145 108 52
55.0624 12.7748 -15.2032 162 138 82
-44.6949 -5.34455 5.55647 69 61 30
-57.6757 -12.9932 -6.03588 28 28 24
16.7344 -25.8944 -16.3534 96 88 55
40.7151 17.8376 -9.93626 160 118 52
-81.68 -14.5264 0.840103 27 23 16
1.70325 23.7775 6.00716 39 28 15
36.4456 10.8909 11.1961 60 46 21
37.5291 20.4018 -9.62244 119 90 50
41.0104 18.1562 -9.81563 150 114 48
-27.4996 10.2 -14.0252 54 45 34
-30.9392 21.0908 -8.61267 60 40 26
24.1667 -12.1841 0.81073 70 76 48
-47.2175 7.3859 -7.58858 102 65 32
-22.3286 4.32481 -11.666 117 110 70
40.5399 22.2988 -8.55257 146 99 43
6.00267 -11.2453 -12.0573 140 123 66
32.2075 -27.6585 7.79799 167 150 71
-22.9259 20.3221 -11.0741 136 93 46
64.0434 12.0141 -12.5868 138 132 77
12.7576 -9.50938 -15.122 75 71 46
-17.9976 13.4913 -13.567 69 55 36
-26.0789 2.28493 15.1859 20 21 17
-40.5137 -21.4587 9.30966 125 94 46
37.5958 -31.132 8.21158 57 38 18
17.3861 -6.74961 -14.7254 64 62 52
-24.5774 8.97962 -12.9018 137 119 55
19.1663 -21.2903 -14.0388 32 33 26
-79.0809 -23.7875 -0.59108 53 49 24
-63.4697 -29.0728 -9.87479 131 89 41
-40.0505 -25.1714 14.503 41 31 17
47.1797 22.7451 -9.16658 126 95 45
-46.9456 1.4914 6.82566 62 55 28
28.3291 -22.8878 6.81969 174 165 92
-43.2184 11.2415 12.1368 43 30 17
68.366 22.49 -6.95788 88 68 38
-51.7826 -15.2157 -3.65512 53 36 17
36.5742 -30.7053 8.3508 52 42 23
27.8867 3.85561 -14.4278 140 127 61
60.076 22.76 9.98479 62 41 21
-36.1077 12.9709 -13.8838 101 77 38
-15.2689 25.9736 1.3842 58 39 19
-64.4965 -18.2171 -7.06169 127 96 44
6.69405 -14.9926 -14.158 99 77 40
-4.1178 3.45728 -15.9737 145 108 52
-23.668 24.4103 6.15496 23 20 15
-11.6056 -7.56861 -11.2423 141 132 75
-56.0028 -32.1254 -7.98779 80 54 29
40.1778 -35.2733 6.03917 81 84 55
-30.4103 21.6459 11.1801 67 44 21
7.0645 -13.0478 -14.3676 125 95 45
31.4655 -5.92076 8.33159 69 68 41
34.8775 -27.1402 10.1589 74 56 27
2.71108 24.3507 2.60179 59 38 16
16.1456 -13.5004 -15.0101 133 108 54
-42.6639 -5.84096 -11.6216 60 48 37
-45.4088 -3.78096 5.12025 69 62 28
-7.12793 24.2122 6.32719 54 37 20
-47.7538 6.29521 -7.3982 106 69 33
20.3096 -15.2624 12.8794 57 43 19
6.01327 22.5835 -6.07497 85 60 32
6.58188 20.7141 -8.56387 37 34 29
26.4366 -6.78212 -11.6862 92 96 67
-56.2922 8.27843 1.38557 105 71 40
22.1835 -10.0931 -14.2551 131 125 76
3.61383 17.9269 -11.6531 129 86 39
9.85484 24.584 0.957275 59 37 16
-7.40762 25.8885 1.43605 60 40 19
0.201767 1.56066 -15.4579 70 70 50
47.1078 16.2988 11.7798 56 34 17
-51.067 7.6717 6.09256 62 39 19
7.17966 11.8597 -13.0162 47 48 40
52.883 11.6606 -16.3582 96 88 54
-13.5034 11.988 14.0632 37 29 17
-41.3976 18.5911 10.0547 55 37 17
-30.5793 23.1293 -4.50582 77 52 25
40.5042 16.9206 -10.1328 148 116 54
-36.3277 13.5204 15.503 57 39 17
34.0761 13.3644 -11.7007 125 114 59
28.0747 25.8999 4.85045 37 26 17
22.2618 -18.6757 6.87516 173 171 101
-12.2021 -3.10508 -12.7519 139 116 60
23.0722 -4.79888 -15.2422 138 148 108
13.9809 13.8828 12.5367 53 41 21
32.0758 -29.96 7.44498 153 132 56
-60.1924 -21.6829 -10.7597 124 82 34
-28.3607 -7.99653 14.5603 35 31 22
61.0169 9.92416 -12.458 111 115 85
13.2959 4.90585 -11.341 121 88 42
8.36163 -21.4575 -17.0594 128 84 40
26.7043 14.9979 -13.9511 99 81 46
37.9844 -34.8396 3.57277 140 92 42
66.0114 17.1223 10.6741 39 30 16
40.8989 17.6903 9.10007 65 41 20
34.1344 -7.49638 -2.18583 78 81 56
-26.9836 -30.7795 12.4408 29 26 19
-29.1193 24.7318 1.46178 63 41 20
18.5097 17.2007 -9.63078 58 50 34
43.5831 24.5201 5.50822 43 29 19
23.7631 -1.17391 13.9701 47 37 21
-24.7664 -34.5039 7.44203 139 99 46
11.9776 -3.60158 -13.3397 109 76 38
-51.7081 -18.1225 -10.1606 141 102 44
7.30361 -14.8581 -14.6423 109 79 38
34.7044 1.88589 -11.6259 139 137 80
-13.436 -5.41619 -11.3124 145 135 77
27.8584 17.2808 -13.7176 161 113 50
-64.1531 -24.8036 -8.96442 128 99 43
66.207 11.3723 12.1641 25 22 17
30.491 25.4764 2.47249 62 42 19
35.3605 9.9767 -11.7273 132 121 75
7.58748 21.5419 8.65682 60 40 18
65.583 9.05425 -9.02166 75 80 62
13.4975 -24.9001 -12.0083 67 55 21
34.188 -7.84039 0.962162 63 64 44
-23.3123 24.4071 -2.15962 80 52 24
6.95957 -20.9994 -15.5181 82 60 30
-11.8301 25.9829 1.24662 64 44 18
16.2981 5.86399 12.7046 60 48 24
-43.8044 -16.2608 -10.1175 148 146 84
53.0694 0.00722694 -9.31649 116 123 85
-4.18309 -6.32217 -13.7655 149 143 80
12.9804 21.4367 8.41821 59 36 17
70.6792 4.33283 3.08168 47 25 23
34.8427 5.08813 -12.0056 140 126 67
-5.60084 6.49242 14.985 25 21 15
-35.4561 -25.1706 14.5093 58 39 18
61.4387 5.61091 -7.56763 95 102 78
-56.0366 -23.3242 -9.93413 123 112 56
24.2343 9.84969 -14.3985 68 59 44
53.1478 13.3528 -15.9465 41 42 35
-38.8449 22.697 5.80942 61 39 17
33.1691 14.7642 -12.3997 51 46 32
-2.21561 18.4267 -11.6361 141 100 44
7.37642 4.28727 -13.4898 88 82 46
-40.7515 12.6923 13.6855 50 36 19
-6.6677 -7.60686 11.2083 67 61 31
22.3191 -5.61897 -15.2746 61 61 51
37.3333 16.5328 -10.7256 152 125 62
-52.4507 -3.70103 -6.82219 70 70 58
16.4762 23.1829 -5.40612 74 49 27
-52.3141 16.5924 3.88719 55 37 16
-6.80396 6.53776 14.8537 44 36 20
24.2884 -11.3274 -5.22918 93 96 62
-23.6962 16.8686 -12.5368 130 93 44
54.7994 29.6982 0.679798 59 38 17
13.8838 18.8932 -8.80502 108 88 51
11.6909 10.6194 -11.2107 109 107 63
27.0112 25.82 6.30573 27 20 15
32.1462 -3.80011 9.7584 71 65 33
61.2604 27.1906 -4.10783 44 37 26
49.7669 26.2901 -13.893 60 38 19
-14.2939 19.5401 12.7051 59 42 19
17.4796 16.3857 -9.5607 132 102 53
-60.916 -6.14959 2.22734 43 30 15
64.0251 26.1054 1.12702 22 20 15
51.8251 27.1474 -12.1725 60 38 17
-41.7456 -4.34304 -11.9672 119 83 42
-34.6912 -26.6258 14.3351 58 38 18
-37.7998 -17.3168 13.413 55 35 16
-42.607 -7.77488 8.33093 56 59 46
48.7586 16.8905 14.6911 34 24 14
-36.4434 18.9181 12.5791 65 43 21
-45.8028 10.7399 9.15653 58 37 18
-61.318 -15.0379 -6.00497 151 102 44
16.1393 12.5391 -10.4349 147 110 48
-16.0225 24.2082 7.12589 60 40 18
-22.85 23.3786 8.98895 64 41 19
36.8283 21.7009 7.73851 63 41 17
-41.4248 5.22939 -12.3811 127 101 47
-56.9089 -8.9243 -3.92975 205 168 106
52.3742 9.38325 -16.0921 120 103 55
41.2322 19.7259 -9.36002 157 109 45
-6.68687 18.7658 13.1826 51 39 22
53.816 30.0041 -2.32956 82 53 25
77.4724 13.9585 3.74616 15 15 15
4.45953 13.3445 -13.4695 149 116 55
48.1384 8.18398 -13.5594 103 70 35
17.1588 17.6921 11.0793 54 38 20
9.07616 -35.263 -17.3831 57 44 24
-58.8392 -7.30679 2.56813 56 40 19
-59.7121 -31.2356 -5.89973 57 39 16
-80.351 -16.1577 -3.24622 84 69 37
-26.7567 24.9879 -0.0391541 86 59 28
-7.80569 1.61008 -15.7062 46 44 38
20.7729 14.1836 -12.1719 138 90 40
27.2652 -21.8148 14.7538 63 44 20
-24.7786 13.5993 -13.4971 53 45 35
11.43 6.43696 -11.1637 150 134 69
19.8334 17.5944 -10.5091 126 84 37
21.9554 0.923569 13.7896 30 24 16
-56.3605 -10.1336 1.04793 55 51 29
-30.6382 -21.2945 10.6254 84 75 44
14.9781 -12.6722 11.8372 58 46 25
-29.2004 -34.581 15.9471 46 41 28
8.82176 -35.0094 -20.061 96 64 34
44.1223 12.8959 -10.9265 164 114 49
-55.6325 -11.7272 -5.09346 35 33 25
39.6003 -31.6092 8.98867 71 46 22
-84.8864 -21.1888 -0.579298 49 46 25
63.9814 17.5234 -12.0766 141 107 56
-36.4165 -0.265945 -13.3854 105 85 46
68.7712 -0.958547 -0.247534 99 104 75
-2.2984 11.905 14.8798 54 38 19
2.21732 18.3164 12.0042 60 38 19
69.7426 1.86323 0.69952 51 26 22
-33.7035 18.4704 13.8684 27 23 16
-34.8102 -3.39212 -12.9786 134 120 63
15.3357 -11.6245 -14.6598 41 40 36
-3.41356 3.51113 -15.95 135 111 49
15.2021 -2.74289 -14.4505 136 98 45
54.7683 25.2511 9.89244 73 47 19
-47.1615 6.73697 8.43317 54 51 27
-39.2437 -1.73431 -12.6369 86 71 45
-29.2367 22.6984 -5.31638 47 36 26
77.3273 15.1243 -2.48535 125 85 39
68.9763 13.6898 10.2664 57 39 18
-4.84559 -6.18877 12.0857 63 55 27
69.0778 -0.474341 -0.563284 86 86 61
30.1781 -23.4153 13.4695 66 44 19
54.8818 18.0376 14.352 59 41 19
7.01729 8.35957 -13.6704 72 66 40
-53.9429 7.37054 -0.328215 157 104 48
-27.3203 8.71375 15.6707 23 21 16
-81.7812 -14.6522 -2.5032 106 79 30
7.58126 -0.704636 -12.6814 139 139 81
-60.2669 -35.563 -2.37088 28 24 17
21.0894 2.88133 -14.7958 91 75 37
-41.0197 14.2267 13.2395 56 40 20
18.4533 -9.22791 -14.503 50 54 39
17.68 14.7277 -10.0329 98 81 48
-53.3871 -4.57182 -4.84838 35 37 31
6.09397 -9.29491 -12.2659 147 124 57
29.465 25.4055 -2.47466 59 41 23
-48.7383 20.4998 2.1217 56 46 30
65.9389 25.0312 2.52411 47 33 19
15.281 20.0471 -8.13462 148 104 48
27.4792 0.25337 -14.7107 68 62 38
44.6817 -0.120453 -5.28139 87 93 71
59.5953 8.06107 12.2361 64 53 25
52.4745 27.3836 7.21461 117 75 35
39.7539 24.3777 5.17488 62 39 18
77.1928 14.2137 -3.07724 117 83 35
-19.0917 5.96872 -12.8522 145 111 47
-20.8861 24.8384 -1.80121 85 55 26
-34.171 14.4699 15.4976 25 21 17
-65.9466 -35.5522 -8.71505 49 38 24
-37.0979 -13.8064 12.9275 57 36 16
8.78821 -22.709 -17.843 132 89 41
3.08061 0.0778427 -14.3449 137 127 70
24.7917 -28.3936 9.85266 132 99 44
44.8391 3.74206 -10.5653 150 146 99
6.13052 -1.25827 13.7673 31 26 18
-13.1194 24.8817 4.97207 58 39 18
-57.3704 0.762245 4.38223 54 35 17
-52.2266 16.2502 1.91718 76 60 39
22.6462 24.911 6.79285 56 36 18
-57.319 -3.52285 -2.75597 154 103 49
16.2317 -34.5436 -21.407 140 146 108
-38.379 15.2564 14.5395 19 16 15
42.1623 3.76923 9.28665 68 60 34
4.6867 -6.49826 -12.9022 150 138 74
-42.7422 -11.5654 8.93186 72 67 37
-24.5002 -1.88837 13.352 61 53 27
-34.6119 22.0212 -5.82477 53 39 23
12.3103 -20.2817 -18.0455 137 113 53
36.8275 20.5546 8.41486 61 40 19
71.5424 13.6511 7.84843 61 39 20
66.6373 23.2696 -7.6693 37 32 28
34.7409 12.2878 -11.506 145 119 56
-23.3467 -31.7679 10.3849 91 63 28
48.7942 29.5742 -2.66114 84 54 26
8.62183 -0.0999012 -12.0915 145 144 86
-43.9604 19.0813 -2.30079 75 53 32
7.44519 -9.00865 11.1479 63 51 24
67.4343 24.1765 3.10028 48 34 18
25.657 -29.0154 9.53381 133 99 40
28.2802 15.3914 -14.033 154 118 53
50.6424 22.595 12.5573 60 36 20
4.89511 -10.1208 -12.5338 150 135 69
2.4947 19.9078 -10.1795 115 80 40
14.7925 15.585 11.7819 18 18 16
5.83965 24.8331 0.355705 57 37 18
62.9046 6.0905 8.90852 66 65 33
61.7331 11.9351 -12.97 115 115 80
8.84011 -31.1644 -19.9544 123 78 38
58.0837 23.2833 -12.1826 129 89 41
27.2192 -10.5075 13.2364 18 17 15
0.538483 21.15 10.3319 60 38 16
26.7185 19.9917 -12.7115 153 100 45
30.4845 15.4422 -13.8468 46 38 30
34.6032 -6.49323 -5.08138 90 95 62
41.0412 -32.6637 8.28114 71 53 22
-2.2774 16.0432 13.672 60 40 19
36.7481 -4.83773 -4.18979 72 77 55
48.2111 8.71147 -13.7258 94 71 35
35.5405 20.252 -9.65279 126 94 43
11.7746 15.2996 -10.5487 42 45 36
-26.5973 23.2421 9.69594 22 21 15
59.3095 26.518 5.84454 23 18 12
18.3924 -32.1572 -13.5963 37 34 22
-41.007 16.0819 -9.39925 70 54 37
39.8904 -34.0112 4.7681 120 90 42
-28.4115 -29.5295 12.7397 29 29 25
-14.0211 14.2498 -14.1154 88 77 47
-41.5199 20.4204 7.6538 60 38 16
9.95183 -30.1458 -19.9441 149 102 49
-1.21754 -10.1049 11.2667 58 45 22
-40.9972 -24.4944 10.5597 101 78 40
-32.9264 24.4137 1.24989 61 40 19
-31.0634 20.897 -8.96727 58 40 26
-15.295 24.1018 8.27464 30 24 17
67.4212 22.3412 7.18698 44 33 17
-7.77906 18.9593 -11.847 105 71 41
-29.0747 16.5809 -13.0662 103 74 42
-46.0916 11.1043 -6.68196 104 71 32
13.1897 2.86701 12.881 18 19 16
-40.6957 -7.90238 -12.8964 62 56 40
53.7242 2.46574 -12.2566 157 174 130
-50.2833 -14.2066 -3.38904 58 40 19
-62.0458 -12.6517 -5.23665 147 92 44
26.2173 -7.38202 -11.1896 84 89 62
-14.4662 8.06333 -14.8589 140 112 53
-12.5631 16.407 -13.2972 142 94 43
-22.0763 22.906 -7.34366 50 39 25
-1.60263 -11.2571 10.318 63 61 36
-20.1745 13.7188 13.8873 36 33 24
62.9948 6.53747 9.34879 66 64 36
40.703 25.9578 -4.2977 97 61 29
50.948 18.2315 -15.2026 151 111 43
27.3299 11.6372 14.1751 22 17 14
-5.43149 1.8214 -15.7471 143 127 65
63.8158 6.79975 -5.99649 129 133 109
66.2874 4.32858 -5.05225 137 102 85
76.0773 10.7608 -5.03502 110 99 49
38.927 16.4789 9.70284 62 39 18
-6.40714 12.9641 -14.5707 112 87 51
-17.5295 24.9015 -2.77742 80 53 25
8.6028 -30.5429 -15.1962 48 35 18
30.0079 24.2921 -7.33534 90 56 26
20.4633 21.9313 -8.4644 115 73 38
1.62795 -6.35817 -13.6513 132 123 65
69.1754 6.48267 1.0366 83 51 50
3.09938 3.2063 -14.946 139 120 62
17.5402 12.1667 -11.0365 123 88 43
1.77137 20.8314 -9.40998 58 46 31
19.5798 23.3367 -5.70555 90 58 29
33.5628 5.91788 -12.449 144 126 57
28.2885 -2.10526 -13.8439 119 117 69
76.1217 9.3913 2.54057 79 71 44
-41.5073 5.76698 -12.4336 128 96 44
29.5521 24.1059 -8.17245 111 74 32
-63.1386 -25.324 -3.80229 35 27 16
35.463 -0.06147 -10.5202 113 122 89
-40.5567 -6.37309 -12.771 115 89 48
18.8249 21.812 8.64762 65 43 19
-49.1845 16.2013 6.23988 59 38 16
25.0591 0.0193405 13.9645 52 41 20
34.8786 -1.92514 8.9606 70 68 37
-33.1933 21.4421 11.2075 33 25 17
17.1127 14.6042 -10.0204 119 95 49
-73.4629 -18.5951 -4.81655 91 89 84
35.883 6.49165 11.0995 69 53 26
22.1248 -13.337 -11.0123 49 51 34
-61.8507 -31.0817 -10.6111 142 94 45
-31.8157 -15.8349 7.02049 158 151 82
-54.5897 -1.34962 -2.29422 160 113 52
-23.2443 5.98965 -12.0916 63 57 39
71.3087 19.2754 2.86416 51 35 17
-60.5636 -16.0321 -8.51314 133 103 48
-41.574 18.6143 9.78865 57 38 16
-41.5023 8.88508 13.6278 29 22 13
6.15821 4.90061 14.9081 60 52 28
-34.6152 23.346 5.12263 64 40 19
66.6687 16.1145 10.6787 18 17 12
-28.3369 13.2039 -14.2042 76 68 48
-50.9125 17.4977 4.65521 59 38 18
75.4485 9.19751 2.00366 82 70 57
-25.8446 23.6556 9.10741 20 19 15
16.7002 -25.301 -16.2989 115 107 59
37.3213 -35.0761 3.82603 129 84 40
63.7741 6.50796 8.82547 69 64 33
-36.4356 -9.14347 -11.7835 137 140 92
42.6127 22.225 7.41895 65 42 19
11.9282 -18.3318 -17.7583 215 169 113
59.1896 27.7316 1.91278 24 18 16
-60.1826 -8.34877 2.05357 51 37 20
-21.5875 -0.397705 11.4545 64 55 27
-35.3095 21.7165 9.4109 62 39 18
-59.9429 -22.8638 -11.0238 139 102 45
49.0068 9.76088 15.7026 53 38 24
-22.5889 -0.867348 -10.2708 137 110 53
-4.09949 24.4784 5.03336 39 27 16
-49.4616 -19.5857 -9.46777 140 126 62
-51.6234 17.0782 1.78296 81 64 44
37.0997 -3.64397 5.67637 69 73 50
-2.18346 -7.21371 -13.812 143 135 74
69.3286 16.6892 -7.93824 140 115 55
9.47583 -16.0154 -16.1478 148 94 40
-38.059 3.46464 -13.4091 68 65 54
-17.8784 21.9746 -9.69092 105 75 39
-15.5434 24.2563 6.67384 60 39 18
48.209 18.2032 12.9934 55 36 17
-29.9494 -27.486 12.4234 38 33 18
-56.7265 -2.66035 -2.59558 151 101 46
-54.7802 12.0453 1.92099 76 61 39
-10.2996 4.77618 -15.5113 115 97 58
-42.9391 20.5404 6.43966 68 44 21
29.6597 -17.3525 8.30939 161 148 75
-64.7084 -33.4989 -4.78902 20 18 15
-47.2825 4.86392 -8.3522 113 72 33
-24.7469 19.5009 -11.1892 81 64 41
63.7488 6.9553 9.27309 67 61 33
-20.1668 16.6956 -12.6704 78 65 46
-62.3552 -27.848 -10.1071 140 94 44
-6.59171 -7.78857 -13.2158 138 119 57
19.2814 -0.524658 -15.3214 58 50 35
-20.3114 23.9521 -4.28116 47 35 23
28.3203 9.64108 -14.8279 96 92 76
-67.6659 -15.6452 -0.950203 31 25 15
-45.8446 7.04515 -9.43681 128 88 39
-42.748 15.0157 -8.96017 116 84 50
1.12904 15.4019 13.6327 60 40 18
10.8062 5.41709 -11.4606 152 127 61
44.9255 20.077 -9.30978 162 105 42
-42.0921 14.6261 -9.67943 42 37 31
47.7062 21.5539 8.84979 65 39 16
-10.156 10.7081 -15.2656 117 98 56
40.0475 4.50513 -10.5038 141 128 68
4.17869 13.1145 -13.6057 145 109 50
14.5569 -12.2738 11.5398 63 54 30
41.3111 13.371 -10.5079 109 101 69
-30.6728 -12.736 15.1127 23 19 15
-39.5969 11.2256 15.0634 18 16 15
-40.4942 -7.33666 7.70908 126 109 54
-60.0882 -1.00863 2.51102 47 32 16
21.8039 -24.3174 12.4059 50 40 20
-52.6236 -8.07175 -1.384 39 37 27
7.86543 19.4318 10.8958 59 40 19
32.77 23.4436 -7.44823 71 50 28
-10.6145 24.5654 6.86766 58 39 18
68.3097 16.7194 -9.03695 132 100 44
38.7925 -2.91504 -5.09147 79 84 60
74.6738 8.97954 -5.09076 121 128 94
66.4206 18.3864 9.02791 40 36 20
-2.91053 -3.13559 -14.6304 141 133 87
11.8229 -7.62007 -15.2187 156 143 107
33.3219 8.39428 -12.6549 149 127 63
14.6896 8.51052 -11.0385 133 93 41
26.3228 -9.77553 -6.49769 116 122 80
23.9548 -26.9581 12.5577 56 41 18
-29.9736 -32.7855 8.94376 142 106 44
24.0653 18.6833 13.1198 57 39 17
10.2013 -8.08214 -15.32 159 113 53
12.8761 -16.9939 -17.3428 151 116 53
30.9007 13.5008 -13.8135 55 44 32
12.7576 15.9519 -9.996 85 77 44
30.9119 15.2123 -13.6698 70 58 36
30.0115 16.0755 13.8585 46 33 20
44.77 27.6977 -3.1837 100 64 35
-39.3628 11.8783 15.092 21 17 15
34.3772 21.72 -8.91824 149 102 48
4.50203 12.696 -13.6797 151 124 61
60.9315 6.59773 -10.4861 126 135 103
58.8428 24.5599 -10.3012 115 73 31
38.5617 23.0105 6.29494 63 40 19
67.6307 7.00906 -0.569835 51 36 34
-85.1866 -13.3258 -1.51955 108 76 39
16.6135 2.25609 -13.7207 128 102 45
-5.23776 22.6765 9.44499 46 32 18
66.2034 8.40378 -5.95103 136 124 104
-40.8483 -19.0783 11.7637 53 34 16
8.93889 -7.69644 -14.484 108 70 32
2.49721 -8.21834 -13.3261 145 130 74
-15.5648 21.3456 -10.0817 97 73 43
51.9677 1.45295 11.4536 68 65 40
-43.4915 -3.61206 10.9991 46 41 24
44.3051 20.1521 -9.21521 167 119 51
29.4255 -3.68169 -11.4594 129 137 98
-46.3769 8.62113 9.02104 41 35 23
-19.6778 15.0882 13.7209 47 34 19
48.3469 22.4476 10.5556 52 34 16
-8.48537 20.4644 -10.6547 76 58 36
-40.6818 4.89071 14.7063 53 37 17
58.4513 24.6657 -10.3595 117 74 33
-4.24786 -4.31748 -14.2177 136 119 65
33.409 -22.623 10.1495 30 29 26
-29.9067 -9.81296 5.13704 182 182 112
40.7103 26.4176 -3.41729 106 73 36
-30.8622 -26.0799 10.4047 100 83 40
-42.6691 20.369 -2.27568 99 65 32
24.7415 13.9276 -13.8232 154 107 49
25.3804 25.699 2.48234 68 45 22
-54.9614 -22.211 -10.0388 125 115 58
53.2997 27.6742 10.3451 65 54 28
22.3344 -4.73048 -15.3788 102 108 83
-81.3128 -15.6376 -3.14925 115 87 39
-34.3767 -22.8308 14.0571 60 46 20
-63.4871 -12.0948 -4.71296 126 82 43
37.0795 26.241 -1.37447 68 47 23
26.4496 1.58099 -15.1755 47 43 32
40.1578 7.05724 -10.7309 149 142 85
-49.1558 4.31853 -2.9472 41 42 35
-9.25088 6.38095 -15.7398 71 57 40
-74.1443 -20.0913 -0.782684 20 19 14
0.46756 23.8565 5.24989 34 25 16
21.5151 13.6009 12.934 30 22 14
-26.0424 16.461 -13.0149 60 47 34
7.26437 -15.5017 -14.8218 112 77 40
35.7396 16.8177 -10.8094 157 114 51
-47.5238 7.9942 7.44884 51 46 26
18.2629 -16.4369 -14.3927 151 122 61
39.8196 26.6074 0.751142 64 43 20
30.5264 -7.48423 8.39864 92 87 48
61.0167 28.1502 -2.46144 43 33 25
33.4475 -29.431 13.2789 64 40 19
-3.38614 23.7473 -6.72132 41 33 25
-54.5765 -8.42608 -6.60014 93 93 83
-31.9813 -36.3903 10.7222 122 88 35
1.79314 -9.56562 -13.3113 137 124 70
17.6301 -11.8573 -14.0765 127 99 49
7.3005 4.12503 14.6889 59 44 21
29.6629 -28.0238 7.56291 155 132 59
-66.2328 -19.0039 -1.1243 47 38 20
-22.4792 5.36432 -12.0567 113 108 67
-41.7484 18.0434 10.0536 57 37 17
53.6616 16.6551 14.9501 63 41 20
-2.90411 1.36496 14.6114 36 31 20
-10.7458 24.3177 -4.29751 75 50 26
25.6065 -17.7916 14.7499 62 40 19
23.0217 -10.9389 -8.541 54 57 39
-41.1034 13.8512 -11.2902 105 90 66
-62.609 -19.9109 -9.01968 153 132 57
59.2715 1.33751 -3.87963 129 139 108
-45.3038 5.42863 10.8072 49 35 17
55.1642 27.9032 7.19351 85 57 28
50.4317 3.80883 13.996 56 44 24
-2.67644 4.3113 15.1458 55 44 22
59.0368 17.5885 12.8066 37 27 17
-45.7828 -3.32756 4.90751 66 59 26
16.1985 18.6322 -8.79101 150 107 46
-61.6978 -19.1999 -3.13046 44 37 18
19.9486 -4.3831 13.4703 55 44 20
-29.3402 17.8419 -12.2493 125 82 36
48.5222 13.7515 -13.5666 126 85 35
-66.0755 -23.739 -7.67262 142 138 118
30.0338 -8.27178 5.69034 71 71 40
-72.7091 -17.3678 -3.68713 22 20 15
60.3154 16.402 -13.1811 49 44 35
-46.5963 10.7703 -3.19582 56 42 17
29.4426 -33.3398 8.73766 128 89 40
67.4629 10.4632 -10.2737 101 105 81
10.4462 -5.14404 -13.5274 105 66 29
-22.1667 10.9836 -13.1552 78 65 42
3.70028 12.2796 14.4409 62 43 22
45.9383 4.97667 10.673 68 57 28
-40.4042 22.977 -0.341927 95 63 31
48.5131 22.637 -9.74295 154 103 43
69.9934 8.06409 -5.24565 128 98 83
-27.9475 -5.69182 -4.77907 110 116 80
50.168 8.90943 -16.0383 148 129 76
49.3748 28.0667 10.7473 52 34 16
-61.8091 -24.4591 -10.2792 140 105 45
16.2422 18.9442 -8.67606 148 103 40
1.55883 -7.65001 -13.5243 149 135 84
-29.4793 -15.4609 8.37804 132 127 74
3.20628 -5.62454 -13.3674 147 140 80
-5.06205 8.6348 -15.7165 131 106 56
61.0624 22.059 -10.9485 137 94 38
28.1184 -7.80345 13.421 58 50 24
24.8604 9.19098 -14.5524 124 101 46
37.6288 16.8552 -10.628 150 125 61
33.0435 14.3685 -12.591 76 62 36
-49.3473 4.02988 -3.05879 40 42 34
-54.7714 -9.64854 -7.05937 67 68 59
18.9959 -34.4287 -19.6701 90 92 59
-49.7817 2.03068 -3.61572 39 39 33
40.4983 16.248 -10.2669 145 120 55
-36.4744 -13.4795 13.2249 55 36 17
47.1461 14.8109 12.6678 57 35 17
23.5688 -12.4604 1.61077 76 77 55
27.084 -6.52978 -10.4583 92 96 68
43.4312 25.2748 4.58253 62 39 19
77.0682 12.3251 -3.83994 103 86 39
37 16.844 -10.6971 153 116 54
72.0272 10.7254 -6.68875 141 131 72
-59.1543 0.128946 -0.517433 102 74 36
-39.6452 14.2571 -12.1077 129 84 38
-2.02689 -2.29685 -14.8264 140 125 71
66.175 -1.1122 -1.97946 113 119 78
75.6499 14.7964 -4.03927 124 85 36
77.3528 12.8799 -3.29827 92 86 53
-41.2935 14.3928 -10.8906 41 35 27
-4.88577 8.44554 15.0457 49 38 20
-57.805 -32.1103 -9.52873 84 59 25
26.4971 -5.62755 13.775 52 42 20
63.8352 11.7686 12.9184 57 44 23
23.6365 -10.5634 -9.7704 59 63 41
-44.2797 -10.3794 -11.8627 124 92 46
36.1082 23.527 -7.19795 118 75 36
38.6156 -32.1501 14.8781 57 36 17
17.9686 -30.6814 -17.4697 66 50 28
29.1449 -29.931 8.05086 155 122 48
-42.243 -16.1748 10.1419 34 35 28
-23.464 12.2229 -13.4244 95 85 53
-51.6911 -23.0829 -6.50832 56 51 30
63.5274 23.1018 8.70018 43 31 21
55.1587 13.787 14.451 67 51 23
-0.157074 -6.22103 -13.9922 147 137 82
-3.83341 24.2602 6.13322 58 39 19
31.1684 -6.84616 12.1304 68 57 25
-4.9646 23.544 -6.69086 50 38 25
44.3221 21.4635 -8.84612 167 121 51
31.2199 -6.92562 9.67459 93 88 47
58.9654 16.7533 -13.7798 136 133 78
1.07267 15.0507 13.7787 57 37 21
22.2052 22.1804 -9.36311 74 54 35
29.3375 -14.0746 11.9263 63 49 22
-22.0785 -4.69946 -7.8473 125 127 85
50.4455 27.3843 12.0061 50 33 19
-42.5371 6.56052 13.1981 42 31 17
46.9277 11.9653 14.1863 48 32 17
30.1466 25.5809 4.96756 48 33 18
29.3802 -9.08434 12.7113 69 59 25
-66.2352 -25.3775 -7.9011 113 110 97
-40.2077 -22.8911 14.3714 41 28 14
11.8147 6.60117 13.7716 29 26 19
3.60141 21.9247 -7.67648 110 73 33
-1.66791 3.30515 -15.8172 132 112 58
17.3795 -26.463 -14.2009 36 36 26
60.0904 26.6537 -6.37638 97 65 32
40.7894 7.08445 -10.7125 103 99 67
56.2405 27.2218 8.35486 52 35 19
75.2879 18.0673 0.933249 35 31 23
47.846 20.9557 -10.1333 149 98 42
-33.7416 23.798 3.48349 65 41 20
61.6368 16.5755 -12.7097 49 50 34
-46.2128 14.9501 -2.44125 103 75 37
-22.3002 3.87099 13.0775 64 59 32
7.34016 6.36343 -13.5134 85 79 53
0.609459 19.3261 11.7469 66 43 21
54.7916 2.6699 -11.7973 143 154 116
-28.953 7.56424 16.3533 44 36 21
7.14185 2.31078 -13.297 127 114 59
-65.6894 -16.4681 -6.07362 138 91 45
-4.22477 -2.75946 13.2262 58 48 21
57.3525 29.8764 -0.677887 25 20 16
40.5197 19.8553 8.38437 47 31 16
-29.5053 -16.4017 9.07881 121 117 64
-38.7424 -17.2009 7.9975 144 102 50
-7.52109 17.6763 13.3195 62 39 20
-56.5308 8.01565 4.23561 55 35 18
32.1044 24.2688 -5.04111 81 54 29
53.5195 30.0465 10.6015 54 35 17
-55.2689 10.3281 1.35114 108 73 39
5.71725 23.5296 -5.00742 83 56 28
-17.6013 22.5564 -9.22356 95 66 37
-60.1127 -5.22597 2.79842 49 34 18
18.7257 -34.2996 -13.5049 64 48 21
8.06923 -21.0528 -16.6878 130 84 42
-49.406 13.4374 -0.693237 158 118 44
-41.1836 -13.8329 8.14293 84 87 73
55.0826 20.7286 -14.6945 52 44 34
-51.0333 14.4634 -0.0876064 142 93 42
77.5535 12.9816 2.66625 20 20 17
35.7459 -29.6633 11.3918 30 26 19
-26.6929 22.5085 -7.58929 99 67 31
-36.4711 -31.5115 10.2295 132 94 42
24.2101 7.66506 14.3469 54 39 16
0.608849 23.8497 -4.44273 96 72 36
21.6021 -12.5605 -4.38855 64 64 45
62.222 9.29994 12.2217 58 54 31
-43.2087 19.1514 7.73285 32 23 16
38.3692 21.8254 -8.62784 108 85 43
30.19 -12.9387 10.8434 56 50 27
72.7807 17.2819 3.43396 65 41 19
-45.526 22.0767 3.1952 64 42 21
74.4615 8.59147 2.13108 89 74 67
10.941 -33.6582 -14.6255 58 41 18
37.2892 12.0478 -11.4289 148 109 51
-15.4908 23.3894 10.0421 17 16 14
39.52 9.13108 -10.9729 138 125 70
-31.9687 24.4082 1.19242 58 38 19
-14.7235 7.79743 -14.8016 136 108 53
-75.2219 -21.2457 -6.21553 117 79 43
-42.6193 8.47488 12.7325 54 36 16
25.5251 -30.2226 10.0657 121 92 46
-25.5949 15.4499 14.7093 46 34 18
31.852 -5.3007 8.60047 72 69 38
63.588 9.31993 -11.4736 137 145 103
1.1842 -10.2098 11.3199 62 52 27
-81.6994 -19.4396 1.69687 30 28 16
28.3259 -13.4547 12.7915 64 46 21
-31.7441 -5.72797 -10.1892 100 104 72
44.7109 13.6881 -11.0456 163 125 53
26.6089 -27.9233 7.99304 147 120 51
-53.536 -14.1213 -8.6073 133 85 37
-12.2979 22.9523 9.30675 60 39 17
7.81056 19.1265 -10.0799 122 90 43
-29.5203 -27.7629 12.093 34 32 25
-17.364 24.0385 7.99306 57 39 20
-34.3476 -8.09738 -11.0604 116 122 78
-1.89957 25.9675 0.0409393 52 35 19
-12.1852 19.7556 -11.4925 138 98 42
5.0606 -11.7967 -11.5428 126 119 69
-2.82303 24.7175 -3.39125 92 61 28
4.55683 15.3383 -12.829 138 113 49
-26.2287 24.3057 -1.38806 91 61 30
-58.9697 1.7238 0.433361 74 58 39
3.73144 9.87096 14.9193 60 44 21
24.1748 10.5637 -14.3397 80 62 36
62.8658 18.1476 -11.7875 66 57 43
66.0325 9.03716 9.9134 60 59 41
65.6935 24.3819 -5.27053 56 38 19
53.3709 12.7769 -16.133 69 70 53
29.6391 21.9001 -10.7015 55 42 31
-0.112724 11.7277 -14.5034 138 103 45
-31.4985 -29.3133 9.5287 178 154 80
26.592 12.9741 -14.313 102 81 46
2.82236 17.0552 -12.0882 137 91 40
-15.8138 -1.52841 10.5525 61 49 24
30.9988 -6.84852 8.96227 92 90 47
61.2967 7.77862 -11.2977 144 152 111
48.2483 3.91241 -11.6732 119 117 75
31.0978 25.4017 2.0054 73 48 23
24.291 12.679 13.8161 61 39 17
-56.198 8.06996 4.51171 55 36 16
29.1178 -18.0213 8.0002 171 146 63
4.06903 -6.85078 -13.0309 149 134 72
22.0414 -0.993858 13.9484 19 18 16
-66.2099 -27.5552 -8.00241 62 58 47
-18.1587 25.5248 2.58342 62 41 19
40.2756 -31.91 13.8069 52 34 17
-33.011 -33.1408 9.76497 144 102 44
-27.9445 -31.0317 8.82646 145 101 43
-50.563 -22.2655 -6.05266 56 50 25
-16.3578 -5.74586 -9.35403 135 135 80
10.9443 -23.4083 -18.5693 129 107 52
-73.8809 -22.359 -6.48296 137 97 44
-62.1544 -21.9252 -3.73972 37 27 15
26.9123 13.3271 -14.3208 93 74 41
42.2202 5.44354 -10.4695 129 123 75
31.0299 22.8154 -9.23633 108 75 37
1.86879 -8.10406 11.8541 59 51 24
-40.8749 10.2811 14.0238 31 25 18
-19.4793 -2.70112 -10.1594 154 146 88
32.8636 25.1066 0.790268 68 45 22
-27.8398 14.0304 15.4116 59 43 21
42.3797 9.18298 10.217 60 48 24
-11.5845 18.2793 13.0168 27 24 18
50.0409 12.5111 15.5426 54 34 18
54.4493 -0.732587 -5.98566 77 78 52
-3.33463 24.4289 5.21101 56 37 17
-37.283 -30.5755 14.9991 34 25 16
31.4758 -21.7854 11.9604 52 37 19
39.6073 -1.90633 -6.72495 105 113 85
3.36569 9.90895 -14.4324 131 109 57
-56.0114 -10.1836 -3.83699 72 68 48
51.4745 30.1311 11.1837 54 34 18
-29.0323 20.353 -10.1992 119 81 37
7.25359 -1.95772 -12.6717 145 133 72
2.17552 22.7157 -6.31209 48 39 27
-39.0188 19.3969 11.3637 57 36 17
-56.2108 -10.7309 -6.33572 33 30 21
62.4041 2.49483 6.29587 68 66 41
73.033 10.1953 -6.38333 157 151 87
41.4709 6.42646 -10.6059 91 87 65
36.8801 -5.16086 2.30099 65 69 49
49.057 15.1254 -13.9203 116 86 37
15.1525 17.0634 11.1985 19 20 15
-62.483 -9.35571 -3.60724 109 75 35
-32.2369 4.46782 16.5424 60 41 19
-45.7821 12.1196 -6.63223 153 118 84
62.9721 9.32584 -11.6515 145 150 106
-52.3397 15.7441 1.65133 102 70 40
15.0983 24.8549 -0.589554 46 33 19
-17.6829 12.3445 13.6777 57 43 19
33.0569 1.62829 -11.9397 37 35 34
12.838 5.42721 13.2228 29 25 18
48.7009 24.7501 9.50519 46 29 16
-33.3343 15.3992 -13.3526 46 43 34
16.0044 -28.0502 -16.7956 102 91 57
62.293 8.40759 -11.381 137 145 103
-41.9956 -4.57095 -11.9728 90 66 37
-53.605 1.55261 -1.62506 164 117 52
1.09982 25.3453 -1.30669 102 73 38
31.1976 -18.2355 10.4028 26 27 22
16.8428 16.3683 -9.5111 152 116 55
-28.6939 -29.0293 12.2914 28 30 26
-69.7353 -15.4502 -4.62383 36 31 26
11.0771 -32.6064 -21.2663 187 138 91
59.0767 15.3174 13.1407 46 35 20
-68.9929 -23.1922 -6.649 132 114 51
68.6975 10.7722 -8.09627 70 73 58
-29.6526 12.2521 -14.5936 137 109 59
49.5253 29.8897 0.512863 54 34 16
42.4181 16.2236 9.37738 68 43 19
66.4622 0.863308 -4.0154 166 165 112
1.6016 14.1088 -13.5956 56 52 34
-29.9372 3.40931 16.1548 62 48 22
16.5295 -15.5814 -14.8877 149 136 67
-28.4264 15.7832 -13.4373 44 42 33
23.5347 -11.8448 -11.6802 35 36 27
-24.2615 -10.6074 11.153 61 57 30
30.3215 3.9121 -13.8653 58 54 36
20.8869 -21.048 13.0064 53 40 16
9.01421 5.89692 -12.2637 77 71 44
63.659 24.711 -7.12169 73 51 28
-56.1538 -30.4992 -6.7574 37 30 17
35.6965 24.9665 -3.3923 92 63 31
-10.288 25.8496 1.78688 64 40 18
-46.3423 18.7456 -0.901123 110 69 34
-42.4381 -12.671 9.51497 40 38 32
29.3876 -17.6884 8.15974 164 141 61
7.35229 -27.6993 -15.958 46 35 16
21.4817 18.5874 12.1934 20 20 17
-1.72274 23.5353 -7.39754 101 76 40
47.8289 10.2178 -13.2509 100 68 28
-2.9124 -9.8173 -13.164 142 122 70
-65.8718 -33.4528 -9.13005 95 71 46
63.6624 7.50733 -7.61716 69 66 52
28.7368 -0.453339 13.1981 55 46 24
64.5444 26.1971 -0.889231 24 21 17
-60.3658 -23.8741 -10.8205 137 94 41
-20.9357 24.5085 5.63538 65 43 24
-56.5416 5.43275 0.32077 137 89 47
-53.0886 -17.4104 -10.0568 138 93 40
30.8656 -17.3227 10.8126 36 33 23
-53.1513 -4.06655 -5.02417 35 34 29
-34.4049 22.0213 9.5116 54 38 23
-30.4479 11.4324 -14.6216 146 101 45
-42.4447 11.6676 -10.816 33 34 30
-73.743 -23.3249 -1.58217 54 50 27
-27.6991 23.5456 -3.31216 75 55 26
-7.38141 25.3121 3.2624 64 41 20
10.2911 -21.6737 -18.3652 149 107 47
7.51148 24.1824 2.20763 59 38 17
36.6894 23.2085 6.53442 60 38 17
-11.4286 15.262 13.9028 35 30 19
25.5106 -7.61834 -12.3768 99 104 73
-31.567 -18.3258 14.1036 65 57 26
-28.5585 -29.9542 13.2195 27 26 22
-30.6283 -20.6263 10.2292 104 90 46
23.0493 12.0734 13.6881 41 29 15
-9.96847 2.00886 -15.18 131 114 63
43.8021 26.817 2.7338 64 40 18
37.8718 -32.3177 14.9213 56 35 17
35.4556 -5.80141 -5.82737 93 99 70
3.34698 3.54415 -14.9591 131 113 59
-40.7736 -19.5192 8.53175 92 70 48
-48.3896 5.05532 -6.94826 77 56 30
29.2545 -24.609 14.2577 61 42 19
-60.3563 -35.8392 -12.1213 89 65 38
30.5691 -6.25412 -8.87424 142 148 100
-6.0433 5.88273 -16.0793 139 115 53
-5.77718 24.7696 4.03053 63 39 18
64.7867 4.71497 7.42064 57 45 23
67.7395 9.76758 8.88089 63 61 42
-32.0392 15.3205 -13.5288 109 81 42
26.7392 21.8605 -11.6788 152 100 48
47.6965 20.244 10.0242 65 40 20
68.0156 20.5505 7.70875 22 20 14
-35.9769 23.0807 -2.3111 89 58 28
1.44411 19.3557 -10.7419 47 41 31
-79.5237 -15.6604 -2.66605 68 56 30
-35.7309 20.0387 11.8175 60 40 19
14.3309 -7.27455 -14.4468 140 127 67
55.2722 29.2775 -4.35092 97 61 28
39.125 26.9517 -0.344825 52 35 16
17.8468 -15.2002 12.2282 58 47 21
38.47 -32.6199 4.24726 117 75 31
51.5655 25.4177 -9.47806 84 54 29
35.4459 23.731 6.32596 29 23 17
66.4178 9.42671 9.86399 46 43 30
76.3234 16.342 2.66782 51 34 18
-45.0189 -2.69032 -9.95611 136 96 43
-54.28 -11.9175 -4.62271 55 38 18
1.65375 -10.5928 -13.0496 139 126 68
-79.5395 -17.0196 0.337402 16 17 14
-0.00933075 23.8506 -4.61022 72 52 28
-72.9497 -23.327 -6.50394 141 104 46
21.422 -22.4724 13.0473 55 41 19
32.7895 -8.88504 -1.31952 83 85 55
-1.74027 19.9169 -10.597 139 101 45
-35.2142 21.9795 8.75705 63 41 20
59.7762 13.2919 13.2944 54 38 21
-47.9437 14.3832 6.71077 58 38 17
-33.6412 -22.472 13.7225 59 48 20
24.3869 -12.0562 1.5982 72 75 50
5.72805 9.68507 -13.8162 150 124 68
58.0276 23.3953 10.9428 61 37 17
19.5603 -31.9665 -17.6181 63 48 20
-46.6691 9.86942 8.42597 40 35 20
31.0945 -8.0991 -6.53214 117 124 83
28.2469 2.70805 -14.3005 140 128 67
-62.2441 -36.1422 -11.1917 79 61 34
-60.5916 -20.2543 -3.56211 44 33 19
-42.4842 -4.29086 11.4104 48 39 20
65.7393 12.7612 12.7686 23 21 16
16.5835 -23.8277 -13.647 63 55 24
10.8181 13.9518 12.9349 27 22 16
45.6544 26.5238 -5.0049 111 72 32
28.2947 -32.4985 9.25583 139 99 42
19.437 -17.8355 -12.0227 45 42 29
-25.8398 14.9799 14.9195 47 35 19
15.4729 -31.9202 -21.1255 107 71 34
-47.308 5.6171 -8.10199 120 83 38
-67.3318 -19.4232 -1.14894 46 36 19
-39.4324 7.14095 15.3626 50 36 15
-49.1208 19.6176 4.22054 64 40 20
-55.3004 9.57116 4.75722 53 35 15
69.4302 2.07222 4.50986 42 23 17
76.446 17.3911 -0.854397 74 50 24
-35.8845 -12.376 6.16373 139 120 53
-29.3141 19.2253 13.3158 48 33 18
-41.0067 -14.6306 11.1805 38 33 22
-35.7681 -29.3065 9.05905 145 106 44
19.0792 -20.4856 11.5977 56 45 22
59.1129 3.87998 -8.79913 109 117 88
-51.5124 -8.28828 -1.48863 48 36 19
31.2102 -5.3371 12.5165 54 43 22
-39.9381 -17.258 7.63191 126 107 61
29.3537 1.00504 -13.6467 141 132 68
50.0146 5.51653 -14.7074 139 132 68
16.6033 -34.0902 -21.5517 150 149 92
27.0583 21.8821 -11.6762 146 95 41
68.9805 7.9768 7.54008 44 33 25
-46.3019 12.569 -4.18309 52 33 17
51.7399 0.816919 10.8293 66 65 40
-28.2217 -16.6976 10.8455 93 88 50
23.3455 -11.0746 13.287 60 40 19
-36.9907 -2.22028 -13.2353 129 104 50
-48.6544 5.31008 -3.46694 38 37 27
68.6098 22.5976 -5.33884 50 37 19
-51.3262 -2.64669 -4.06419 30 30 23
22.6744 -11.472 -7.37623 83 88 57
71.8457 11.8906 -6.96161 142 129 65
-28.5205 9.28175 16.1268 25 22 16
57.5965 24.4918 10.6107 56 37 19
9.60796 -14.8194 -15.95 166 117 58
16.1519 -12.425 -14.6443 60 54 37
-19.2173 20.5527 12.123 64 41 19
76.6408 10.3517 5.15028 64 48 21
77.7648 14.7813 0.487875 18 19 17
20.2751 -15.2917 5.89024 157 143 72
48.6164 29.8032 0.109558 60 38 18
43.3009 1.51778 7.5681 74 78 57
-27.8132 20.3829 -10.3048 118 75 33
22.136 12.3909 13.3741 26 23 15
43.3723 0.0411377 -6.93575 123 133 102
35.2329 -6.55246 -3.48892 90 93 64
-60.9705 -33.3097 -3.80511 40 27 16
-74.6003 -19.4954 -5.16286 52 42 32
-29.517 6.96502 16.2613 23 21 17
-60.166 -4.28719 2.83607 51 34 16
-41.5605 12.1999 -11.4972 38 40 35
-24.357 5.23322 -11.8873 81 79 57
-15.7292 3.93908 11.4384 32 28 18
69.4122 17.4366 -7.73144 140 131 78
47.6515 4.82439 13.161 69 62 37
-24.8794 -35.9491 7.79617 139 90 44
34.9634 -3.37136 7.80165 73 73 44
-38.2702 -17.2007 7.68654 135 99 40
-1.26437 12.9798 -14.0553 141 110 53
32.8151 -31.7325 13.8964 60 38 18
-46.9812 -8.44959 -9.49507 66 53 36
65.8278 -0.349724 5.72589 66 61 35
29.5718 -16.5001 8.8094 151 149 89
76.6586 13.5083 -4.05516 126 110 53
-50.6514 13.9 6.05898 60 38 17
2.43581 -3.73901 -13.8688 142 140 83
0.161209 19.8814 -10.248 40 35 31
33.3294 -3.12932 -10.1123 148 156 106
53.9906 10.7606 -15.5456 131 128 85
-2.05366 17.0224 13.1243 61 40 18
-66.0377 -20.9143 -6.90665 125 102 46
24.1988 -20.4758 6.93214 159 151 81
-8.83295 4.35178 14.2383 55 43 19
42.4103 25.5623 -5.33771 127 78 37
22.2993 -3.59705 -15.7443 126 124 77
53.8456 24.0646 10.882 71 44 18
36.8007 3.59425 9.80435 33 32 20
-35.3402 2.74548 16.2262 47 39 22
50.9963 23.8084 11.2959 68 43 20
-63.3055 -31.843 -4.59653 25 19 15
-40.3578 12.4476 -12.6002 131 91 47
-27.3186 9.43457 15.7015 41 36 23
41.4721 20.9863 -9.00656 157 117 49
-66.7451 -32.9952 -7.74653 36 30 21
61.2517 26.3186 3.9578 46 32 20
15.7932 -31.5007 -18.6081 79 53 26
69.0991 5.65296 -0.379807 66 53 49
48.5783 20.0504 13.0198 34 23 15
17.9279 23.1485 7.00705 56 37 19
-36.6403 10.5607 16.0179 48 35 19
20.0713 24.189 4.94887 54 37 18
-28.3877 0.951885 -11.8662 49 51 43
-41.8296 14.3943 -10.0441 41 34 29
-12.7433 -2.42668 -12.7526 140 125 61
-30.4801 -21.2078 12.2917 62 56 24
-4.38963 21.5121 10.7809 58 39 19
16.4696 8.64581 12.8454 32 24 15
2.95838 15.5463 -12.843 138 99 45
6.96655 -9.47663 11.1577 60 47 20
4.92909 8.78846 -14.1454 148 118 54
60.6274 24.7514 7.55389 60 38 17
38.5455 25.4857 -4.25542 90 57 27
53.0902 14.6901 15.192 57 38 19
-49.8191 0.500168 -7.31774 62 57 43
-30.5876 -30.6378 9.26923 142 110 51
33.036 -27.5895 12.759 61 39 18
-59.8066 -28.4384 -9.89728 142 114 48
56.6253 25.6151 -11.5711 63 43 19
-45.4481 -2.17912 -2.26201 66 55 23
-9.29277 -3.24561 -13.6595 151 151 89
74.8362 15.0223 -4.48541 120 76 34
-14.0701 6.98562 12.9932 53 50 30
-55.8667 3.42992 4.98643 55 37 17
-45.455 2.32979 -9.90042 143 100 40
43.1495 -1.11709 -2.46931 87 95 69
51.4498 3.99928 13.6353 59 47 23
3.58485 2.6293 -14.7679 143 134 80
32.9487 -8.48547 1.46747 70 71 46
-7.3712 -2.73803 12.6148 60 50 24
-49.9996 1.28287 -4.14074 38 39 33
7.39619 17.4329 12.036 63 42 20
-37.3596 12.9914 15.4866 44 34 20
-48.669 -11.6422 -3.16632 60 40 17
24.544 -30.1965 10.4149 60 59 49
23.6093 -15.2857 6.15089 186 190 123
45.8518 25.6242 5.00208 61 38 18
31.2422 9.2655 -14.0633 130 110 49
41.3116 -33.6257 11.6156 66 47 19
6.77677 -7.95799 -12.2924 146 127 67
26.6872 -22.783 6.75156 169 157 83
-2.14529 8.40707 -15.5314 72 69 49
-78.7849 -21.6038 -5.20801 150 102 50
-57.433 -23.5558 -4.30049 57 47 22
-39.9511 -1.12256 14.017 61 55 30
68.9926 1.05602 -2.52614 96 64 42
-61.5159 -4.17546 1.2472 44 30 18
-13.2735 23.5251 -7.16154 100 66 33
-54.2792 -18.7814 -10.3175 140 101 44
-79.258 -16.7747 -3.56386 73 55 35
-14.9459 9.88953 -14.7805 149 109 54
-58.8825 -21.3885 -3.64993 55 41 19
67.7564 16.4043 9.34106 47 35 19
10.6432 15.4495 12.535 34 27 14
48.1909 17.2185 13.6587 52 33 15
70.1262 19.6396 -3.75546 63 49 23
-38.5031 4.54709 -13.5458 44 40 33
-46.1068 6.5089 9.70012 48 40 24
-22.4563 8.36562 -12.6116 147 114 53
21.9566 23.3756 -7.95432 93 61 31
-2.30762 9.64335 15.2797 29 23 15
-28.3459 8.24471 -14.1482 109 98 55
-9.467 12.4193 14.5023 21 19 15
-17.7193 25.2469 -1.5608 81 56 25
-58.9426 -1.13517 3.6272 55 36 17
22.2823 18.9086 -11.5684 45 41 31
-21.4935 4.39462 -11.7803 88 85 56
20.1308 21.8427 -8.29387 117 78 38
33.0712 12.9139 -12.7499 102 83 42
26.9733 -6.9499 13.5934 52 41 19
26.9535 -21.1293 14.7728 58 40 17
46.8955 5.33502 -11.1502 138 120 60
32.6477 14.1609 13.2082 51 39 22
42.6886 23.2248 -7.8559 144 90 41
46.6712 7.00535 14.2402 29 26 20
-28.3528 12.0519 -14.4138 67 60 43
-37.2387 20.5599 10.6481 61 39 18
-66.9622 -13.3021 -4.15813 38 28 20
37.6488 -32.2604 4.51082 110 72 34
-54.4737 -34.831 -10.0538 57 44 20
-55.5286 -24.5757 -8.58087 131 119 57
-24.7583 8.65899 15.1102 53 42 22
-10.8197 6.39135 -15.4601 138 110 51
-3.71903 14.4168 14.1796 21 19 15
53.8994 17.3012 -15.6984 82 76 53
22.5 -9.73982 -14.1731 142 138 93
34.9159 -6.86161 2.71138 69 72 48
68.6933 15.1528 9.61311 51 35 17
18.7154 -11.8931 -14.207 52 46 33
12.3473 -21.762 -18.1443 127 116 64
33.2282 -27.1048 12.4069 62 39 18
30.2009 -12.0933 10.5036 56 52 28
47.5484 19.6077 10.2552 66 42 20
42.9759 17.6975 -9.8299 230 190 123
-32.6245 -27.7253 9.13728 145 125 57
8.88325 -5.02893 -11.8328 148 123 59
-28.8484 18.4601 14.1026 29 24 16
-10.0141 19.8352 12.3841 59 40 19
47.5056 28.107 -3.95638 107 68 32
-42.1321 21.207 -1.58728 90 61 29
-44.834 17.9858 7.09323 59 39 17
30.4393 -27.6749 7.56788 160 143 68
40.9058 -32.0721 11.3455 58 39 18
14.1229 -14.4834 -15.9565 145 104 41
-44.5172 -5.20102 8.38954 67 64 34
31.6496 25.277 1.37562 70 45 21
34.7325 -30.9815 5.30968 123 90 41
-16.3835 22.9105 10.4762 18 18 16
-51.2775 -22.8846 -7.55077 97 90 49
29.3774 20.3832 -12.0579 75 58 39
36.2008 -30.2154 10.1075 82 59 28
-38.3876 21.4366 -5.17395 71 46 23
30.0218 -21.6753 13.1052 65 43 18
-2.30684 3.34438 15.0279 57 48 24
-44.4149 -5.53693 8.04707 66 59 31
-53.6969 -13.5458 -4.45793 61 41 18
4.64097 -8.09047 -12.7952 147 117 54
52.5609 22.9563 12.1461 78 45 20
-37.6269 21.3884 -5.82961 86 56 28
-6.37012 24.0729 -5.33266 65 46 21
-44.1262 -3.74373 -1.81483 61 49 19
50.0639 29.9757 -0.050106 54 36 17
41.291 9.08035 -10.5471 75 73 56
18.421 -13.1408 -14.1841 86 74 43
-40.0074 11.3508 14.6767 22 22 17
-33.3463 -24.4333 13.0203 61 44 20
-46.3366 -0.650423 -9.46709 140 105 47
40.1153 27.2248 -1.07999 55 37 19
72.8693 15.9099 -4.66216 102 65 31
67.6889 -2.38064 2.66245 82 84 58
32.5791 -22.7792 9.19496 175 154 83
-40.3685 -21.5674 13.4162 54 35 17
-11.9818 16.1598 -13.3952 154 105 50
77.3941 12.1025 3.46275 42 38 25
-22.7167 5.59283 -12.0482 126 122 77
-31.9814 19.3684 13.3887 63 40 18
-59.5572 -1.51664 3.21701 50 33 15
-25.5671 24.5449 4.12605 57 37 18
-32.4584 8.04327 16.7405 55 40 21
56.3684 29.0564 -4.38324 94 59 27
32.2232 8.94725 -13.4149 140 121 53
-42.5554 -9.14613 9.85175 52 50 29
50.0058 27.1936 4.73008 89 64 32
9.33458 -5.24434 -11.9072 134 95 43
-25.5531 10.4736 15.4784 64 47 23
14.3666 9.94888 -10.671 147 110 48
-42.0961 -2.71161 -11.326 132 88 40
34.72 23.5524 -6.96486 100 66 32
-20.6931 23.3804 -6.96112 69 47 24
10.1624 10.4942 13.885 37 30 17
-20.6737 19.2226 -11.649 90 67 36
-60.5691 -6.29454 -3.00299 119 77 41
34.9063 -2.49681 -9.84707 139 145 101
-7.36926 11.9936 14.58 58 40 19
51.4055 12.8112 -16.2655 160 127 62
-14.7673 12.5826 -14.5 135 100 45
30.0676 -32.0912 8.11424 137 103 42
36.1721 20.2661 -9.6243 119 90 44
-56.0259 -10.1494 0.535065 52 49 30
20.0437 24.8515 -0.306717 58 39 18
-29.4508 7.20011 -14.1662 128 115 57
63.5649 8.50118 -10.8044 128 132 102
54.8289 -0.720063 -4.49642 81 85 61
29.8055 -18.5884 7.95953 167 143 65
18.2346 20.6371 9.59637 60 38 17
3.08345 3.84503 -15.0996 131 118 62
-44.2279 -6.21357 5.42542 67 61 31
-22.6534 22.0114 10.5685 60 40 19
38.111 1.5201 -10.3055 154 157 107
-69.003 -15.1665 -3.68886 26 22 17
-35.542 -30.2175 15.278 47 33 20
-25.6596 8.39433 15.323 64 48 22
-38.5336 20.8971 9.77293 46 33 18
-43.9153 15.1915 10.0537 49 33 17
-4.37522 8.31095 -15.6643 166 136 72
25.7936 22.0066 11.8547 26 22 17
43.9551 10.928 -10.9608 162 123 53
-39.5427 9.03357 -13.5814 166 119 62
-27.48 5.51939 -13.0422 120 117 74
-24.3284 -35.0051 7.675 147 103 42
68.8975 12.3969 -9.71062 114 118 81
26.3279 11.6557 14.1711 45 33 16
-44.3362 10.0369 11.1095 51 33 15
24.3438 -12.0606 1.91318 75 77 51
6.42985 5.30328 -13.8601 131 113 50
-23.7627 25.2594 2.30766 61 39 18
76.333 14.2349 -3.93684 128 96 39
17.8068 -17.4509 -14.8067 152 117 52
18.8138 -21.8818 -13.7243 35 34 27
26.0048 -16.0173 14.2633 64 42 19
11.2259 23.8626 2.84027 59 40 18
-36.1673 -16.5547 6.82275 151 121 51
-38.0447 24.3945 1.30977 54 36 17
-9.8939 9.4758 14.5448 31 24 16
-13.9777 -0.740208 11.1936 60 48 21
-40.1678 -11.4983 11.351 51 35 16
-33.2331 23.2883 5.54262 63 41 19
-79.0007 -15.7174 -2.08713 31 27 17
-44.6687 10.6549 -9.66968 115 77 39
14.7895 -2.10879 -14.1242 139 98 45
62.6208 8.48355 -11.2812 134 143 100
-54.8067 5.62495 5.43721 55 35 17
-61.9958 -9.53687 -3.93729 117 74 39
-17.6447 -4.72325 9.44162 67 60 34
65.4737 17.1527 -11.3151 137 108 50
-55.7892 -21.9313 -4.15262 58 43 20
72.0144 19.1775 2.14824 52 35 18
37.5255 15.6546 -10.8663 175 147 79
69.2247 20.8986 -1.98366 56 42 21
-59.9984 -1.60306 2.83264 50 34 16
36.0412 -34.3225 3.79579 141 98 46
75.7406 9.00335 -3.3199 46 48 36
25.9888 -14.1174 6.8347 145 143 84
-60.9792 -2.57701 1.19454 48 31 17
10.8425 -8.98821 10.4409 61 50 24
39.8878 -1.59406 -7.06322 112 123 91
48.0119 28.3465 -3.97923 111 70 35
25.4115 21.8476 -11.4595 143 90 45
-35.8148 -22.8639 14.7756 62 44 19
54.4876 14.9663 -15.3694 132 116 57
24.0379 3.41949 -14.9213 140 114 55
24.0656 -10.2071 -10.0567 56 59 39
-47.1934 8.70223 -1.48938 54 47 27
-57.6758 3.16698 4.1827 53 35 17
58.807 23.6403 -11.3857 130 88 37
44.9788 11.9861 -11.2629 144 117 61
-29.8454 22.0838 10.6027 64 40 19
13.906 -28.8237 -13.6246 63 49 20
24.3203 -12.0622 2.54223 80 82 53
18.122 24.5352 0.171177 60 39 18
20.9979 -13.7234 -9.95178 65 66 41
53.466 1.21919 -10.9941 122 126 89
31.7754 10.6152 -13.6896 118 102 49
-56.8552 -27.2093 -8.17414 137 115 50
-63.4034 -30.4579 -4.60887 28 23 17
-42.6887 16.3794 -7.74812 77 57 32
-37.0412 17.0412 -11.4689 144 121 96
53.9015 6.30906 -14.7294 164 161 104
45.9239 3.86374 -10.5378 148 140 89
-16.9639 23.2262 -7.5135 47 35 20
40.4805 1.50298 8.18799 67 64 38
-8.42387 23.9728 7.27493 61 39 17
-58.6725 -22.485 -11.2804 137 104 46
-59.8895 -17.7117 -3.16995 41 33 20
66.6867 8.35179 0.0806303 41 26 24
51.1488 1.38398 -11.7742 134 142 100
24.7068 -9.55627 -10.2755 60 62 44
-16.8647 20.3566 -11.039 118 77 37
-4.9905 -0.182472 -15.3117 130 127 81
-35.7407 1.41221 15.9488 56 46 23
-46.668 -3.87013 2.60353 67 57 25
40.8717 2.94204 8.90517 72 72 45
-19.1055 -1.25156 -10.825 139 116 52
56.8985 6.2537 -12.7212 148 160 124
-13.0191 -6.69617 9.07011 65 64 36
-48.9186 19.3116 4.75343 60 38 17
-39.372 21.574 7.40491 62 41 21
-54.6172 -23.2282 -5.04947 59 50 24
13.8914 24.6092 -1.56596 90 60 28
-78.3895 -24.6115 -3.88955 109 99 46
73.3849 15.734 5.01133 63 40 19
14.7453 -27.0243 -16.7157 219 186 116
-45.1798 -7.1107 2.76999 65 53 22
39.9502 -2.86131 -2.26224 79 83 59
7.62174 22.033 -6.9099 38 31 26
14.34 23.8265 2.38121 61 39 19
-45.0347 9.84806 -9.69677 106 69 32
9.22147 24.4874 1.39801 61 38 17
52.5116 3.11445 -13.1178 156 164 116
-69.4367 -23.228 -6.67117 135 113 50
14.6634 24.1232 1.52633 60 39 18
-50.1943 -20.0829 -5.14746 59 52 25
-51.782 -16.1545 -9.88001 140 95 45
33.8725 -0.748985 -10.919 105 104 68
-31.5164 -12.9515 6.1788 176 172 101
53.0844 28.3153 -6.16835 106 66 33
-27.5698 8.30811 -14.089 66 64 45
18.1853 20.3076 -8.32706 138 93 42
50.9683 5.61259 -14.8784 144 144 101
-25.9351 4.23072 -11.9688 125 126 84
45.9528 28.3303 -2.96657 110 73 37
14.0273 18.0412 11.0717 50 38 23
51.6133 25.5621 -15.4277 124 100 54
-59.2644 -14.745 -6.91088 27 23 18
30.5838 24.3756 7.17179 58 37 17
-45.3484 1.19599 10.3408 52 45 28
-15.4562 8.09034 12.8911 57 46 21
-43.0037 9.49116 12.5412 55 36 17
4.17888 -4.92319 -13.2597 148 138 73
-34.6063 19.7231 12.6115 22 19 16
27.0864 -11.7212 6.87283 112 113 71
19.9176 10.3513 12.7924 63 40 19
-23.897 -32.7541 8.49431 124 89 38
-64.9411 -31.9083 -9.58823 117 82 43
26.6476 -29.0847 8.79601 132 101 40
-56.0563 -15.927 -4.58977 55 35 17
57.4736 20.4305 -13.712 131 111 56
32.5503 25.3106 2.25494 68 43 20
6.46974 -7.66495 -12.3623 152 138 74
-18.2452 4.11083 11.4308 59 54 28
-4.4507 15.5953 13.9057 22 20 17
-65.2078 -18.7203 -1.16037 46 39 19
27.2563 -20.4502 6.68896 165 158 89
-59.9458 -29.3881 -4.97197 57 40 19
9.1129 12.3385 -12.0749 141 119 54
-30.2659 -27.4957 10.7205 92 72 38
-40.3799 23.883 1.44849 63 42 20
1.81073 25.2336 0.893892 59 38 18
-79.2584 -17.2593 -3.83037 102 77 44
14.2871 -6.94521 10.3707 61 48 20
-49.8831 1.82888 -4.5081 39 40 33
-46.6917 -3.50009 2.93372 66 58 25
21.4604 -5.53805 -15.4843 52 48 42
-24.4459 24.6917 4.15875 63 40 18
-42.2922 -5.1932 -11.7959 38 36 32
75.7809 14.6385 5.03811 56 37 19
19.2703 2.64871 12.9623 53 42 23
64.5503 7.58539 9.41372 67 67 42
-7.58096 -6.36591 11.4204 63 54 27
-61.354 -31.6154 -10.831 151 105 54
-64.5807 -26.4142 -8.79161 122 91 39
15.5439 -9.80936 11.582 57 39 18
3.8897 -4.62214 -13.3627 146 138 78
14.3618 -6.652 -14.5421 149 137 74
71.086 6.90805 2.40631 105 88 74
69.4034 0.813025 -1.54993 82 54 41
