ply
format ascii 1.0
comment Created by Open3D
element vertex 1374
property double x
property double y
property double z
property uchar red
property uchar green
property uchar blue
end_header
33.9404 13.1558 -11.8632 119 108 52
-31.4273 22.3112 10.0868 63 41 18
14.3499 5.24072 -11.7328 38 36 29
31.8326 12.0839 13.7906 50 36 19
-40.5017 -6.02393 11.9235 53 46 21
-60.6881 -26.757 -3.98203 56 39 19
-46.4875 -11.2642 -10.7506 106 73 42
24.8397 -23.2433 14.5561 54 42 19
3.99797 17.8201 -11.6781 140 95 45
-22.908 -33.9755 13.5128 64 44 19
37.5468 -4.31112 2.83411 68 71 52
-78.9289 -18.144 0.529007 16 16 14
5.48447 11.207 -13.7036 137 118 62
-13.82 7.79016 -14.986 131 105 50
15.4036 6.43625 12.8394 65 52 24
-46.4356 -0.036087 7.84239 64 59 31
34.6736 23.5595 -6.94168 99 65 31
-58.1579 -10.7718 1.46422 60 52 26
-3.48796 19.5314 -11.2094 142 97 44
58.729 16.6744 13.0339 23 18 15
45.6206 2.28099 8.12468 74 80 56
40.8225 13.1912 9.91489 61 40 19
55.2835 29.3379 1.97261 60 38 17
-7.63658 21.519 -9.61591 121 78 39
-9.65866 20.8131 -10.4802 42 39 29
-28.7837 16.8365 -12.8732 84 61 37
-42.9591 12.2086 12.2103 36 25 14
-64.9976 -10.7249 -2.52213 39 30 19
52.4604 18.6298 14.424 60 42 19
58.9721 26.0605 6.91473 35 26 14
68.7518 7.75957 7.54413 42 28 24
-49.0555 13.4435 -0.786034 159 118 45
-23.4928 3.82971 -11.5014 143 128 64
54.4795 28.6012 8.05381 100 64 29
17.6977 -31.0146 -20.2701 81 53 27
-36.8606 -16.7712 7.04259 134 97 39
-6.72259 -1.0052 -15.0443 70 73 58
11.5987 2.86595 13.5053 30 28 18
13.5017 -11.7149 -14.994 132 103 51
-32.5309 9.14355 16.4943 36 29 18
-15.8234 -4.23663 -10.6985 148 146 92
77.4209 15.0551 2.0825 19 17 15
-41.808 6.61872 14.1951 25 21 15
-8.2726 0.577843 13.3077 58 50 24
-72.228 -18.2364 -5.2644 83 79 69
-42.4306 2.2812 13.366 49 37 16
-47.3363 9.38052 -5.57025 68 47 22
-62.1916 -9.71861 1.31685 43 30 17
-67.9176 -19.3665 -6.62694 154 111 54
-22.9497 21.735 10.9349 61 39 19
-31.9772 -2.61433 14.339 47 46 35
64.1189 22.0924 9.60968 30 23 16
52.0224 8.77478 14.8612 62 48 24
30.0124 17.8549 13.3076 65 43 21
44.2563 11.9931 -11.0268 148 107 45
21.4001 -9.57527 12.9948 60 45 19
-18.1922 10.0705 13.054 36 33 19
-58.274 -36.0077 -3.11041 54 39 19
21.1541 25.0582 -3.135 63 42 22
30.5597 3.61587 13.2191 42 38 23
59.3029 3.58624 -7.69333 115 125 93
-29.2709 12.1838 16.0021 22 20 16
-31.7839 -24.0996 12.3494 51 42 19
19.4062 -32.8479 -20.8625 118 93 38
55.5045 15.7539 -15.1255 91 81 47
-38.4645 -10.8786 11.8698 58 39 17
32.4702 4.54319 -12.6232 139 127 69
-82.4279 -12.2314 -1.22136 96 76 34
26.2547 -11.085 13.606 32 25 15
69.8951 5.66224 1.06297 84 76 66
-55.4505 -18.1875 -10.1714 139 90 40
-0.213097 -1.05971 -15.0276 149 145 94
41.6213 16.4843 9.33487 65 41 18
76.799 11.088 1.45563 52 49 31
28.24 6.17486 13.9918 22 20 15
-3.94773 14.4218 -13.731 70 58 39
0.593262 23.4929 7.51573 50 35 19
-38.8883 -11.9317 11.8822 58 37 17
25.6956 17.104 13.4782 55 39 18
-20.8687 -4.58501 -8.29861 139 145 98
69.9331 14.9499 -8.36885 133 114 55
22.3681 -10.6636 -14.0953 138 138 87
58.5166 10.9452 13.4298 50 41 21
55.2447 16.1566 14.2963 65 47 22
57.5673 8.20207 -13.4731 143 155 106
14.0615 6.03456 -11.2553 123 91 45
-67.3766 -13.9499 -3.97728 70 63 54
-10.3535 -4.34739 -13.0517 126 119 66
18.9837 -35.2083 -15.866 63 50 22
-13.7393 19.2206 -11.9145 138 98 48
-73.7224 -25.1587 -2.61981 57 52 26
32.7837 15.784 12.0133 18 17 15
69.0027 5.91584 -0.239536 64 52 50
-33.775 14.6368 15.513 26 22 16
-34.0634 7.94448 16.5741 61 42 18
6.02428 21.8727 -7.14047 59 46 28
-45.2636 -12.6025 -11.5457 128 95 47
49.815 23.6485 12.4193 43 28 15
46.0671 14.7166 11.4132 56 34 15
-41.7631 4.62908 -12.0624 90 77 43
-60.2893 -20.6709 -3.58287 44 32 16
-63.2426 -32.4655 -4.42928 25 20 14
-46.7453 10.0545 -2.77309 54 40 20
21.7402 -14.8057 -11.9256 33 33 28
32.0334 15.5643 -12.7467 133 103 44
13.0478 10.9025 -10.6692 62 56 41
-46.0369 -1.34076 8.61488 67 62 36
24.9121 -29.1501 9.9287 116 89 47
59.6571 17.131 12.6718 55 38 19
-35.5309 -9.98399 5.4502 156 143 75
-34.2389 -8.59725 4.78343 182 184 114
11.5167 19.0317 -9.28357 58 47 35
21.02 -12.7837 -8.99931 65 68 45
-85.6905 -15.0611 0.973358 20 18 14
-15.0931 24.0425 8.95704 20 18 14
17.3321 -26.3228 -14.1393 40 40 26
54.593 28.0583 -6.98531 103 62 29
56.5339 29.7162 -0.0349083 46 30 19
-32.6605 -3.6916 14.0801 59 51 25
37.6705 -3.97003 -4.41866 72 77 54
52.2278 27.8651 -14.7758 85 59 30
19.9291 7.41051 -14.1148 134 101 47
-36.6963 -22.3511 14.976 57 41 19
-38.5919 -21.9173 15.012 53 34 17
-22.5055 13.1468 -13.0488 135 102 48
-43.7876 15.6541 9.98596 53 37 20
-61.8569 -4.6156 0.0692749 43 29 17
-56.2904 1.2726 4.68086 55 40 17
-15.0477 -1.08143 10.8101 59 48 23
-29.6942 13.174 -14.3987 126 96 50
60.041 1.66038 -3.99977 146 160 123
-41.8351 -6.05006 -12.1569 43 38 33
-46.2769 17.5313 -1.75511 138 94 42
-60.2607 -13.7589 0.446609 59 50 26
68.0293 21.8702 -7.84184 106 76 42
-8.67207 24.512 6.19764 63 41 20
9.98749 -6.54401 -14.4536 121 79 34
0.958984 6.54732 15.4108 43 36 19
-30.1367 -10.6174 14.8985 50 38 20
-84.0478 -13.3315 1.74832 22 21 16
-1.46373 1.6648 -15.622 141 126 76
-35.8373 -9.56113 -11.1604 128 136 87
22.3714 25.0795 4.07619 62 42 19
-84.6175 -12.166 -1.40163 108 76 37
12.5485 -33.7543 -21.2082 125 91 44
-50.2624 -3.36725 -8.00363 130 84 38
70.1153 15.7094 -7.75165 135 100 43
-63.0243 -30.1143 -4.54759 28 24 17
-13.7661 25.1981 -2.28749 91 59 29
-39.7151 -8.5257 11.4842 54 40 18
-10.4322 25.3395 2.91696 62 40 20
44.9894 15.5551 10.6582 30 22 13
-44.0354 -17.493 -8.59934 115 110 63
-57.1381 6.58997 4.21678 57 38 17
-55.5085 9.33286 4.67109 56 36 17
16.9511 -30.9997 -19.6973 58 36 18
-31.2288 -4.61488 14.2393 56 44 21
-36.6724 24.1393 0.0756226 76 52 26
-41.1541 -12.4643 7.94896 84 86 72
-34.0898 10.7149 -14.695 128 94 47
49.4139 21.594 -13.9743 107 71 29
50.3001 27.0615 -6.96037 124 78 38
62.231 27.4183 0.728355 27 21 15
27.7842 -14.3364 8.2509 155 155 97
1.78423 23.8653 4.88997 45 32 19
-0.989326 16.7037 13.2175 45 31 16
64.1855 12.6992 -12.6878 137 128 78
-30.5607 19.1677 13.4079 61 40 19
-9.81194 25.1225 -2.47134 88 58 27
62.1503 5.79936 8.96459 67 66 38
60.5017 5.30555 -9.23835 92 103 76
-6.1375 -9.69911 10.5064 64 58 32
-58.3819 -26.76 -9.53279 116 99 47
-23.583 23.5571 8.84582 64 40 19
69.1027 6.38286 -4.26519 102 78 66
29.393 -19.1094 7.68927 168 149 71
-47.1145 8.46982 -7.04382 98 63 29
-76.6702 -17.8549 -2.20555 16 17 17
-30.7436 0.379005 15.2138 42 35 20
50.7178 24.7017 -14.8884 125 85 39
-5.29868 20.4013 -10.6742 52 45 34
-57.9985 -0.796097 4.06416 56 37 16
-41.0221 -8.9219 -12.7819 72 63 39
-43.6962 11.4321 -10.0531 96 73 39
-2.7813 16.8592 13.27 63 42 21
-67.2033 -24.2111 -4.27965 44 42 27
25.236 -23.782 7.19781 155 133 65
-75.4912 -24.2145 -5.42958 135 114 53
24.7357 25.9007 -3.1398 72 47 23
17.7235 2.54799 -13.979 43 42 31
-55.1553 -11.3178 -7.46128 70 66 53
67.805 23.683 3.93414 48 33 17
-47.5483 11.6267 6.77759 62 44 20
12.5736 23.3002 4.82492 54 36 19
-11.0801 3.26449 -15.1318 144 115 52
70.0777 21.7165 1.27023 80 56 25
-29.4475 -7.78258 3.94727 164 163 99
56.5883 1.21722 -7.73983 106 117 87
22.194 -12.16 -13.7453 144 150 101
30.392 -16.3356 10.888 43 40 24
33.326 25.1075 0.0662842 59 38 18
28.1195 -11.6284 7.91306 128 130 89
-30.7474 23.3137 7.18582 60 39 17
-16.3004 20.7992 -10.6831 104 73 40
-18.4233 23.063 9.77138 59 39 17
74.9476 12.7361 -5.89001 156 139 66
-43.4873 -8.76131 -11.9916 129 89 39
-43.269 -14.6666 -11.0261 140 131 69
16.6461 -26.0789 -16.4032 113 106 70
-62.2452 -28.9916 -4.35524 32 24 15
-1.75535 17.1143 13.018 62 39 17
4.92012 24.4356 1.92322 61 38 17
18.2981 12.1152 -11.4318 75 56 34
39.4776 22.0844 -8.63991 134 93 45
-34.3574 -20.7774 7.36549 156 136 67
-34.2812 -2.59982 14.438 40 37 20
27.6502 -8.68958 -7.19816 141 146 96
23.385 4.00767 -14.7902 137 113 53
-9.45743 16.3408 -13.3304 127 92 54
-58.4488 -31.4239 -9.3163 113 88 37
-68.6592 -15.8146 -1.40132 26 21 16
-3.22797 23.7662 -6.80738 47 40 27
32.2283 16.4917 12.6462 39 29 17
69.0868 21.1077 -2.35251 49 37 21
-6.64352 11.2545 -14.9556 56 51 39
2.45174 21.2972 9.72935 60 41 22
-38.7382 -18.0627 7.87688 136 100 48
63.9002 17.1549 12.1792 54 36 17
-61.8541 -34.2268 -3.02737 23 20 15
-30.8219 12.3789 16.1619 59 42 20
28.9478 23.9466 -8.89011 117 73 32
38.7058 -31.4857 7.65018 62 43 20
66.9445 3.85192 -4.88997 135 100 78
75.4057 8.04626 3.71983 72 43 41
63.0612 27.0095 0.516548 53 38 21
65.1204 14.9399 -12.2209 53 47 33
64.3014 9.41207 -11.27 130 135 93
-47.5538 -6.76339 -3.34721 59 46 18
-46.9015 2.27637 -8.97976 87 61 33
-64.207 -23.0383 -4.6577 33 26 17
32.8606 -31.0403 6.99089 138 107 44
56.97 25.4917 -9.73053 113 69 33
-35.3274 13.4519 15.6872 58 42 19
21.6108 25.3148 -0.727318 58 39 19
63.6217 6.82369 9.22923 67 61 33
60.164 6.07347 10.4138 70 70 42
56.4399 21.4118 -13.7686 61 53 33
-1.97168 24.6928 -3.1044 90 61 30
30.0645 -3.69619 -11.0622 139 145 102
43.8112 28.358 -0.845514 48 34 20
48.7513 25.3954 6.43679 64 40 20
-45.3108 -6.00606 3.11142 69 57 26
16.0581 -31.4112 -20.4024 72 46 21
13.128 15.4461 -10.0637 140 124 84
-39.1683 -3.82075 -12.8778 128 95 48
-56.2518 3.89423 -0.417538 151 103 51
55.7249 11.1086 14.0414 66 47 22
-42.3791 -6.75832 10.9192 44 39 23
54.9733 23.4414 -12.6611 192 183 103
-49.5454 -14.3304 -3.35562 57 41 20
-33.8122 -24.4196 13.4018 61 43 18
4.21645 10.9393 -14.0424 147 120 53
1.9945 2.63766 -14.9953 118 105 60
-52.5349 1.11783 4.7709 61 51 24
30.179 -14.8289 10.9843 56 48 26
14.9236 24.2159 -2.35326 92 60 29
-12.628 -2.92729 11.0571 59 45 20
-32.4591 -20.2034 13.9293 65 55 24
59.9011 15.3902 13.0902 60 42 19
-9.78285 0.682404 12.9187 49 43 25
32.9067 19.0529 10.4107 25 21 15
-11.6868 20.0347 12.4495 18 16 14
-55.5048 -33.071 -11.7856 80 51 24
-9.54392 1.50984 13.2507 51 43 22
-27.9169 2.30997 -12.1002 118 119 80
-25.1747 -31.2802 11.14 48 32 17
13.4905 23.8801 -3.37192 100 71 34
-1.83727 24.1295 -4.07029 57 46 30
34.0692 19.0952 9.99134 60 41 18
30.713 -22.5016 12.7876 63 40 18
45.7996 20.7471 -9.33932 158 109 47
43.4337 9.60857 -10.8094 155 119 49
16.2471 -21.1286 -11.9935 71 64 29
41.1825 -33.7843 6.69386 105 82 33
57.6889 26.6018 7.41406 63 41 20
26.4534 -10.9867 -3.12355 95 96 63
-11.1425 -8.3279 8.27444 65 60 33
-46.778 10.295 -3.68064 57 40 20
-34.8141 -28.1313 8.72806 154 119 46
-58.7358 -29.0303 -9.2352 139 113 46
76.3156 9.37535 2.91612 71 65 39
3.03195 13.8117 14.0168 60 41 18
-47.2632 1.83987 6.23181 58 52 24
-11.8203 14.5341 -14.0285 149 105 46
-65.4416 -30.7192 -5.38341 21 20 14
-49.6499 11.4467 -0.413231 160 129 67
62.028 8.39485 -11.4865 148 155 111
-9.63693 22.9074 10.2357 41 32 19
-15.3706 25.1663 -2.3647 82 54 28
18.5387 24.5735 -0.0734787 55 38 19
-33.7649 -1.02244 15.1346 28 27 17
23.2771 22.4233 -9.83542 49 39 30
-13.3942 23.4264 9.47925 60 38 17
-32.9436 -15.8689 14.7727 52 36 16
-11.1196 1.62585 -14.7619 143 127 68
-65.6672 -23.5169 -4.66164 33 32 25
20.0601 24.7959 -0.125275 60 39 19
8.46891 -1.3689 -12.0167 147 140 77
42.2378 -1.4732 -3.00258 84 90 66
21.4291 -12.1409 -7.66043 60 63 42
-25.8298 23.1991 -5.58576 59 42 22
-23.6745 18.9225 13.2001 56 40 19
68.3454 20.4728 -8.52026 57 51 40
-37.5438 -23.2934 7.51927 146 120 51
11.8588 10.1529 13.5109 29 26 17
30.6968 20.7641 11.3056 55 36 16
-12.1909 -8.47914 -9.90211 124 120 62
-46.8437 2.03794 7.23752 59 57 29
14.2188 -26.5762 -13.1393 65 54 20
7.42233 13.3526 13.6295 63 41 19
49.269 5.68545 -14.5045 130 122 70
-34.021 1.77076 15.9807 38 34 20
-17.277 -7.67135 5.81274 67 69 40
16.3422 5.54761 -13.3937 139 97 43
-36.546 -1.09728 14.6628 26 25 18
-33.2007 0.8675 15.7262 40 38 23
37.1517 8.05259 10.792 58 48 23
-12.3502 -2.10465 11.3421 60 46 21
-62.0751 -19.3229 -3.0865 46 38 20
71.4511 19.9698 1.46284 46 32 19
46.6785 26.4149 4.64154 61 37 17
50.6927 10.1842 15.4188 60 41 23
-55.8906 -12.7689 -7.81938 97 77 47
-62.7358 -16.5206 -6.68878 133 91 42
9.62738 2.71082 -11.8214 103 98 65
10.2282 5.22679 14.0686 58 43 21
-32.6583 7.80254 16.7049 55 40 20
-27.3825 -35.5962 15.4735 54 54 40
-16.3146 -5.298 9.08038 67 65 40
4.85252 -2.67558 -13.5019 146 142 89
38.9214 0.764206 8.10573 70 69 44
-51.7539 0.524124 4.31578 56 51 27
-25.6041 17.7976 14.0043 58 39 20
-6.93799 16.6763 13.6207 63 42 20
3.08247 -12.1439 -11.7719 126 126 74
1.16399 1.93724 -15.2109 41 41 37
-32.4853 1.51857 15.8459 20 18 15
38.6819 -33.5482 15.3938 43 28 16
25.5459 5.18409 14.1066 48 41 23
-70.9287 -24.7951 -2.98541 55 49 28
56.5693 9.88065 13.5924 58 42 22
64.1779 8.51334 -10.3952 114 122 95
-61.0841 -21.7148 -3.63614 41 30 16
-29.6999 -2.95735 14.3593 31 28 18
-14.6519 3.14105 -13.6568 80 79 61
52.6695 8.52434 14.4281 59 47 23
3.32481 -9.26577 -12.9378 140 114 56
-45.8742 -16.5564 -10.3957 153 142 75
37.8697 0.997238 8.65625 59 55 28
40.0924 -32.3703 14.6374 56 35 17
48.3247 6.66167 -13.6186 101 83 44
-30.1494 7.03728 16.3937 20 21 18
65.5784 24.4491 -4.26389 55 38 20
-17.58 5.62135 11.7698 58 54 31
-62.4502 -25.4381 -3.70735 38 28 15
-23.0807 23.4144 -5.3343 58 42 25
-2.01767 16.3041 -12.7314 132 90 41
10.3734 19.6735 10.3809 29 22 16
28.1567 23.4957 -9.97368 113 70 31
35.5128 -31.5552 4.75084 137 94 43
9.17297 7.47836 -12.0041 131 123 88
77.0524 11.9525 0.402203 37 36 26
34.0813 -7.70189 2.85088 65 66 41
13.8779 6.39597 13.1759 59 46 22
26.7766 -13.8752 7.41612 137 133 83
49.6558 12.4686 15.6404 49 31 18
26.2576 24.4547 -9.25037 108 69 32
54.1962 22.7253 12.5343 61 38 18
-48.1253 12.7008 6.59856 60 41 18
-65.2361 -12.2962 -0.600079 37 28 16
35.1764 7.14438 -11.9609 66 59 41
7.09499 -16.6547 -14.9861 102 72 40
10.4672 23.012 -5.70961 91 58 29
-14.5183 25.1406 4.43657 61 40 19
-16.5301 2.71654 11.2886 62 51 26
9.34025 -0.753456 -11.5708 148 143 85
13.3427 -12.8399 -15.4416 151 104 51
2.80022 24.7159 -2.11978 98 64 30
68.8294 10.8237 -8.05678 80 83 68
53.7673 0.0823116 -9.21637 112 121 86
-14.7539 16.4326 13.5487 47 36 18
-8.79063 3.94671 14.1701 55 46 20
-19.1472 21.9861 -9.08035 41 36 30
29.7702 -12.1263 9.19983 108 99 49
72.0127 15.035 -6.3437 141 95 41
31.9007 -32.4516 7.29698 148 111 43
53.368 25.9058 -9.51407 101 67 33
-58.5392 -7.8307 -3.98804 160 109 49
70.9369 6.26851 4.12596 55 46 38
-80.8206 -17.2514 -3.92387 107 78 44
17.2157 13.0968 -10.5598 129 99 47
-38.5016 1.14406 15.2343 30 24 17
33.0881 -26.5842 12.3169 58 39 17
69.0173 14.596 9.13882 53 36 17
-7.98331 19.4056 12.5698 61 39 18
19.4331 -17.4057 -14.1304 123 116 64
-11.406 -3.8606 11.1881 59 49 22
-34.2236 11.0431 16.3217 59 41 18
20.6274 16.6779 -11.2065 131 92 39
65.2486 8.6247 10.4023 65 60 37
-46.4362 -14.938 -10.8581 145 124 63
-44.049 -4.1781 -10.6164 113 81 36
0.325974 0.132778 14.517 59 51 24
-36.3009 -3.94545 13.7648 62 57 29
42.6398 -1.58301 -0.746719 77 81 60
50.3066 14.0953 15.386 59 36 18
-35.0266 16.5373 -12.5519 122 85 42
-62.7681 -21.2567 -9.22581 150 120 51
-65.9115 -20.8661 -2.08705 49 43 21
-10.7897 -2.64078 11.6437 62 50 21
33.4621 15.3486 -12.0621 40 38 33
-32.2373 3.02558 16.2468 55 43 21
-1.38767 10.2989 -14.925 107 86 48
20.6025 20.4953 10.6136 49 33 18
-26.9765 7.605 15.7005 37 35 28
-33.1262 9.33592 -14.9405 72 63 35
63.7449 12.5652 13.0649 56 45 24
14.1591 20.6381 9.13519 54 36 19
-15.2846 5.52409 -14.3584 77 76 53
-24.6159 16.7032 14.2987 33 25 19
-17.06 -8.03929 -5.97832 125 125 74
-56.0764 -3.86218 -2.97163 162 109 48
3.52448 24.4384 -2.37759 96 64 29
30.7001 19.6024 12.132 55 38 19
59.1896 27.7316 1.91278 24 18 16
-52.8487 -1.60986 3.93274 59 55 32
-30.545 -8.40076 4.46431 173 173 109
18.1162 -19.3559 -12.2798 62 58 29
-34.8717 21.9902 9.03898 61 38 18
50.6834 28.7253 3.17992 68 43 18
-51.4661 3.24483 5.21236 60 52 27
27.1216 5.01083 14.0936 60 46 22
17.6195 5.57894 -13.8256 147 103 45
49.0351 27.9705 3.79208 71 46 24
46.1891 19.234 -9.94478 104 78 43
35.407 5.83014 -12.0753 134 126 82
-10.2218 24.5721 -3.62395 89 61 32
-71.8539 -17.8069 -1.40312 19 19 18
-45.4719 3.9604 -9.92946 83 61 31
47.999 16.3932 13.9809 50 32 16
53.0383 26.0172 10.3392 69 49 22
-19.1277 10.5908 13.3229 39 36 23
-30.8486 -0.737673 -12.5445 132 123 71
-59.9732 -31.76 -5.69237 58 39 18
58.4684 5.05042 -10.6807 131 142 110
-32.7774 21.3394 -8.10394 103 66 31
62.0868 23.5607 -9.22967 127 81 36
13.3163 -30.0179 -18.0172 154 111 45
-36.1024 -2.71608 14.3236 58 53 27
47.7635 20.8241 9.59062 68 42 20
32.0092 1.18774 -12.5931 68 70 42
-40.8427 -8.18245 -12.9155 64 64 47
-48.9562 16.3041 6.32139 59 36 17
12.6788 8.54159 -10.8281 138 123 61
-30.0701 15.5938 -13.7614 137 95 44
6.60489 24.604 -1.68016 96 65 31
-30.4709 -20.2617 10.326 90 84 44
17.5688 -33.3653 -13.1417 56 43 20
40.0491 -31.6527 13.5249 57 37 18
-42.9702 -7.42603 -11.8849 128 91 44
57.8932 11.581 -14.4499 50 47 36
36.5763 -3.66301 -7.92386 99 103 73
-28.812 17.9123 -12.1564 129 87 38
-63.7762 -10.093 0.0727081 39 28 16
-57.3625 -5.90982 -3.49129 154 105 44
65.1757 13.0471 -12.4186 72 72 56
-41.2544 -10.5869 -12.3041 127 112 60
-34.8642 18.7602 -10.796 120 81 39
-0.52079 -8.02924 -13.8272 159 148 87
40.0789 -1.31438 -7.34538 119 130 92
-66.4347 -13.0296 -3.00699 28 24 16
27.481 -7.82923 -8.27846 134 140 94
65.1603 14.8245 13.0502 31 26 16
-51.3176 -3.58883 0.340393 40 40 34
-51.7572 -14.8213 -3.65329 53 37 16
-74.4921 -22.8861 -6.30663 133 99 43
-35.5657 -31.1007 9.63322 151 109 50
77.4213 16.5248 -1.05045 78 51 24
-49.0984 -12.7816 -3.24509 60 41 18
67.9761 16.1031 -9.63371 129 92 38
-0.921257 -6.29464 12.351 66 60 31
53.1068 3.0956 -13.0599 155 167 125
13.1245 -31.8228 -20.1927 93 61 30
10.7948 10.6698 -11.5376 138 121 56
52.1426 27.1594 -15.4327 125 97 55
-54.1042 -5.31609 -5.43336 35 36 31
56.5442 27.2575 7.04023 49 33 18
-5.76244 16.1774 13.9465 47 34 19
25.536 5.96297 -14.8355 56 53 36
-14.3425 -7.17914 7.71675 64 63 36
-42.5042 21.4381 5.8938 65 43 21
-14.4918 8.67818 -14.8547 141 110 52
-25.8899 -11.5998 13.488 53 47 25
38.575 -32.4145 15.0346 56 35 16
-84.169 -17.1272 -3.53516 140 94 45
-60.1457 -19.4825 -9.75988 146 101 44
-28.3134 20.2529 12.5815 52 36 18
29.3996 -8.75258 -6.34837 124 128 81
-34.8178 2.65428 16.2007 39 33 20
7.58542 -20.5061 -12.9347 56 44 18
-28.0975 -36.2663 8.93501 116 79 33
-46.6821 18.4074 6.39732 63 39 19
57.629 -0.692376 0.960983 74 79 57
64.3724 0.37056 -3.41539 156 164 104
27.4535 25.9732 -0.941156 52 35 16
19.9963 24.079 5.47247 62 41 20
-22.6966 11.8544 14.1626 62 46 23
20.2161 10.6181 -13.3694 134 94 46
-44.5466 -16.6531 -5.12961 63 59 31
-32.8959 -7.40975 4.00346 177 177 111
12.2382 -11.1958 -15.1798 143 116 52
68.621 -1.11903 -0.249695 100 105 74
56.1815 12.5667 13.8549 66 51 24
-41.1376 -5.67562 -12.5335 90 73 43
-16.8041 -6.465 7.48462 68 70 41
42.021 27.6652 -1.63532 62 42 25
-20.3138 24.1024 7.29702 55 38 20
5.84943 12.5731 13.9216 22 19 15
31.4521 24.3297 -5.53084 76 49 22
59.6707 8.6936 12.5081 63 57 29
12.294 -28.9742 -18.2631 143 120 52
-64.9675 -24.1702 -4.91133 31 27 18
-45.1414 18.0218 6.97235 60 38 17
10.116 4.95871 -11.7644 176 153 93
9.69024 -31.4158 -14.726 53 39 19
64.6125 24.9463 5.88599 40 29 16
16.5552 2.07242 -13.7234 128 102 45
30.1714 -10.4081 -2.04103 100 103 65
-11.1155 -7.70625 9.04474 64 60 29
25.8564 -10.9754 -3.89154 93 96 67
27.6768 7.12774 -14.6915 137 124 69
-72.7 -17.8014 -1.80379 23 19 18
33.6144 25.2946 1.72113 63 43 19
-27.9639 19.307 13.4406 38 28 16
61.8878 24.3046 7.70868 36 25 15
22.69 -11.3813 -9.6508 65 69 45
-12.0763 -7.10796 9.20454 63 60 31
-48.6024 -19.8387 -8.95776 133 127 67
46.3078 24.0236 6.53278 65 39 18
10.7644 -30.7993 -13.8006 58 42 19
70.9383 19.9314 -0.0231171 79 53 25
-71.2301 -21.7337 -1.36827 43 35 18
37.0601 14.4088 10.3279 29 22 16
25.4154 25.8559 4.27869 66 43 21
1.91601 14.0277 -13.5952 58 50 32
25.3319 -4.29456 -14.0041 59 61 51
38.2063 24.1233 -6.42793 112 71 35
-35.8288 -29.3847 9.10028 144 106 44
-12.0416 7.93723 -15.3895 133 110 59
-66.9738 -21.9658 -2.49498 54 48 23
0.838394 -7.38494 -13.6762 136 119 62
67.7751 15.2506 -10.4066 144 107 44
69.8437 17.2313 4.50345 65 47 21
-60.7523 -35.9943 -11.8687 87 68 38
-61.9692 -10.5388 -4.40043 134 92 48
-19.2877 19.7467 -11.2897 52 41 32
50.2382 20.4238 13.818 60 37 18
60.4722 19.9169 -12.2817 120 98 52
-17.9025 -0.00639343 -11.444 148 124 51
-35.3786 -21.2129 14.6509 57 43 19
-13.302 -6.55959 9.05397 68 67 39
-50.0471 -12.6351 -9.32503 128 82 38
31.8125 -1.72682 -11.3768 137 141 96
67.1423 8.12924 -5.89905 108 80 66
7.71308 -6.35779 -12.1498 147 126 64
-27.2442 11.0071 -13.9615 112 89 43
-47.1135 8.35985 8.17291 48 43 25
49.725 2.68671 12.4248 67 65 44
-36.1996 -27.7021 8.70413 149 113 47
60.7983 21.1526 -11.4228 106 80 43
4.32629 13.4095 -13.4726 146 111 51
9.60432 -25.8215 -12.8404 57 41 19
-40.0466 20.3089 8.97421 44 31 17
10.9876 -31.9629 -14.1514 59 41 18
23.7315 -10.4904 -9.94901 58 61 40
64.726 0.787819 6.05623 66 60 29
-58.8239 -12.8301 0.617828 60 54 28
-67.0712 -30.3824 -7.33579 29 22 15
15.1141 13.9596 12.0468 16 15 13
30.197 -18.6052 12.2199 59 41 20
-15.1803 -2.47617 -11.7491 146 127 62
7.84783 -28.5605 -18.3562 112 80 39
51.5232 17.4045 14.8275 64 41 20
77.247 11.6303 4.15731 56 43 22
-37.4771 7.5442 16.0357 34 26 17
-39.4588 5.55462 15.4004 53 35 18
-37.2095 -27.3828 14.8406 40 31 14
-9.43619 17.8756 -12.5332 63 49 35
-23.1342 8.94267 14.3104 21 21 17
-7.09549 14.4633 -13.7761 74 55 35
-22.5155 6.61552 13.6158 20 20 17
2.02632 6.34731 -15.4848 118 98 51
-63.004 -13.2056 0.53067 44 32 17
-14.8381 -4.1686 -11.1705 143 132 72
-29.4843 24.6719 0.769928 62 40 17
-11.9531 -6.55939 9.79208 63 61 32
51.2002 4.1315 13.7751 57 43 21
-45.127 22.2964 3.13753 67 43 22
-2.05295 11.2077 -14.7832 84 76 48
37.7629 -31.2957 8.89531 57 38 19
30.6561 -34.248 12.916 56 42 19
-84.3417 -13.352 -2.26125 130 89 41
15.2481 -20.2855 -10.753 69 62 28
-3.14421 15.3371 -13.2698 65 49 36
-33.7059 8.08529 -15.0268 96 82 49
12.1988 21.0832 -7.58093 38 33 29
50.9776 1.32821 -11.6901 130 135 93
22.8208 0.201248 -15.9263 45 40 37
-30.0711 -3.66635 14.2847 21 19 15
-43.1792 18.4497 8.576 51 36 19
31.3922 -7.08428 10.3535 78 72 37
-15.8031 2.6163 -12.9834 133 119 56
-29.0157 -11.1006 5.9292 171 163 90
-30.5489 -7.281 3.63574 157 163 101
-65.4586 -34.6233 -9.70455 82 59 35
60.7653 18.1281 12.1864 57 39 20
66.2439 0.259657 -3.52661 146 154 100
29.8836 6.34356 13.8027 51 42 22
-21.1803 12.3278 -13.093 149 112 53
-29.2214 15.5298 15.2307 32 26 18
49.6785 1.90266 10.7075 59 59 42
44.9566 24.1373 -7.52402 144 95 41
72.4791 9.35609 -6.03122 163 163 111
-9.44791 7.91378 14.5203 26 20 14
-45.75 0.385086 -9.64205 149 105 43
-60.1124 -23.5864 -3.80072 55 40 20
48.6469 2.86704 10.4614 69 71 44
61.2831 14.2179 -13.2109 112 101 64
-11.2653 0.775379 12.4938 56 47 20
-50.7859 -0.0109406 -6.16195 45 46 39
-64.9289 -22.3353 -4.28055 39 36 24
-29.3995 -33.3 8.93785 147 109 49
48.4076 8.08096 -14.1187 107 81 40
-59.654 -36.3676 -12.1817 114 89 48
-41.7719 -16.6494 -7.08348 61 61 34
-41.1524 -15.9732 -7.41783 58 59 35
-66.1447 -13.5443 -1.07123 37 28 15
17.8302 18.7993 10.7647 63 41 19
8.73595 9.70455 -12.3446 76 69 44
29.7293 25.5031 5.6421 47 33 17
-38.5812 21.7847 8.04893 40 31 21
-30.0988 -12.8096 6.42828 177 171 98
-6.19787 -2.67933 -14.6471 141 128 74
-10.7036 11.9006 -14.9321 143 102 46
56.4599 3.81973 -11.1944 126 136 103
-13.4296 0.88533 11.7666 54 43 18
33.3049 -22.3472 10.0307 38 33 24
1.40848 18.1729 -11.6371 51 43 32
-40.6378 6.26865 14.8258 51 34 16
-4.33359 9.56541 -15.3725 134 104 47
-46.4521 13.0989 -2.43912 81 57 26
-12.0708 -1.28698 11.6189 59 47 20
-9.99831 -8.17797 9.4252 67 62 35
8.51454 -5.13163 11.8575 66 60 30
-31.9213 -3.73743 -11.6915 145 155 108
28.9184 -2.91412 13.8231 18 17 15
-33.6369 22.0229 -6.75989 93 65 31
-35.4642 -6.26217 -12.4406 80 80 57
3.41719 16.5671 -12.3746 150 103 51
69.4447 11.3752 8.9633 37 32 19
-31.0083 21.2614 -8.32619 72 53 30
-62.4008 -12.5238 -5.16175 142 89 40
-31.0601 -12.6635 15.1137 20 18 15
5.17386 21.6933 -7.57724 111 79 40
42.6783 23.0685 -7.94612 146 90 38
-37.2122 -2.16295 14.3812 57 51 26
1.21999 0.417744 14.5316 59 52 28
31.1966 -19.0945 9.40332 111 98 48
38.3226 11.3268 10.4138 18 18 15
48.0319 18.1649 -11.2758 120 83 36
18.8058 20.3032 10.0195 60 40 18
29.4213 2.84362 -13.9251 152 145 84
-10.99 16.1267 -13.4223 144 101 43
-43.8424 2.20358 12.2992 50 35 17
22.4904 -6.81135 -14.8518 45 46 39
56.0031 16.9049 -14.917 62 60 43
-26.6198 -14.6682 11.5688 66 65 36
-17.2878 3.7381 -12.9714 146 122 62
-34.0793 3.63919 16.2695 27 22 16
-62.2996 -12.0834 0.898743 47 33 17
2.81584 7.95743 15.0886 42 33 21
40.2598 25.8566 -4.22992 90 57 28
-78.483 -20.2652 -5.09145 140 96 50
62.0034 18.6862 11.8285 25 23 16
-32.1878 13.5313 15.9937 51 38 19
-42.6392 -1.89967 12.3535 51 45 21
-49.9467 9.68433 6.25224 62 42 18
49.7324 11.603 15.6533 57 34 19
-27.3042 10.5048 15.7235 51 43 20
18.6681 17.6895 -9.55814 50 43 34
-47.4059 19.3013 0.27327 110 73 36
-15.9464 4.18388 -13.4771 106 100 59
-38.5456 21.0681 -5.86227 91 60 30
68.0633 21.6577 6.84766 45 31 19
15.247 -1.4524 -14.0683 139 95 42
10.4961 11.7306 -11.6441 159 136 75
24.241 -4.9115 -14.8552 129 138 97
-42.5664 23.1471 3.04701 77 47 21
17.034 15.451 -9.75255 128 91 46
-26.9933 -15.2797 12.0628 66 64 36
-52.8442 10.2483 5.69743 57 37 16
0.32782 -9.85752 -13.4395 140 127 71
42.5768 23.1352 6.92453 29 22 16
5.31221 23.1487 -5.67311 127 87 46
73.8594 18.5936 -1.49569 74 51 22
-64.4622 -15.8141 -0.143875 42 31 16
25.5162 -8.56248 -10.2327 78 82 54
50.5917 6.58018 14.7301 60 47 30
-22.7018 -33.8477 9.62599 93 73 32
-59.8829 -15.3341 -6.92969 31 27 18
22.351 16.0703 -12.4579 133 95 45
-33.657 -27.0911 13.7685 58 39 18
52.46 29.4207 8.93561 109 68 34
-35.6903 10.2134 -14.4261 51 45 33
13.3853 24.5258 -1.67604 88 57 28
9.97334 -30.8215 -14.2952 53 38 17
-40.1571 -6.54684 -12.8393 126 94 45
-54.9724 12.5822 4.05373 60 41 20
-43.6333 14.6881 10.425 54 36 16
19.5549 -33.856 -17.1147 67 52 21
33.5195 -0.674088 -11.2023 104 107 75
18.1926 14.2738 -10.4012 74 55 37
-60.7056 -5.17963 2.48413 53 36 19
59.7622 7.60857 -11.9253 137 147 110
-37.3885 -33.3706 14.7351 25 21 14
-47.1656 8.99638 -2.933 43 35 19
-29.2142 23.419 -3.5778 78 51 24
-45.9782 9.16597 -8.38802 62 45 25
-14.5974 5.40531 12.4097 58 47 23
21.9632 17.3987 -11.8074 76 56 34
64.6925 4.97805 -5.17868 160 160 119
9.8779 15.8488 -11.1814 147 108 47
76.4431 9.97087 -2.36959 43 41 24
49.1768 20.9374 -12.8925 63 39 18
-39.1644 3.02631 15.2876 37 28 15
38.0501 19.0906 8.95279 61 39 19
-58.5383 -9.80077 1.92342 55 43 18
17.4133 14.2761 -10.1592 78 60 34
-43.1453 20.2074 6.5836 66 42 20
11.7296 -8.60843 -15.331 122 105 55
-25.7313 1.9382 -11.2436 84 84 55
69.112 17.6679 -8.038 133 129 75
-46.6036 8.34175 8.83895 43 39 23
-30.5209 -12.1057 14.7984 17 17 15
-38.4656 -3.489 -13.1229 58 47 32
-53.747 -6.95493 -3.43859 56 58 49
13.3552 21.7629 -6.65065 47 41 36
-35.3969 -32.2233 15.6922 36 27 17
24.9055 25.488 1.49211 56 36 17
-17.0528 8.02115 -14.0535 42 40 35
-80.5493 -17.781 1.4593 20 18 14
12.8065 -25.592 -11.9068 64 52 20
66.0562 7.43722 8.43546 57 47 27
36.7122 -30.3089 11.3105 49 37 20
-36.5348 -7.63984 5.04051 136 125 67
24.6349 23.1502 10.6779 48 34 18
-70.6364 -15.9463 -3.87012 23 19 16
-46.6092 18.5843 -0.852247 139 99 63
57.1983 22.2193 11.8417 61 39 18
28.2358 -22.3642 6.80116 161 154 84
-45.6772 7.2105 10.101 52 37 19
-37.2045 6.8481 16.1912 29 23 15
21.5861 -17.1648 6.49814 170 162 90
31.1773 13.3632 -13.6203 125 104 70
56.9905 27.8282 4.60975 28 21 15
-47.9951 -0.684788 4.57692 56 46 23
-48.3116 -20.7118 -7.83545 121 116 62
-29.376 18.9366 -11.3282 128 83 39
-48.3063 5.83563 5.7746 52 48 27
-62.9744 -12.3929 0.721069 48 34 19
7.39476 -25.1898 -17.0739 96 66 32
17.1413 -20.0351 -15.452 157 127 60
-31.327 10.0203 16.3243 30 24 16
-42.1856 -14.0069 10.005 32 33 28
-10.2708 4.03658 13.7616 35 29 16
5.88252 7.44926 14.8181 21 18 15
16.7114 23.3606 4.56061 59 38 18
10.9978 -10.9656 9.59084 69 68 40
8.54289 -2.39221 -11.8674 147 145 84
-47.7645 8.50542 6.87103 48 44 22
-61.6713 -13.8481 0.505997 51 40 19
70.355 18.3356 -4.82561 81 78 53
0.577637 -8.3201 -13.6926 148 134 77
-63.6109 -11.9087 0.689621 43 30 16
-52.6569 16.4654 3.36971 54 36 18
45.0219 0.0170584 -5.42679 89 93 69
-32.4563 -15.6833 6.77617 166 159 89
8.0843 -0.756538 -12.346 140 138 78
-76.1041 -21.7305 -6.01665 132 92 47
-0.0517731 24.7236 3.27159 64 41 19
-15.4521 3.04262 11.6273 35 29 17
-39.3627 -20.0464 8.21017 123 85 38
-26.3219 -14.0726 11.1748 71 71 41
-20.961 13.0682 13.8626 34 30 20
-37.0181 20.0843 11.428 60 38 18
26.6828 -4.48613 -13.1622 122 129 89
-53.9352 -2.57597 3.81557 60 53 27
4.14592 -10.0141 -12.7112 146 132 73
55.3953 13.1065 -15.2262 141 115 58
-38.3082 -7.23329 -12.8466 139 115 55
57.163 1.04706 -6.37698 101 112 83
-30.0928 -32.1113 8.94044 138 108 47
59.4225 27.2808 3.91993 25 19 15
66.1552 16.8235 -10.8517 99 83 48
-23.6676 5.66991 -11.9731 45 44 38
7.79453 13.8907 -12.184 114 102 67
-36.7244 15.4963 14.8766 59 40 20
-40.951 20.8613 7.543 61 40 18
-5.85793 9.28695 -15.5976 71 65 40
11.3426 -0.942207 12.5931 65 60 28
72.1166 13.1604 7.97256 60 40 20
37.4386 -1.58789 -8.91292 132 139 97
-57.6924 -30.7497 -8.03943 115 90 38
31.888 9.88097 13.8303 17 17 14
-61.1781 -8.62617 1.8027 54 37 18
-56.7287 -1.68002 4.17703 56 43 21
55.2766 17.3014 -15.1962 118 107 60
-32.125 -14.0028 6.37746 180 171 100
-44.8413 -5.05251 5.32611 68 60 30
3.63312 -5.52359 -13.2785 147 140 78
-5.79453 25.995 -0.337387 63 45 23
-62.2671 -11.2845 1.05714 47 35 18
-69.1788 -24.2184 -5.96106 129 115 57
67.1901 24.0928 4.12337 54 36 18
-21.8049 18.0779 13.3205 23 19 15
65.8278 -0.349724 5.72589 66 61 35
-33.0526 22.988 7.77656 32 24 14
-32.0392 -8.48219 4.62425 175 175 104
49.6799 24.7327 -8.97557 136 84 36
66.2262 5.00825 -5.14635 145 107 95
49.832 27.7323 12.0743 50 32 18
67.3607 3.12065 6.46511 50 26 18
-34.1587 12.058 16.2463 52 38 18
21.1618 -23.6135 10.0782 116 86 42
-39.1167 0.0438232 -12.5712 127 97 46
-9.81152 3.19908 13.7097 46 39 19
66.2061 6.81662 -5.32572 108 62 62
12.6094 6.43016 13.3454 26 23 15
57.1082 0.646679 -5.61095 108 117 90
33.6568 24.4608 4.59293 60 37 19
-44.9745 -2.69981 9.5462 61 57 34
66.3816 24.9966 2.15814 60 42 23
39.3134 -31.1225 12.1831 61 39 18
-17.0678 -4.20985 9.75392 65 55 30
-38.7103 6.00375 -13.8381 77 61 32
50.7665 29.9392 0.255909 59 39 20
-12.7668 1.65821 12.1209 56 47 25
-5.1244 19.2366 -11.6759 61 47 38
-57.4304 -23.0969 -4.15912 58 46 23
-38.7426 11.8038 15.3872 26 23 17
-23.5177 -9.15002 10.7493 63 61 33
60.0567 28.7834 -1.85771 52 40 25
-39.0986 19.5391 11.2116 56 39 21
-47.5462 -6.15657 -9.05599 89 76 43
-31.5533 4.05975 16.459 62 46 19
27.9725 -31.9102 12.6374 54 40 17
29.3529 12.8234 -14.3413 138 110 48
6.56857 22.5958 -5.78349 58 42 28
24.9454 -9.2629 -10.4907 61 64 45
69.9779 21.0281 -0.105118 104 73 32
-39.796 4.50677 15.2283 53 37 18
49.2041 4.51797 -13.6013 111 98 55
48.9766 3.90184 13.6902 64 58 35
41.4306 17.2425 -9.97057 188 146 79
-10.8252 5.67962 13.9774 37 30 16
-43.7404 -2.58637 -10.4974 66 51 35
48.9458 8.57404 -15.2017 118 97 54
-27.4872 7.00619 15.957 30 28 20
7.9966 -29.8117 -18.956 126 79 37
-54.8705 -3.74847 -2.83828 146 103 41
50.9989 26.0924 6.12257 69 44 21
-36.7535 -3.25664 -13.1149 117 103 50
-65.1743 -31.1371 -9.27035 104 70 36
-9.57928 0.0121136 -14.8002 146 120 65
-21.3459 17.1622 -12.5579 127 96 45
-31.0079 -9.53126 5.03201 187 187 116
62.5758 22.0853 10.0337 23 22 15
-33.3613 -5.00657 -12.0773 139 142 97
-61.3504 -16.0266 -7.30427 70 57 26
-22.7334 -7.68301 10.3622 66 64 39
29.4612 -1.40407 -13.0423 123 124 80
68.3096 -0.971505 -1.17549 106 110 77
67.2864 17.1685 -9.83844 138 125 71
-51.1058 -9.57249 -8.23953 159 112 51
51.4432 25.5976 -15.4214 126 97 50
-0.322845 -10.6014 -12.9864 153 150 92
-11.651 8.03821 13.9319 45 35 20
69.4931 0.917381 -1.40187 81 54 40
25.486 -18.0881 6.73038 167 159 84
-35.9556 -17.0629 6.78696 159 130 54
49.5933 28.6872 -4.26122 106 68 32
51.1663 18.2091 14.6509 58 36 17
-50.8377 -14.0121 -9.47122 132 88 41
-10.9458 8.38663 14.1754 53 41 19
-28.2119 22.4626 -6.53346 55 46 28
-32.6018 13.208 -14.3026 78 62 35
-54.724 9.97282 5.01967 55 37 17
-46.5367 17.0855 6.80711 60 38 17
-17.5272 22.0511 -9.65413 113 79 37
55.2113 4.50557 -13.132 115 121 90
-42.2036 -2.5217 -11.2285 136 91 41
54.5196 7.23572 13.0639 69 62 31
-43.4515 3.56506 -11.0058 144 94 41
35.9446 -29.6074 11.0057 28 26 21
34.4918 10.0455 -12.0037 130 121 66
30.7374 -8.61262 9.69706 86 81 45
44.9337 22.5697 7.30104 67 43 21
-50.3026 -15.4801 -3.62366 58 42 20
-68.9988 -18.8606 -6.41381 139 91 42
-30.5505 -2.01659 14.6107 48 41 24
13.8923 -16.772 -16.9061 145 112 45
-8.76129 24.7089 -3.11823 96 67 32
18.3863 -3.27537 -15.4717 124 114 60
-59.8932 -25.6867 -3.89603 56 39 18
-2.3427 18.9682 12.499 64 44 22
-23.8035 24.7686 4.04454 63 42 19
-62.3419 -17.3146 -0.982162 48 43 22
-30.8791 -6.17512 14.2109 51 37 20
13.1973 3.73992 -11.5771 133 95 43
-26.2465 6.47187 -12.841 99 96 64
-44.5084 -18.9523 -7.3548 54 53 29
69.6071 -0.655508 1.12611 64 40 28
70.2468 18.3002 -6.0268 29 27 20
-38.1916 19.8785 -7.70426 75 52 31
74.7211 9.78956 7.01212 68 54 24
-58.062 2.39675 3.92332 53 35 17
-38.9249 10.0061 15.4178 30 24 16
-79.9774 -15.1497 -1.84042 56 47 23
9.15665 4.98604 14.2586 59 44 20
25.4196 25.6645 2.17022 64 42 20
-11.9551 1.8206 -14.4418 146 118 57
-13.8033 1.50299 -13.5922 87 84 51
54.6481 28.5394 9.56396 48 33 17
47.3493 29.3989 0.485027 64 41 20
-43.626 -0.877609 11.7221 53 44 21
34.8465 -31.0508 13.4389 58 37 16
-3.20401 8.92922 -15.5358 97 77 48
1.78923 6.02483 15.3486 21 20 15
-34.3964 15.3508 15.3255 32 26 17
-32.0214 -11.8639 14.7018 18 16 12
-59.5861 -11.6995 1.29317 54 41 21
-64.8882 -11.2 -1.22972 36 27 15
15.9616 -14.7827 9.57198 107 95 54
-9.64819 22.152 -9.0114 43 34 30
-31.877 23.9109 3.49088 65 43 20
-60.7992 -33.266 -11.7667 121 86 44
2.74112 17.5256 -11.8952 134 93 41
9.72195 -27.7936 -19.1443 154 110 50
-46.3366 -9.58387 -2.91072 59 43 18
33.8137 0.601341 10.8725 67 59 28
30.7071 -2.48805 -11.5697 142 149 106
10.957 -16.8777 -17.0554 154 100 46
-35.7402 21.6815 -5.96463 26 26 21
-55.2403 -26.7588 -7.38191 74 68 41
-57.1008 -9.30925 1.90941 62 53 26
-27.0856 -12.1824 14.1443 64 56 26
-10.2378 24.8814 4.30934 50 35 18
58.458 1.60457 -5.34622 123 132 100
0.226288 5.21287 -15.963 63 59 41
54.5046 28.3675 4.03651 68 45 21
-39.798 20.8842 8.33653 56 38 21
-32.663 -23.4068 12.6009 56 46 19
-47.5778 16.4728 6.69057 59 38 16
-27.909 -31.3007 8.72479 155 107 47
-44.8706 16.0992 7.99529 53 35 15
-35.1872 -29.8882 9.17313 144 105 45
75.4848 18.0213 0.740463 32 29 24
17.1261 -23.261 -15.9095 148 128 61
8.65622 18.9335 -10.0158 139 95 45
27.2333 25.2538 -8.07901 101 66 32
-30.9238 -28.4879 9.96867 133 105 42
-38.7779 20.9706 9.50444 42 33 20
-56.7598 -15.3811 -4.53903 59 39 17
24.0539 4.10069 14.1324 40 33 18
-35.4606 12.4814 15.9356 62 42 18
57.3907 23.7377 11.2292 62 39 18
59.5636 4.19785 -8.70534 97 106 79
-18.7453 21.8278 11.2013 64 42 19
38.9436 -2.23076 -6.8175 106 112 82
25.2872 -3.15107 -15.0108 31 33 30
-27.0021 22.9855 -5.37384 41 32 19
-42.6751 -0.377533 -10.8265 141 103 44
-10.1995 7.58581 14.3554 45 35 19
-86.4926 -16.5405 -0.348236 36 30 20
74.4138 8.31029 -0.581816 65 59 47
-61.1001 -12.8823 -5.34195 151 110 51
-85.0065 -19.2537 -2.71024 117 84 39
-34.8642 -3.75785 13.9286 60 56 30
-39.5305 -20.8562 8.37936 131 100 45
-5.0346 8.29226 15.0449 40 31 17
-81.1901 -14.7379 -2.03631 90 70 31
-60.5137 -1.40004 1.79479 43 30 16
-55.0224 -16.0263 -4.31046 55 37 17
-41.3252 18.5603 -7.03721 83 54 28
-63.4026 -18.4044 -1.37398 46 41 22
64.6839 26.0979 -0.925564 24 21 17
-51.1374 4.73922 5.64499 60 46 19
-20.8801 25.6447 1.32271 59 40 18
-4.12607 -1.19066 -15.0984 142 143 92
-6.90539 17.7834 -12.3916 145 103 49
56.2383 5.80616 -12.8763 147 159 122
-26.5147 -1.22113 14.2788 46 41 24
69.3934 3.00045 -1.26331 61 33 29
68.6125 1.25074 5.77073 55 29 17
-26.4755 -4.00163 -8.69749 115 121 82
-1.33574 25.8939 0.794331 54 37 18
-33.846 22.4898 -5.02397 51 38 23
8.69841 -29.7961 -14.901 47 35 17
-6.22636 -4.21693 -14.0706 151 143 76
-55.3703 -2.28173 4.07404 57 40 18
48.9962 25.6187 -7.87662 120 77 36
21.0315 -8.08635 12.9776 58 42 20
35.5932 -30.0357 12.188 50 34 18
26.348 -12.2719 6.37019 123 123 73
-5.5132 14.3557 -13.8587 129 96 43
-33.3014 2.41362 16.082 33 32 23
-3.71185 25.0657 2.96175 58 38 17
8.4649 -3.92595 -11.7915 169 152 87
-53.5863 -0.659607 4.33345 59 51 24
-51.5815 9.71448 -0.380508 167 111 47
-46.7891 14.0397 7.04535 58 42 16
-3.01456 8.12614 15.315 30 24 17
69.8182 7.40616 2.47311 114 85 79
-34.668 -9.73254 5.29019 176 174 106
-13.8223 25.5993 -0.883133 83 55 27
-62.946 -27.8767 -4.02583 30 24 16
-25.9213 -13.5386 11.5407 61 59 30
-83.5303 -11.9783 0.909531 18 17 14
61.5528 21.9644 10.3242 25 22 16
-34.6801 23.7384 3.56783 65 39 18
-30.8484 -11.1785 5.66721 180 175 105
43.3146 24.2249 -7.27269 132 85 41
-12.1905 2.47575 12.6225 55 43 21
-28.251 0.171471 -11.5409 82 81 62
-38.8888 3.64496 -12.8696 68 60 43
12.3103 -20.2817 -18.0455 137 113 53
-15.049 6.2336 12.4852 59 50 24
14.0323 -27.1259 -16.8085 172 143 67
39.7664 17.3484 -10.1543 157 110 50
73.3936 16.3538 4.36107 67 42 21
-32.5983 -25.9688 13.2089 57 40 17
-19.0624 25.4816 0.0162163 68 44 21
33.9574 18.0278 10.4822 59 38 17
-19.1573 10.8435 -13.279 120 93 48
-22.9836 22.771 -7.06692 41 33 26
-42.2389 16.1413 11.2647 46 32 17
10.124 -5.4033 11.3876 64 55 27
-23.0637 -3.03701 11.7023 69 63 36
51.9971 24.9822 10.7342 63 43 19
-64.2728 -23.8233 -4.66202 33 25 16
-22.1515 6.17455 -12.2434 142 120 59
2.0052 -7.92392 -13.4381 149 134 76
-29.1927 2.20901 -12.7334 51 53 44
-49.9064 -21.3251 -8.1528 131 122 64
-30.5222 1.18476 15.6308 60 52 27
-36.7199 20.6374 10.688 62 39 19
61.092 20.6137 11.0044 33 23 16
62.4345 20.279 -11.2791 143 98 45
-28.2838 19.877 -10.6966 129 87 40
-17.1632 22.0817 11.2428 23 18 14
-25.2859 22.3145 -7.82812 86 63 35
-41.9903 5.58325 -12.1965 86 63 37
-52.1645 -4.11505 0.675583 36 37 30
44.721 6.41433 10.6091 65 52 25
-15.3085 24.2087 7.58779 41 29 18
-33.6953 -7.45406 4.1321 177 178 114
-61.5653 -22.1461 -10.0354 135 97 42
-8.44263 -8.08686 -12.4709 138 123 63
-42.154 7.85709 13.3325 49 35 20
-55.6528 6.59709 5.05762 54 35 16
-59.9166 -32.2493 -11.1401 120 78 36
56.452 29.7644 -2.42585 99 64 33
-3.8009 24.3103 5.99435 59 39 19
-38.7776 6.56009 15.5959 55 36 16
24.5101 -7.13349 -13.5784 131 141 100
-31.4342 9.97165 -14.8857 76 63 38
73.2191 17.955 -2.92422 140 95 41
34.6317 -7.16622 2.7842 65 66 43
-63.7866 -17.767 -0.916611 46 39 20
37.2457 -30.9611 7.50892 66 47 22
55.1981 28.8828 2.88315 62 38 18
21.0283 13.3899 -12.6689 141 97 42
54.7934 26.4022 -13.0554 64 51 25
51.6592 21.4259 -14.6202 153 143 71
74.8601 14.8219 -4.73888 126 87 40
-36.3076 0.546127 -13.5184 50 40 35
-54.0511 13.2869 4.61996 60 38 19
36.0624 24.0428 5.56117 20 17 14
-47.4721 13.0205 6.80232 59 40 17
9.43933 -11.8142 -15.5674 144 116 54
11.0093 22.3966 7.24434 59 37 16
26.0119 -17.5909 14.6504 63 41 18
52.8919 15.0252 -16.063 118 118 104
-14.2808 25.8172 -0.18219 75 49 23
-49.1199 12.4155 6.38252 63 41 19
-62.036 -33.6557 -3.67526 29 24 16
-84.2432 -15.0921 1.68159 25 24 16
-40.0431 -24.0232 14.8203 43 29 17
-50.6166 18.4111 4.23535 64 41 20
22.293 23.35 9.30304 61 40 19
-32.0443 19.2951 13.4424 63 40 19
-56.7927 -6.41329 2.98468 61 48 23
5.41493 19.5614 -10.097 58 49 34
36.3968 -30.3973 7.97287 45 40 25
-13.06 25.9807 0.394642 56 39 19
-63.0865 -16.5847 -0.453354 50 43 21
10.7887 -28.5385 -12.9767 58 42 19
-8.98997 5.55988 -15.9096 51 45 34
-53.0843 -4.75052 -4.29424 33 34 27
63.1085 10.9165 12.7813 27 22 16
61.9363 3.34191 -5.0307 153 165 128
-36.9406 5.44133 16.2993 50 36 19
-17.1359 13.3218 -13.9096 138 101 47
-39.2446 -30.4815 13.4012 32 26 16
-26.6352 -30.6528 9.48861 101 68 34
17.531 10.4102 12.3928 50 39 22
-4.64911 -9.63635 -12.8886 139 125 66
-33.4579 18.1488 14.1335 50 35 20
-32.8497 10.9284 16.5099 31 26 18
40.4801 -31.8699 9.55654 84 57 28
24.9688 10.5255 -14.5068 130 100 46
30.0653 24.2498 7.81356 59 37 18
47.8388 25.2212 -7.69049 128 79 36
-25.1371 -9.54556 13.0488 46 42 23
-27.5797 23.3992 7.55756 61 39 17
-26.7495 -34.2991 15.0483 66 48 24
4.60106 1.95893 -14.3935 137 125 58
5.39636 18.987 -10.6348 62 48 36
63.5868 5.35342 -5.40956 161 168 130
24.9626 -9.09928 -11.5687 70 72 48
-64.4398 -30.486 -9.59662 111 76 34
57.4484 2.36817 -8.40516 112 122 97
-51.0243 -3.13319 -3.8578 23 22 17
61.6591 13.4622 -13.14 150 142 95
60.1356 21.9933 10.4708 50 35 20
-79.6983 -23.6968 -0.714478 57 52 27
62.9916 0.522125 -3.1615 143 153 103
-36.1957 14.4883 15.2543 60 40 20
-51.9874 -18.2733 -10.1657 139 100 44
14.1288 24.8727 -0.682123 52 38 19
17.2729 23.9261 1.79005 57 40 19
-49.4047 4.06062 -4.12889 41 42 35
-65.2615 -18.5361 -6.7966 144 123 59
48.6248 29.5473 1.13233 65 41 20
-59.4984 -31.1936 -10.0249 133 99 40
-66.841 -16.6463 -0.60939 33 25 15
-38.2355 10.9937 15.5748 24 19 15
-23.3312 25.4697 1.29816 58 39 18
-30.5268 7.93462 -14.7357 64 59 38
38.9517 17.8809 9.2624 62 39 17
7.81903 8.66691 -13.2166 53 55 45
50.9091 24.3041 -11.3121 58 36 18
-24.2329 23.4723 -4.79466 68 48 24
24.9202 -9.44486 -9.12328 70 73 52
13.433 22.9909 5.64318 60 38 17
-50.7307 7.26313 6.028 59 38 17
-2.73764 12.463 -14.1955 50 42 30
36.3145 12.083 11.3983 55 41 20
-7.41631 5.21992 -16.0579 138 112 53
18.4705 -12.6933 -14.196 78 69 48
68.7684 15.9718 7.11909 45 37 19
-56.9392 5.57177 4.48207 54 34 16
-20.2865 24.7474 4.48656 37 27 16
53.165 5.25986 -14.5599 154 159 104
26.9248 4.72563 -14.5707 133 117 61
37.101 26.2705 -0.351624 55 34 16
-58.7627 3.68024 2.98929 47 31 15
-23.0964 -1.09879 -10.2127 144 127 72
-42.1912 17.864 9.73553 61 40 19
24.7361 -30.5242 10.4337 63 61 50
-54.2992 -0.130745 4.55408 60 45 21
60.9777 24.2662 8.03793 60 38 18
-35.1001 2.26754 -13.7499 136 115 58
70.5606 4.65896 4.15422 51 26 25
-40.8934 13.2638 13.4693 52 35 19
43.8566 -0.47661 -4.7373 83 88 65
11.8815 -6.159 -14.8104 52 43 32
0.0573349 9.71564 15.3018 37 31 19
-28.9027 -12.8426 14.6349 54 46 22
39.0088 13.3617 10.074 64 43 20
25.5438 -15.254 6.64416 177 174 99
51.5847 28.7106 3.46886 68 43 17
5.02661 21.5889 8.8935 41 28 17
-35.2618 10.7853 16.1877 60 42 19
45.2436 6.66086 -11.0391 151 143 84
-25.8459 -37.0519 8.64867 111 86 43
50.9657 13.9878 -16.0849 137 113 58
22.8665 20.9935 -10.8023 50 43 33
-41.2394 19.4161 9.23311 56 36 17
-36.3491 9.85709 16.1224 47 35 17
-52.3266 -13.6499 -4.024 57 39 16
44.6793 -0.622381 -1.3577 82 88 66
-41.0176 1.62045 14.319 51 36 15
1.18974 10.6776 14.8932 16 16 15
-31.1548 23.6593 -2.33119 83 57 29
-23.2757 -7.78751 11.2985 64 59 30
-43.1098 9.84393 -10.9221 39 34 31
30.4398 4.96314 -14.1138 59 63 49
8.69975 2.86658 -12.5056 63 63 55
-44.0859 7.37851 11.7057 54 35 16
-60.0418 0.222023 1.39565 44 30 16
12.6771 2.77777 -11.633 150 112 52
37.6739 -3.11753 -7.0157 102 112 79
65.1261 25.4898 1.55143 51 35 17
28.7091 3.57807 13.7445 43 36 20
53.2618 23.1634 -13.2366 166 161 98
30.3436 25.3049 0.760605 68 43 19
-37.4135 8.91948 16.0102 19 19 14
56.9845 27.9733 -6.53271 109 68 34
-85.3283 -14.2613 1.40109 17 16 15
63.096 16.0531 12.8973 49 34 19
69.6689 2.56793 4.15639 42 24 21
23.8194 24.3311 -7.53137 36 29 22
-32.1233 -7.36829 3.89427 169 172 108
26.3175 11.6651 14.1702 45 33 16
-50.9143 -20.0996 -9.59003 140 129 65
53.113 24.4939 -13.9291 123 124 85
-31.8497 7.86027 -14.9379 79 76 50
16.1451 4.5138 -13.4537 137 103 48
-40.2538 -27.9818 12.7193 29 28 20
-60.8711 -27.2287 -10.2562 130 96 44
-1.20641 -7.14012 12.0952 62 54 28
-48.8246 18.4445 5.46678 63 39 18
-38.4273 7.59132 15.7249 56 40 19
-40.4003 -13.5944 -5.82092 70 68 36
-26.5515 18.8716 13.6323 63 39 19
58.8748 2.55508 -6.40498 119 127 103
-59.6948 -5.4534 -2.92075 133 82 39
5.09882 13.6421 -13.2614 149 126 76
-60.5025 -3.69843 -1.59882 95 70 46
40.2252 15.7827 9.72302 63 41 19
0.256439 11.1624 14.9378 20 20 17
50.6273 25.4543 -8.79883 120 79 38
-2.36368 23.2824 -7.73922 102 83 46
71.6309 19.3619 2.4604 50 34 19
-27.9334 -0.513916 -11.1397 113 117 86
-11.8826 25.9373 -0.14764 67 44 22
-35.417 19.1311 12.7797 43 32 19
42.186 7.89392 10.1387 63 49 25
68.3146 22.4817 -4.18803 46 35 19
24.7194 24.6153 -7.45099 55 44 29
15.949 22.7878 -5.85623 84 56 30
-13.5234 15.9248 -13.4565 134 101 50
66.9701 4.83587 6.88481 46 26 23
-38.1093 12.664 15.4205 20 18 16
6.52658 0.231125 -13.3543 142 133 72
57.9063 7.73872 12.6193 67 56 29
17.0765 -13.2591 12.462 52 39 17
64.644 16.6353 -11.9845 143 109 47
65.9462 20.1777 9.94664 31 26 18
19.1094 -34.9568 -17.1172 67 53 22
22.6658 -18.5928 6.85213 171 167 100
-16.749 25.4964 3.07561 64 41 19
73.3222 18.9698 0.0482216 52 38 26
-60.8781 -32.0953 -5.07027 54 37 21
-42.7283 3.7467 13.4056 48 33 16
-34.3943 -9.21352 -10.3037 119 120 79
28.5051 22.6004 -10.7448 126 80 36
24.0193 -13.3282 5.28969 161 165 106
-44.7381 -15.4029 -10.7516 155 147 77
66.5232 23.9516 -3.22786 48 34 18
25.9005 -22.9438 6.90991 158 139 69
-61.5722 -31.0092 -4.8632 39 29 18
12.3238 -3.40685 11.5534 64 58 29
26.7223 4.19907 14.012 58 45 22
-48.7139 14.1407 6.54675 59 37 17
50.2964 29.3372 11.4281 53 35 18
53.0787 27.9168 -6.87129 106 68 32
-34.2052 -1.1803 -13.5134 51 49 35
-50.7347 15.8917 5.59637 59 37 17
-43.999 18.2064 7.80835 54 37 17
-23.2327 -34.0659 8.75722 112 82 34
-50.0426 13.5264 6.24239 59 38 16
77.0733 10.5915 3.77147 59 45 22
-30.9668 -7.86577 4.14941 174 175 106
11.8289 23.1473 -5.22951 110 74 32
73.3294 14.5377 6.64801 59 38 18
-26.5403 -35.3605 7.79794 136 95 46
-25.1842 -31.5583 12.7979 44 31 16
-15.1166 23.4187 -8.00121 101 67 32
-73.3603 -24.297 -2.2164 54 48 23
47.2015 6.03363 12.2978 66 57 31
-32.1175 -24.7273 9.5424 130 118 49
56.3604 26.3486 9.12347 57 40 17
-19.5225 25.5406 1.99376 66 42 19
19.2217 -17.6907 -11.8432 49 48 29
-17.9943 16.4408 -13.023 129 91 41
-51.0375 -5.68242 -7.95578 135 85 40
6.34293 -0.833366 -13.2763 140 134 72
-41.8331 15.1193 12.2561 18 16 14
24.152 -11.9743 -2.10786 86 90 59
-13.4931 2.33825 -13.9865 132 106 54
-77.3345 -18.7393 -0.0890045 15 15 14
-55.6315 -33.243 -10.297 52 33 15
25.4052 25.5963 0.740772 60 39 20
-56.105 -16.2805 -4.49097 57 38 17
68.9823 22.1941 -6.29045 31 27 19
-39.9582 8.6995 15.1968 48 34 17
30.1512 -17.5241 8.30943 153 137 73
23.6445 25.6591 -0.672039 58 39 18
57.4377 25.7347 9.50638 62 37 16
53.6113 28.5443 -5.90385 95 60 30
-9.51028 10.198 14.6046 19 17 13
8.52011 6.42594 -12.7895 54 55 45
-1.21255 12.8908 -14.0882 143 109 54
-37.273 10.9416 15.8485 30 25 15
-53.0187 -16.9164 -9.91806 138 91 41
-35.5143 1.63678 16.0225 56 49 26
-54.1586 -5.4628 -6.40739 48 50 41
45.4948 5.15941 -10.847 152 141 84
29.4465 19.1634 12.9648 64 41 18
-11.1631 22.2915 -9.26931 83 61 34
3.18378 20.2263 10.744 25 21 15
9.38755 12.1074 -12.0145 147 130 59
18.0933 23.5442 5.15147 30 24 16
-55.6328 1.58791 4.87724 57 43 19
40.905 14.4435 9.70784 66 44 18
33.4821 -26.0964 8.80402 151 123 56
-66.8623 -23.2909 -3.77359 49 44 25
69.2155 5.04375 6.41563 55 32 28
28.7219 -7.09055 13.4405 61 51 25
8.00105 -33.5737 -19.196 87 61 28
-28.7487 18.1149 14.3049 27 21 18
-28.8688 5.62543 -13.7063 105 88 53
25.2433 1.35926 -15.4858 143 118 59
-14.0892 24.402 7.88207 16 16 14
0.344643 9.85155 -15.0001 143 109 52
25.0271 -30.8163 11.4476 49 41 21
69.5565 20.2313 -7.45189 59 57 38
-36.624 5.69894 -14.2237 137 111 48
-44.117 -6.94121 -11.1639 128 86 39
73.4128 9.53581 -5.97713 163 167 114
-47.6864 15.1196 6.78343 63 39 18
-48.8463 11.3429 6.40044 61 41 18
-53.4014 10.9483 5.41273 60 38 17
16.2152 20.1257 -8.13565 137 97 42
69.5915 5.32487 -2.31829 54 31 24
61.7126 26.071 -5.69698 86 60 32
78.0433 15.2899 -0.439938 33 29 20
71.7147 15.0263 6.63397 61 40 19
-0.621948 12.0051 14.8938 32 25 17
-33.3954 16.8753 14.7673 39 28 17
4.44579 -11.331 10.6901 64 61 36
-42.8421 10.2085 12.6096 51 34 15
-66.6475 -20.0732 -1.45833 53 44 22
-1.08154 0.297467 -15.3764 144 129 75
-55.118 -13.7888 -4.77328 58 37 16
-57.3918 -31.4161 -5.40279 49 32 18
-43.2823 11.5197 12.0319 40 28 15
16.0269 5.12156 12.7426 62 50 23
24.4355 -5.79418 -14.3321 135 141 102
57.8934 27.2216 5.7863 52 35 18
-74.6558 -21.8323 -0.696793 41 33 20
-56.7787 -10.2922 -4.08363 128 110 57
70.4853 9.02465 7.58075 62 57 35
-51.0846 0.808517 -1.21402 76 79 63
-35.5674 3.13509 16.2842 49 36 19
63.861 26.3543 0.851261 27 22 15
63.4126 25.0847 -6.20891 58 42 21
28.5773 -32.2129 8.98972 138 97 40
-55.0099 -1.17323 4.33275 60 46 22
-1.04265 -9.13849 11.6483 63 55 27
-33.1356 22.9945 -3.23207 41 30 21
15.8 17.393 -9.20131 148 109 44
