ply
format ascii 1.0
comment Created by Open3D
element vertex 1375
property double x
property double y
property double z
property uchar red
property uchar green
property uchar blue
end_header
11.6217 14.3842 12.7093 61 43 23
-26.1162 -12.6208 9.4146 111 111 68
-24.4199 6.014 -12.1473 58 55 41
38.3127 11.7527 10.3884 23 20 16
-23.6426 18.5883 -11.8945 134 95 44
-34.1729 -21.8494 7.63797 142 126 62
-83.1701 -17.9077 1.62015 28 28 18
52.3783 -1.13193 0.702545 84 86 56
32.8044 -0.259613 11.2439 69 66 36
18.3383 -35.1583 -19.1964 107 113 79
-40.8966 -13.0942 -4.77061 70 68 39
24.5506 -26.2869 8.60419 131 101 43
-63.4602 -8.63344 -0.830147 41 28 17
-47.6829 -2.85499 -3.34354 63 49 19
-33.0773 -12.0863 5.77069 179 178 101
18.1226 -17.9308 -11.3317 69 66 33
-31.902 -31.3877 9.35388 140 101 42
-36.413 4.52171 -13.9882 139 126 69
6.21179 -15.3076 -13.7454 81 68 33
9.70127 12.712 -11.8881 148 128 61
-53.1808 1.86197 5.11435 59 46 21
-53.1748 4.43923 -1.28256 158 106 48
57.918 0.755518 -4.54098 97 103 79
-37.1465 -1.62067 -13.1931 137 111 53
52.759 1.73501 11.3261 69 63 41
-0.0395508 -0.849471 14.2401 61 57 34
-28.4528 17.7663 14.4603 22 20 16
-62.2049 -5.55066 0.294701 44 30 16
54.0365 28.5023 3.84428 71 46 20
-11.257 13.193 14.2772 40 31 18
-57.2979 -27.568 -5.60614 48 40 23
68.9756 2.49781 5.07803 45 24 20
7.86992 13.3163 13.6578 62 41 18
28.084 3.65318 13.9041 56 45 20
-20.3815 -2.33047 10.5918 64 53 24
49.2674 27.5687 10.2352 64 42 22
30.1685 22.3715 10.2363 55 35 14
31.5746 3.13177 12.9524 61 52 27
56.16 28.8738 -4.9826 97 60 30
-24.7849 17.152 14.1618 35 29 19
16.725 -16.9909 -15.0266 153 128 56
13.9749 -12.7139 10.62 67 61 32
30.5375 -16.5652 10.4966 37 34 19
73.8186 7.51813 3.62677 67 39 38
18.3696 12.3704 12.0362 62 43 20
75.5001 9.49278 0.572586 72 66 45
-34.4192 -35.7501 11.4765 127 89 42
15.0498 -31.8384 -20.4646 61 40 19
-57.4213 -16.2018 -8.72237 146 90 41
-61.1566 -27.9579 -4.27022 51 39 20
-60.5877 -19.3458 -3.38141 43 30 18
22.3759 -26.3326 11.5902 50 41 23
38.575 -32.4145 15.0346 56 35 16
63.1371 8.52594 -11.0706 130 137 103
9.22137 22.9252 -5.33745 47 35 22
-11.503 16.8979 13.6294 21 21 16
5.71581 -11.9934 -11.092 112 104 59
-66.3488 -35.0004 -8.33441 53 39 26
27.6821 -10.8474 1.50563 65 67 42
11.2389 -31.3067 -20.4904 127 89 41
-51.8191 -19.7911 -4.45476 64 56 28
-34.7803 4.48088 16.4111 18 17 13
-46.1746 0.756649 8.80199 62 59 37
34.4887 18.7126 -10.3728 92 67 39
-69.3725 -15.5213 -3.06119 23 20 16
65.0174 5.79503 7.89961 53 37 22
-24.9445 22.4336 10.6277 67 44 20
57.8265 6.67969 12.0961 66 59 34
3.6873 -1.82039 -13.9712 140 130 75
65.8534 19.1583 9.97096 42 32 17
-44.3454 -0.349898 11.1305 49 40 19
33.2514 -34.8356 6.18385 120 81 38
76.1348 9.1785 5.19383 63 54 28
17.8086 -18.1827 9.34227 98 88 48
-54.0344 -17.1573 -9.80183 140 90 42
14.0105 5.88363 -11.2665 115 82 44
-3.57425 22.6499 -8.46185 69 50 28
-27.1606 -35.691 8.19437 141 95 45
68.6074 18.2332 -8.67986 158 158 109
-28.8289 9.49714 16.2297 37 32 21
72.1058 18.6188 -2.68013 119 78 35
-26.7495 24.2913 4.92049 62 41 19
-36.3266 -34.8345 14.1053 26 23 17
64.2965 22.4692 9.23178 27 23 18
-42.2419 -7.48191 10.7383 45 40 24
-60.6883 -34.9495 -12.1219 114 80 46
-37.4542 -3.24834 13.8698 57 50 25
-20.9724 10.2932 13.6296 65 61 36
-37.0408 -19.2821 7.20613 141 105 47
-6.09417 25.7471 1.44092 58 38 18
-52.804 6.79579 5.94434 57 39 18
8.90118 -24.9622 -13.3076 55 42 17
18.9494 -32.1505 -14.263 49 39 18
41.8878 17.1856 9.19214 68 41 19
9.89406 8.81341 -11.7214 144 131 74
47.766 13.8026 -12.5617 130 94 43
-1.31626 23.9122 -6.03772 44 35 24
-24.5121 -6.86311 12.7982 61 50 22
-62.7292 -17.1426 -0.732025 48 41 21
40.347 15.1428 -10.4663 166 121 57
27.5075 8.85178 -14.7607 118 104 63
-38.338 -28.6181 10.0274 130 96 45
-53.0706 -3.31402 2.9879 53 50 31
-50.6285 17.5299 4.89127 60 37 18
18.0754 23.6314 4.01768 57 37 17
-81.5544 -19.9932 1.52145 37 36 23
-6.88094 21.2121 -9.94092 116 79 36
30.3486 -30.478 13.9096 54 38 16
-50.2983 0.909866 -5.72572 40 41 34
60.9694 22.9996 9.41184 60 41 20
41.4081 -33.9436 10.9872 70 52 23
-43.0011 3.72396 13.1638 48 34 17
-28.3494 -15.8657 9.90154 114 109 59
28.8131 -0.482803 -13.7589 138 123 63
-30.7997 -29.5859 13.4557 49 35 22
9.04837 -13.2092 -15.5953 148 105 44
7.92288 -10.1257 -13.8059 74 51 24
-71.3399 -24.7988 -5.63873 117 103 48
-55.4936 -12.738 -7.77287 135 93 51
-14.7195 -9.71092 -5.09715 96 94 54
-23.401 -32.3264 13.1504 54 37 17
51.0912 26.4236 11.4464 58 41 22
32.7722 -26.9473 8.01189 159 131 58
-35.6237 -27.5996 8.61966 152 116 50
-46.8008 21.6318 2.80827 61 40 20
68.6608 -0.778044 -1.01572 101 107 76
48.2228 23.3164 8.09029 63 39 19
-56.4433 4.81778 0.0305977 141 94 43
38.7099 0.269791 7.93401 71 71 47
-21.5497 21.3953 -9.98349 124 85 41
44.3156 25.8708 -5.38635 119 75 33
18.283 7.50987 -13.5072 141 107 48
-1.58477 16.4141 13.476 60 40 19
24.3487 3.77236 -14.9115 126 104 58
36.4562 -5.02299 -4.74819 71 77 54
21.6323 -9.52525 -14.489 138 129 72
-59.7778 -29.6487 -9.88731 200 166 103
-15.8777 25.4528 -1.32164 71 47 22
-34.2391 -2.31363 -13.1276 125 121 72
-12.1024 -10.092 -7.72758 110 109 65
64.7531 9.6563 -11.2814 122 128 91
-34.5318 -28.9636 14.7347 54 37 19
46.2784 26.8496 4.12466 62 39 19
-45.3506 -7.285 -10.4932 121 83 38
43.8814 14.4867 10.1628 52 34 16
-57.4763 -7.95039 2.4492 60 51 26
2.40531 22.5256 -7.02579 70 51 29
54.0971 27.4221 -7.90927 123 80 36
-35.6123 8.32457 -14.6769 78 64 51
38.1527 16.7994 9.61789 59 37 16
-16.6482 -6.90872 6.90358 68 68 41
26.7893 25.7154 7.533 20 16 15
25.5162 -8.56248 -10.2327 78 82 54
41.4468 -34.1665 7.70842 78 63 26
-45.0669 -4.52173 6.44418 70 63 31
-6.22605 -11.8109 -9.60957 107 107 65
30.0711 -5.87165 13.3112 67 50 22
8.37706 -26.0189 -18.3265 140 91 42
15.804 0.432751 11.9866 32 29 19
-23.3108 2.37539 -11.0561 148 134 70
24.2282 -3.75251 -15.676 74 77 59
-39.4029 13.6038 -12.503 122 84 39
-25.4422 15.109 14.7524 34 27 16
30.9351 -34.9176 8.21912 136 94 44
-74.4799 -18.8411 -4.62578 38 41 35
-54.3469 -8.64375 -0.453476 37 37 29
33.2405 17.3747 -11.4348 59 47 33
34.9791 25.4617 1.84226 60 39 18
35.6028 -29.2243 10.2084 82 57 25
52.7745 29.6268 9.10841 111 69 36
54.3701 30.1642 -1.6846 58 38 19
55.938 11.5261 -15.1599 135 127 77
12.3723 -30.061 -18.7516 141 111 48
-43.8459 1.78201 12.206 49 35 17
5.75213 -3.88414 -13.0121 144 130 67
-41.7205 -16.9105 8.82362 80 83 68
-57.6471 1.1748 -0.749405 136 90 44
-31.0805 -5.66191 -8.95402 88 92 62
6.14708 12.9988 -13.2305 42 37 34
-31.9411 8.8701 -15.2323 54 51 41
47.5136 21.4915 8.73906 63 38 17
-37.0536 -33.2664 11.9078 98 79 43
69.2977 21.0427 -3.32895 31 24 19
-33.7244 -30.7757 15.2631 51 36 20
41.4083 23.4517 -7.67195 120 78 36
23.4442 -2.19498 13.8902 24 20 15
43.8235 24.6492 5.34597 45 31 18
17.7107 -10.2441 -14.1222 114 102 53
-12.6451 14.7428 13.9736 57 39 19
39.8696 2.76687 8.84222 72 73 50
-31.5082 -15.5931 7.07399 154 147 81
8.06712 -16.5681 -15.5653 136 92 40
13.1196 -34.8172 -14.3527 50 34 17
13.092 -24.0544 -11.5312 70 58 24
-44.0034 17.3207 8.47638 38 27 14
-36.0566 8.79833 16.1974 42 30 17
70.7677 4.56068 2.87126 52 26 25
68.1887 10.1998 9.02791 64 62 38
37.9628 -34.9667 14.7933 52 38 21
-53.2063 12.8955 5.22658 56 37 16
-64.9578 -11.4795 -0.981796 35 26 17
-22.7251 9.60902 14.0833 53 48 26
17.2775 -30.7242 -17.6146 63 49 29
-38.5738 -25.72 8.63823 126 94 38
32.5504 1.8778 -12.3898 37 36 31
69.1173 17.158 6.01683 30 23 14
-9.33089 25.5861 -1.30324 85 56 26
12.25 24.3122 1.6621 60 39 19
20.4416 19.0724 11.2092 36 27 18
-32.4833 23.1375 7.24228 19 17 15
-57.2581 7.71464 1.86078 62 51 37
8.43141 20.6295 9.47577 57 38 20
-20.0704 12.9427 13.6595 24 24 19
9.3091 22.37 7.46248 57 37 17
-0.198662 25.8858 0.161209 52 36 18
71.9027 19.4941 1.66393 50 34 18
4.28628 15.0419 -12.9477 147 113 48
-53.1508 -4.54606 -4.5423 35 35 28
66.4881 0.563196 -3.77789 166 171 113
24.6235 -23.5233 14.4233 53 41 18
18.4993 5.9872 12.9003 26 24 17
56.7213 29.1959 1.13565 18 17 15
-62.8316 -19.5009 -2.93269 49 42 22
-15.8257 2.45683 11.5042 56 47 26
-42.1793 -6.52314 -12.0508 59 48 36
28.454 -33.0548 9.29886 130 95 38
-38.9725 -12.6925 -6.82269 68 66 35
-14.1298 16.9128 -13.2937 54 46 35
-43.3838 -8.15245 -2.27614 68 63 35
30.7795 15.5629 -13.6716 58 47 33
-4.26788 -0.105637 -15.3222 144 139 84
-39.4514 -20.7399 13.9754 53 35 17
-18.1241 18.8126 13.0782 58 42 20
53.8901 21.2478 -14.0953 134 102 49
-78.2325 -20.479 0.618378 30 27 19
-57.1412 -30.6913 -7.5587 85 71 42
12.8107 -12.2776 -15.3119 155 107 50
16.8787 -17.6724 11.2977 49 44 27
64.4224 20.8828 10.3108 21 19 14
-40.006 -10.546 -3.66129 69 68 41
-25.1067 -9.91735 12.9796 38 36 23
-31.0063 11.2066 -14.6444 142 103 47
-65.922 -32.7887 -5.69804 20 17 15
15.0827 12.2358 -10.4033 172 145 77
29.2422 25.5488 1.44669 54 35 16
22.1623 18.6103 12.5858 31 23 17
-17.9616 16.6369 -12.9441 130 91 41
-10.4968 16.1944 -13.4038 140 97 42
-47.8954 1.07211 5.52745 55 48 23
21.142 9.58861 -13.9113 140 103 47
10.2957 18.0311 -10.1543 135 99 42
4.92059 20.7171 -8.99075 111 77 36
71.3795 8.20779 7.05954 51 43 31
44.6381 9.99004 -11.0635 149 117 53
66.5693 0.384454 6.33632 62 48 24
61.0277 15.4789 -13.1563 69 70 47
43.1245 13.5656 -10.6619 158 131 63
23.9813 -1.57347 -16.0973 34 35 31
8.71652 21.113 -8.24792 131 88 42
-55.2432 -9.84605 -5.59893 34 35 30
29.7536 -8.32774 -6.88597 130 132 85
5.14716 24.1717 2.92579 58 39 17
-63.8473 -22.1825 -4.30624 31 28 17
59.4529 25.5803 7.09688 42 28 16
2.81897 -12.7834 -9.86644 100 100 60
-10.8315 4.10973 -15.3255 150 120 61
28.5289 -23.866 14.4643 58 38 17
0.180977 -7.35117 12.0891 68 61 33
-40.0547 -23.983 9.44011 122 87 37
65.1395 21.0733 -9.98282 150 113 51
19.3379 -20.6558 11.7504 55 43 20
31.7669 25.3677 3.91191 54 35 17
-24.5293 1.86889 14.3589 52 50 30
45.3587 23.9155 6.4614 65 40 18
60.6906 10.2327 -12.9104 110 119 91
6.25896 -5.96397 -12.5446 147 132 71
-22.8284 -8.49783 9.97136 68 67 41
-40.2087 20.2753 -5.04953 56 42 24
-17.5653 9.68716 12.9758 43 36 19
27.6831 -16.3818 13.5305 64 43 19
-29.4734 -12.3882 14.7406 26 24 15
40.1525 11.7489 -10.923 92 80 47
-20.2368 -2.05509 -10.297 138 112 57
27.4887 1.76636 -14.4678 132 120 62
67.7905 12.0133 -10.5728 128 130 90
-44.7972 5.54237 11.3414 48 33 17
-31.491 13.28 16.0193 57 39 18
-34.842 -35.9116 15.0771 35 27 14
18.5578 2.18498 -14.2132 101 85 47
-5.00889 -3.39481 -14.4392 141 141 92
18.9696 2.70522 12.8893 47 38 22
23.4993 20.0502 12.4053 59 37 17
-32.8496 -9.64338 14.0884 36 27 17
-29.2004 -34.581 15.9471 46 41 28
37.7118 -2.6362 6.12151 70 72 48
-14.0803 -7.49995 -9.36792 125 124 72
-36.5189 20.4107 -7.75841 41 38 28
-25.4621 11.3481 15.5161 41 36 21
26.3194 -32.9444 10.6807 37 38 32
19.0994 -14.07 12.6556 64 53 25
-2.56728 -9.55835 11.3996 61 51 26
63.017 21.8305 -10.1799 145 96 43
61.3234 8.87356 12.0528 63 60 36
-45.0528 -4.49216 -10.2011 146 105 49
-28.2431 22.1354 -7.90187 81 54 26
6.87662 -18.3492 -12.9879 55 43 18
-73.7543 -22.0922 -6.49916 143 99 45
-4.96469 23.2253 -7.20995 37 32 25
-23.0983 22.9155 9.69115 65 41 19
4.22881 -8.2459 11.7247 61 48 21
-40.7948 -26.8109 11.5516 45 46 41
-79.6253 -19.1815 1.33008 18 18 15
-27.9285 6.31822 -13.4059 133 125 74
30.2575 -14.3445 10.0671 81 63 30
69.4666 -1.20768 4.37968 58 46 28
-67.9789 -16.1865 -1.01199 30 23 15
64.0011 26.2003 0.974638 21 20 14
69.2983 1.22668 -1.99582 89 61 46
4.59796 6.54614 -14.4991 141 109 46
19.7627 -10.4311 12.8237 58 41 18
-41.9888 -15.1697 -5.44586 66 63 35
20.4288 -23.0345 11.8158 56 44 19
-33.2007 0.8675 15.7262 40 38 23
67.7135 6.81149 -5.10759 112 79 75
23.9341 -22.5718 7.29153 149 131 61
-29.5355 17.4666 -12.5617 127 83 39
69.4542 4.19995 -0.285137 52 39 31
-19.4291 13.1049 -13.2094 95 75 44
-75.027 -25.2605 -2.22792 60 57 31
-34.8464 -9.96542 5.3755 175 170 102
16.2163 24.6742 -0.0755157 53 35 18
-44.6425 -4.25231 -2.1491 65 51 22
4.60802 -0.476837 14.3128 52 43 21
-9.1853 -7.37916 -12.5005 135 115 60
38.6879 -32.9186 4.15074 123 82 33
39.9824 7.16301 10.0609 38 35 23
-32.6502 9.59801 16.4326 29 24 16
6.07697 -3.48186 13.166 61 57 27
35.1684 25.3323 -2.11728 74 50 25
22.842 -11.2771 -7.66764 79 84 56
-21.1462 -6.96126 7.5833 75 77 48
46.6212 9.17505 14.1571 51 41 24
57.3284 2.00967 -7.99589 97 108 82
27.0772 -9.10804 13.2686 42 35 19
55.4227 17.1232 -15.1476 181 171 124
55.084 1.27523 9.45213 66 58 29
58.9687 20.5432 11.6023 33 24 15
26.0522 0.443153 13.8487 18 17 15
-13.1523 -6.03011 9.59698 67 67 41
-6.01393 -9.26046 -12.8472 137 121 58
65.8649 23.9701 6.24921 57 37 19
-56.6342 -13.8813 -3.26123 55 43 30
-6.79698 25.5788 -1.20662 88 60 28
-42.6517 20.1995 -2.54229 105 71 34
-33.1058 23.7152 3.7308 66 41 21
75.7032 17.7099 -1.35498 83 53 25
17.7055 -1.27866 -15.0518 102 77 42
51.0936 26.885 5.02679 75 51 24
-24.4024 20.5412 12.3235 63 41 19
-55.0992 12.4969 3.53679 53 35 18
21.0875 -8.96247 12.9612 62 51 25
-42.8492 10.8399 -10.8415 41 37 33
-49.3857 -11.0878 -3.21405 61 41 18
-4.68555 13.4846 14.5275 20 19 15
-14.9527 -5.94627 8.91957 70 68 40
-37.9979 -11.0015 12.0313 59 40 17
3.47993 1.74743 -14.6618 144 126 74
-4.76852 10.0711 -15.2207 137 101 47
-7.16872 4.81359 -16.073 138 112 53
-41.1164 10.2157 -12.8483 43 44 40
-9.28104 16.4778 13.6577 59 41 19
-38.2596 3.48042 -13.2675 45 39 33
68.9685 7.15549 7.49627 44 29 25
29.2478 -31.5056 8.42392 145 110 44
62.4355 20.085 10.943 52 36 19
26.5528 -3.60157 -13.7136 98 103 80
41.8624 23.6941 6.05126 38 30 18
68.7595 20.6319 6.03606 17 18 15
47.7503 11.1861 -13.2784 101 74 30
35.9701 -3.83014 -8.27028 121 128 88
-54.394 -11.1516 -7.5923 119 83 47
52.1339 22.2469 -13.939 165 160 99
21.4262 21.5405 -9.46031 113 73 36
-34.6069 9.98581 -14.7445 118 91 44
-35.2732 1.14164 -13.757 98 81 51
46.0098 3.12794 -10.0798 157 164 112
-34.0981 -25.4691 13.7783 64 44 20
16.4595 -11.0294 12.3949 53 37 18
-23.6168 -35.8102 12.8431 65 56 32
21.7435 10.793 13.349 37 26 18
-46.139 -3.27464 0.974777 129 111 52
-64.7694 -34.1468 -4.871 19 17 14
47.3994 2.77427 9.30696 75 76 55
-50.3506 -1.36211 -3.38497 35 34 28
27.3539 6.90729 14.211 34 29 17
36.0215 -6.18389 1.94876 69 71 49
-58.8816 4.46163 1.83154 54 39 23
18.5088 -21.7573 -15.2746 81 77 49
26.5785 10.6165 14.327 35 26 14
45.1524 12.7194 -11.2386 155 115 52
17.5872 -19.382 -15.2604 152 123 60
-38.4203 17.8111 -10.015 60 44 32
57.2154 27.8056 4.43582 33 24 17
27.621 16.687 -13.8249 160 112 47
23.2932 21.6878 11.2088 61 40 18
-36.8602 23.1157 -1.80798 95 63 31
-33.012 -13.6511 14.866 50 38 17
-57.9702 -37.0835 -11.9161 108 107 68
-47.2739 6.86032 8.11126 55 51 27
11.5899 4.91517 13.9114 30 27 19
20.7452 -1.58461 -15.9797 124 98 47
-7.9987 8.44029 -15.8154 139 102 47
-54.7245 2.94125 5.28149 57 43 20
50.3537 25.8844 -8.13866 115 72 35
9.2339 -28.3485 -19.2787 158 108 56
-84.45 -21.1903 -0.154613 52 49 23
-45.1364 -18.0987 -6.06927 71 66 33
11.9728 -1.47823 12.2111 61 53 23
-32.1515 -3.80287 -11.8214 142 150 106
35.1959 -35.4018 13.6423 57 50 32
29.3053 -19.166 12.9816 62 41 20
26.6521 -26.4083 7.37402 148 119 49
20.9087 -3.77619 -15.7311 42 42 37
50.6429 21.5933 -14.8797 153 119 62
77.9182 14.3593 -1.06214 33 29 18
-30.1436 -26.8885 11.7515 32 28 22
-53.169 -7.87913 -7.42927 69 68 55
48.3379 7.56421 -13.8452 108 82 45
51.0664 4.44961 13.9437 58 46 24
-41.593 18.6831 -5.9986 45 35 24
-16.7229 -3.64441 10.0088 56 45 20
29.9732 24.7815 -5.50844 66 42 21
-34.5486 24.4154 0.790173 59 38 20
62.3569 6.63391 -8.62017 86 92 70
-65.7207 -22.3832 -3.83826 43 40 23
47.1667 12.998 13.9458 55 37 19
17.097 15.5455 11.5603 45 32 18
-47.8171 20.3164 1.29695 107 72 40
-83.6692 -12.8612 -2.22512 146 97 46
-66.4373 -31.1884 -8.34379 77 64 49
50.9969 -0.484463 1.7692 64 66 46
1.4323 10.3152 -14.9557 90 74 46
-25.8405 -3.39457 13.5637 35 30 17
-41.1578 -9.87938 -12.5196 116 101 59
55.8458 25.2405 9.97388 72 46 19
-81.4254 -13.2589 -0.439606 40 33 18
-6.58553 5.73897 14.7951 40 32 18
-19.7186 1.66459 -11.3275 154 139 83
-3.11443 26.0094 0.386124 48 35 18
15.3853 -3.74218 -14.6848 121 96 54
9.53194 -6.10667 -13.1647 104 66 27
-25.6411 19.0346 -11.5623 54 51 38
15.1467 12.6386 12.5254 19 17 15
58.6617 13.3153 -14.0259 142 110 54
3.97236 -3.65355 -13.5283 146 141 89
-34.4541 21.7893 10.104 41 30 17
-38.9162 -14.0166 12.0787 58 39 18
-72.1549 -17.155 -3.41672 18 18 16
17.7573 18.0551 -9.18747 124 92 47
63.2121 11.9034 13.0497 35 29 17
-26.7754 -32.9539 8.22575 126 83 39
27.6465 17.6813 13.5938 61 40 18
52.1463 -0.381729 8.40833 70 73 51
-22.0708 0.867989 12.3265 66 63 37
69.4419 13.4596 -9.21841 126 115 61
62.4479 4.3928 -5.50816 143 160 128
12.2811 23.1124 5.51797 52 35 16
7.33398 -32.2632 -17.4183 50 35 19
1.36357 23.7866 6.08689 35 25 16
-53.1901 -2.29707 -2.10813 126 99 47
22.5302 -5.99954 13.3585 59 53 27
56.4371 18.4044 13.5804 61 41 19
42.9785 0.427528 -7.78707 128 140 103
-3.22608 20.942 11.1783 61 40 18
3.23028 24.7286 -1.88898 96 66 31
70.6324 5.80533 4.54404 56 35 31
55.6841 8.04262 -14.4245 80 83 63
-49.6935 12.232 6.30429 64 44 20
28.1841 -11.7026 8.00858 133 138 95
49.1309 13.8763 15.5461 32 25 18
15.5278 -12.536 -14.9669 57 51 33
8.0066 1.4521 14.0487 64 52 24
-32.2107 17.5127 -12.2143 48 40 30
6.11507 2.15642 14.4646 46 38 20
41.0777 25.8017 3.06006 61 40 18
54.4468 -0.600327 6.32826 67 70 47
15.0695 -7.31212 -14.3376 141 136 79
-50.0434 4.54263 5.42336 56 48 23
-58.4746 -36.5883 -3.65335 54 47 26
59.8504 27.5645 -5.08937 90 62 31
11.2346 -4.47476 -13.541 103 65 32
4.81608 -0.35807 -13.9745 145 133 75
54.0298 24.2552 10.6803 73 44 18
-55.6325 -11.7272 -5.09346 35 33 25
66.2743 24.1099 -4.2633 46 33 18
55.2315 13.5027 -15.2114 188 168 113
67.3711 24.6261 1.69257 52 37 18
20.0016 -12.2873 12.9131 61 45 18
30.7324 -9.20554 2.94588 72 74 46
24.7649 2.02421 -15.3315 129 99 42
40.4899 21.8127 -8.78377 154 100 44
-13.3053 21.1368 11.6261 64 45 24
-64.6017 -12.3763 -4.49809 93 62 39
1.08859 22.5215 8.41211 61 40 18
-35.0206 -32.217 15.7417 36 28 17
-15.2918 16.5606 13.5327 32 26 18
-51.8342 -2.08629 -6.14347 44 44 38
-28.4224 -4.18768 -9.38687 127 134 91
21.8589 23.9888 -6.5842 81 55 26
13.4878 3.62827 12.9269 29 25 18
26.1516 -9.68542 -6.7784 120 127 84
70.0972 2.83381 3.1805 45 25 21
-25.2363 -0.49356 14.0735 56 52 29
57.149 -0.152273 3.7307 72 73 47
-13.4211 14.2581 -14.0151 93 73 41
-57.0053 2.7366 4.56738 57 38 17
52.2054 26.5757 -11.4612 68 44 20
-40.3903 2.84681 14.681 50 35 16
7.11347 -29.1635 -16.8457 50 36 19
55.2319 5.25315 -13.5835 111 111 74
-39.2776 -0.589348 14.4629 54 43 22
-26.9474 -31.937 14.6912 48 31 17
-7.8048 20.8722 11.9919 56 37 19
15.6687 -0.235834 -13.8713 140 93 41
12.29 -9.78194 10.0246 60 46 24
-33.4097 15.7979 -13.1344 52 49 39
47.5432 26.0923 5.21805 66 41 18
-13.8693 11.1468 13.9432 30 28 19
-36.0851 -24.2402 7.69099 162 134 56
1.78449 24.4836 2.54524 60 39 18
-44.0254 -17.323 -8.84521 109 104 61
71.0353 10.2915 8.19086 60 45 22
-39.4477 8.8476 15.377 54 37 18
-58.1344 -27.5934 -9.08737 122 100 43
53.967 -1.10535 4.00578 70 75 52
-6.78566 -2.91056 -14.4988 148 147 92
54.5555 29.2466 2.2519 64 40 17
31.5541 -5.90118 11.8026 63 52 22
10.5689 -7.58124 10.7716 62 51 23
-39.2841 15.4619 13.979 40 29 18
60.9865 6.24035 10.0762 68 70 47
-50.6346 -0.451843 -6.92857 56 57 50
31.9779 -25.3809 12.6125 64 42 20
25.6915 -12.6241 13.6191 63 41 20
-39.0569 1.67812 -12.6093 135 101 40
33.9215 -7.47902 -2.8615 79 82 57
-23.51 16.5258 -12.6474 139 102 45
12.6852 14.2891 -10.7315 54 48 36
-35.5448 -9.70375 -10.7763 117 124 80
-35.6797 2.47555 16.1955 52 43 21
8.59017 10.6024 -12.3786 73 67 44
-24.4672 24.6244 4.50243 62 39 18
48.1577 17.4802 -11.9195 117 76 33
-57.9338 -29.7898 -5.78268 46 37 20
8.03165 -26.6432 -14.7171 46 35 16
-56.5557 -24.1582 -9.65894 117 106 53
-45.0183 18.3494 -2.05933 137 112 89
11.3705 12.2339 -11.3022 71 63 44
53.163 29.7326 -3.06149 92 61 30
-39.1032 23.9802 0.376919 82 57 34
67.6221 8.45796 7.99826 63 56 35
6.17283 3.00542 -13.9329 139 134 81
52.2649 25.7001 -9.47237 87 56 28
17.7845 -27.3935 -16.1191 46 50 42
36.6212 26.114 -0.566132 54 35 17
34.4376 11.8073 -11.5974 140 119 57
27.2093 -28.0081 13.9676 54 40 17
53.3835 0.358967 9.98659 66 64 45
33.0946 -31.1366 6.78386 138 109 44
66.8312 -1.59013 4.87762 69 69 47
-61.5213 -36.3923 -11.3607 96 81 45
56.7579 15.124 13.6625 61 47 22
40.1526 14.3855 9.81967 68 50 24
25.4496 19.8262 -12.4888 152 100 44
-9.28426 -0.477478 -14.7549 141 135 75
46.7863 19.7669 -9.93478 166 110 44
-53.3393 -21.7679 -9.41907 133 123 61
-22.8027 -34.772 10.3704 68 53 25
-28.4462 -2.65009 14.2904 50 43 23
73.4392 8.42088 6.64378 65 54 31
72.9957 15.2859 5.84335 60 38 17
32.9847 -8.89642 -0.380737 61 64 42
18.0411 24.0972 -3.31931 40 32 23
53.0809 29.8415 0.516823 65 41 19
-35.7985 -1.59236 14.5973 31 29 19
-65.7365 -25.5519 -5.16382 29 23 17
50.0281 1.10397 9.16756 68 71 51
-31.8198 -22.1663 12.5577 60 51 22
1.499 -7.86311 -13.5332 147 132 78
-2.87914 23.9629 -5.00513 33 27 19
-23.0914 -31.9972 10.3748 85 59 23
-25.4851 -0.47644 -10.5353 141 127 72
-9.86937 19.2204 -11.6554 38 35 30
34.8367 16.5511 10.6554 58 38 17
29.9819 -10.7889 11.4246 64 55 23
62.8853 1.25261 -3.75204 159 169 115
16.2909 23.5905 -3.47378 31 26 22
3.21161 -6.74468 -13.2036 143 119 53
-7.467 7.36871 14.7967 51 39 18
-66.3439 -27.0354 -7.7023 58 57 47
-41.2089 13.5544 -11.2611 57 50 40
42.2448 2.69273 -9.95325 153 145 80
55.4194 4.4586 11.1929 65 54 26
-12.0582 -7.75816 8.34782 65 63 36
48.7001 25.0774 9.97612 39 26 16
-39.4249 18.7861 -8.39759 115 74 38
-56.0351 6.54818 0.47699 136 94 49
68.6873 9.977 -6.57819 143 148 120
-13.8977 6.14289 -14.7762 141 116 62
12.3528 -19.7237 -10.4378 71 60 24
57.6735 28.0829 2.46281 44 30 16
12.8343 23.337 -4.48422 95 63 30
-41.1515 8.34866 -12.7083 48 43 32
63.3595 26.3953 -2.86867 61 48 28
-32.0088 -26.5513 9.44112 159 139 73
-38.8172 -8.2327 6.96185 137 116 55
-10.6396 21.8849 -9.49837 53 46 31
-36.3334 -11.2539 -8.79458 41 43 30
28.568 -13.4101 12.5679 66 48 21
59.1206 5.38397 10.3599 69 62 29
60.8354 19.0115 -12.5681 149 115 53
-58.8591 -12.833 -4.99965 161 134 73
14.1211 14.9956 12.1277 33 26 17
14.9568 -14.3438 11.7178 53 46 25
-46.9576 -13.4483 -3.22454 63 46 19
45.9144 1.64899 -8.64114 144 155 114
6.43935 6.30869 -13.8394 156 133 79
40.7287 -0.241165 -8.33068 127 136 95
-58.9698 -11.3427 1.36847 57 46 21
-57.2818 -9.71768 -4.16585 200 165 102
-28.7005 10.5048 -14.4941 59 50 35
-63.0608 -16.3775 -6.45477 151 107 50
-48.7061 -10.6286 -9.34831 137 90 43
-78.483 -20.2652 -5.09145 140 96 50
-26.7278 9.11132 15.5642 47 39 21
-52.3381 -14.2086 -8.9846 137 88 41
32.8021 -23.7288 11.7567 49 38 22
13.2111 24.3776 -2.11522 83 55 25
-31.8129 -1.36914 14.9373 50 43 21
58.9145 27.2622 -6.60616 107 71 33
38.7922 5.41318 9.93297 64 58 30
39.6324 -1.56818 -7.30888 117 127 94
-9.81377 7.17768 14.4241 41 31 17
-39.9596 5.04571 -12.7955 69 63 42
-38.6143 20.2059 10.6449 56 39 21
-41.7896 13.2738 13.0308 45 34 18
30.1543 3.1571 -13.786 113 110 64
49.0454 1.22405 -8.6161 111 116 86
11.3501 -20.6561 -18.34 148 110 53
-55.1089 -18.8324 -10.3838 143 99 44
33.0083 10.8224 13.351 52 38 18
37.6515 10.7385 -11.5301 150 134 72
-63.0402 -33.5923 -4.08467 24 19 15
-8.74378 22.1932 10.9045 58 38 17
-31.2552 -34.9419 9.5726 146 104 45
-40.1274 -11.3053 8.15694 103 94 61
24.3793 23.7938 10.0093 59 37 17
58.2395 21.2998 -13.0842 143 109 50
24.011 23.6845 -8.98972 40 31 21
-38.4832 -31.8152 12.6825 42 43 37
-26.8649 22.4078 10.7185 22 18 15
54.1727 26.6801 -13.928 77 68 39
40.1113 5.7116 -10.6985 155 151 94
15.9889 9.59826 12.753 28 24 15
-55.8173 -36.2736 -7.02899 60 48 22
-3.4173 19.4315 12.3236 59 39 16
-36.3498 -18.7696 14.4035 55 35 17
27.1121 25.6269 -5.95277 42 31 19
43.4701 7.79608 10.445 60 48 24
49.5513 22.8496 -13.8786 83 51 22
-24.8007 -37.1215 9.55357 68 63 39
-29.7368 7.67777 16.4061 31 27 20
-23.3648 24.4473 6.047 19 19 15
-54.5256 4.78421 5.45932 56 37 16
23.3624 -12.2905 -2.3362 93 95 64
-50.3394 -4.84567 -2.27868 61 58 45
7.23882 24.8724 -0.816341 68 50 24
-34.9486 -25.6306 8.10538 152 129 56
-2.39303 22.8246 8.90453 44 30 19
-43.1082 17.9239 -4.57909 91 62 32
13.9753 -8.93088 10.1662 60 43 20
31.2607 -18.6775 10.4067 26 24 18
-0.686409 0.241852 -15.3137 148 137 88
29.4931 -3.21447 -11.808 125 137 97
-42.1767 22.193 -0.291946 115 77 37
33.1569 -32.4102 14.0064 59 37 16
58.5223 8.41309 12.7891 66 52 22
31.646 14.6333 13.7052 48 33 16
49.3203 7.08649 15.1691 52 36 20
34.5047 2.15299 11.3797 61 55 27
33.2297 -27.422 12.5379 62 39 18
-38.5345 20.073 -7.266 92 62 30
8.3876 -22.3573 -17.4092 121 80 33
-2.8701 -6.2665 12.2475 62 56 27
-34.2656 22.7657 7.30746 61 39 18
-47.3214 20.7123 4.307 63 40 17
67.9676 7.54513 2.73428 103 81 75
45.7042 21.1712 8.22261 68 41 19
-55.4816 -21.8138 -10.5917 130 114 52
31.7284 24.8429 -1.53252 62 42 19
54.1459 29.6451 10.2596 51 34 18
-24.3514 -33.1891 7.93028 141 101 43
-46.5402 -1.32634 5.76384 64 59 30
-25.8448 -31.4064 12.4996 44 31 18
-18.513 -5.27711 8.97575 71 72 48
-43.9841 -7.84546 -11.505 123 85 38
66.1598 9.59729 -9.94335 79 83 66
-47.7785 1.0557 -8.57321 128 88 46
18.8545 -11.876 -14.2386 43 40 34
-9.55579 2.02389 13.4411 49 42 22
22.3778 16.8595 12.8873 40 30 16
-63.4376 -30.7612 -4.65307 28 22 16
15.3289 21.2075 8.31895 26 21 15
-26.2146 -13.7553 12.562 63 59 28
-18.4724 10.7006 -13.4247 55 48 35
69.643 22.2757 2.71231 43 32 18
-50.4313 -15.3532 -10.1003 138 98 44
-35.7235 13.6978 -13.7175 144 104 49
42.5814 21.8316 7.54707 67 44 21
-58.0677 -33.6957 -12.5625 109 72 42
-61.8959 -24.2703 -10.2102 138 102 44
-61.5243 -27.9158 -10.1822 135 95 42
-36.835 -13.3539 6.81542 138 114 52
-40.4793 -3.20676 -12.2066 127 86 41
-28.2981 6.0435 16.0196 27 24 17
13.7011 2.31599 -12.1347 138 108 43
55.5319 9.32465 13.6909 64 49 22
-84.474 -11.7764 -0.964703 66 54 29
34.7777 3.98831 -11.9434 138 123 59
-51.6611 3.49949 -1.17549 142 106 49
32.8191 6.97493 -12.8974 147 131 61
15.7915 -10.812 -14.0134 166 151 101
-30.8967 23.3335 -3.26767 73 51 24
39.3522 3.81161 -10.4715 141 136 81
66.371 -0.721373 -2.54625 138 141 95
22.1248 -13.337 -11.0123 49 51 34
-46.7229 9.34929 -6.93743 97 61 27
-84.6358 -19.8331 -2.93733 120 88 40
20.3945 17.6145 -10.824 139 94 41
15.9536 -27.4722 -16.6996 108 94 55
-61.5465 -3.81403 0.271843 45 29 18
-48.2372 -13.4796 -10.4977 133 94 44
34.6047 -27.3748 11.3129 48 37 20
29.4323 -25.2672 7.23686 163 152 78
22.0418 -12.4891 13.3171 61 40 19
-45.0058 19.4549 6.3734 64 40 19
-1.32901 24.9922 3.04752 61 39 18
-49.1083 -6.24447 -3.89973 60 44 18
32.3345 10.1837 -13.2766 136 108 45
-30.8021 -7.87955 14.8205 39 29 17
-3.48744 16.2181 13.5724 38 28 17
36.595 -31.824 14.2944 49 32 17
-23.401 -4.33339 11.6668 50 46 26
-56.415 -2.60892 -2.61974 153 103 44
23.0645 25.0611 6.7394 59 40 19
-64.0066 -10.7292 -3.76373 146 128 107
59.1428 24.6361 9.08247 52 35 18
-42.068 6.58998 13.9275 22 18 14
30.7124 4.8871 -13.8438 39 40 35
-39.0033 -13.6071 -8.34839 55 54 32
24.822 5.02787 14.1317 26 24 16
50.4689 15.1702 -15.6039 140 111 52
69.3043 4.91073 -2.39396 68 38 30
70.5341 15.564 -7.43244 138 99 41
-51.0846 0.808517 -1.21402 76 79 63
-40.8493 15.8329 -9.9192 55 38 25
31.8666 8.35604 -13.6081 139 119 52
-34.5867 22.5945 -4.07419 39 28 21
21.0101 -4.9571 13.4528 60 52 26
33.9674 -29.6703 7.60446 110 87 37
59.3453 3.34457 -7.197 113 124 91
-55.6908 10.7987 4.02209 59 39 19
-14.4491 14.975 13.7381 50 37 20
-52.8769 -23.1032 -5.90819 60 55 28
33.997 -36.3194 11.3795 64 70 55
-5.71509 -6.85259 -13.5734 150 142 80
-32.2641 22.956 -4.7263 60 40 19
-0.742989 -9.07033 11.6562 65 55 29
2.16464 8.20065 -15.3298 104 98 72
-25.2538 -9.58859 7.05003 132 131 82
-39.7081 -8.09789 11.5388 56 40 17
-17.1802 11.5217 13.4769 57 43 20
25.6783 -31.2111 10.2586 70 60 44
21.2004 -14.5952 -13.4489 110 111 68
-11.5648 17.4635 -12.7758 146 96 45
-15.8759 18.1585 -12.6303 59 53 41
25.5953 -23.2747 7.03159 157 145 74
-34.2508 10.3547 16.3329 57 41 17
-44.7833 11.7285 -8.63541 58 42 25
-59.5887 -25.98 -10.3873 125 100 45
-17.114 23.4675 8.73627 60 40 20
-51.0204 -17.2562 -10.1909 138 96 43
48.2013 29.7644 -0.0783334 59 39 19
7.86122 -34.1143 -17.8197 47 35 17
-40.9715 -11.3849 10.908 45 34 19
56.7336 29.4582 -3.03149 93 60 27
49.3014 29.3496 -3.15103 100 65 32
3.36154 23.5094 5.5089 60 38 16
24.255 25.7031 3.96385 75 48 26
-50.1163 -21.5671 -5.79419 65 59 30
57.4894 24.6398 -11.5736 103 66 28
20.6362 14.0602 -12.1342 137 89 38
-10.855 19.5849 12.5445 42 33 22
-34.0873 -8.39202 -8.11137 60 61 41
52.586 23.9788 -14.0634 136 139 96
-62.4376 -10.5047 1.14449 44 32 16
-49.5461 -15.1973 -3.55905 56 40 18
23.5772 -21.2302 14.7091 55 44 19
-22.5815 7.06341 13.3996 18 19 18
-46.322 11.7831 -5.97475 81 56 26
-71.1196 -17.5344 -5.46769 106 100 85
36.8599 9.0889 -11.4636 140 126 66
25.9888 -14.1174 6.8347 145 143 84
-31.753 23.9611 -1.49767 81 54 26
-34.6504 21.7193 -6.97089 83 59 29
24.5543 15.6828 13.477 55 38 16
12.5233 -27.1424 -12.2905 63 49 19
-60.7071 -32.6732 -4.77689 50 33 15
-41.0071 20.5761 -3.48639 64 47 28
-59.382 -1.59799 -1.2117 110 75 37
-6.32957 8.81075 15.0302 28 23 18
-77.3889 -17.6871 -1.04555 20 20 20
-33.5362 -6.22991 -11.65 131 134 85
10.2369 15.9861 -11.0367 129 98 46
-66.9302 -17.5743 -0.714108 39 30 15
39.0643 13.9985 -10.866 153 117 53
25.497 -29.1951 9.74394 135 101 43
43.6177 27.4866 1.14445 63 39 19
-60.4489 -0.750397 0.506035 43 29 16
18.1035 -28.973 -14.6943 33 32 26
-26.8881 12.5927 15.4606 64 44 20
-39.6748 5.91656 15.3202 55 37 17
-26.379 23.7386 7.64457 43 32 18
-10.7898 6.9946 -15.4791 137 109 54
7.00942 4.52656 -13.6324 121 110 60
-50.4821 -4.2583 -0.237549 41 38 26
50.3489 8.97702 -16.1283 148 131 73
50.796 29.1759 2.25172 68 44 20
4.53372 3.28588 -14.6539 133 122 70
68.8688 12.5134 10.5257 62 46 22
31.522 12.3981 -13.4566 130 105 49
-77.9959 -17.9972 -4.15339 55 46 35
51.3694 25.2475 -15.3087 127 98 50
-3.19859 10.4505 15.0942 20 19 15
7.23146 -23.9437 -16.3269 65 46 22
16.9117 20.4056 9.56619 23 19 14
10.1387 -11.3131 9.41693 68 67 41
35.0932 12.9732 11.7719 66 48 22
30.8457 1.32031 -12.9389 132 132 83
47.7609 3.89977 10.6818 72 67 43
-26.2325 22.8211 -7.10789 84 57 25
34.5061 14.9618 -11.3798 110 100 58
21.5102 0.958977 13.7085 21 19 14
-57.9195 -13.3577 -0.426743 49 42 24
27.3178 4.89074 -14.5327 142 127 67
-56.0968 -10.3774 0.329651 49 46 29
-0.789314 3.32444 -15.7917 98 88 61
22.8858 -17.4303 6.63568 185 179 110
-42.6798 15.612 10.9868 57 39 20
-9.1384 2.52052 -15.6476 41 39 34
57.8147 4.05766 -10.236 136 148 109
-24.5687 24.134 -2.28101 89 61 29
-15.4554 9.34957 -14.7175 143 108 47
29.6995 -34.8641 11.7561 50 35 16
-27.6846 4.14182 -12.8496 46 48 39
-21.4433 22.562 10.1996 21 17 12
-4.33705 23.3325 8.27629 59 39 16
3.82311 4.94836 -15.1533 53 47 31
75.1514 11.3424 -5.88188 149 147 85
-59.395 -15.4131 -6.24599 36 32 24
-27.6724 -11.0007 6.49965 152 153 96
6.00089 -1.62424 13.6824 44 39 25
14.0025 -35.0614 -21.5774 139 148 106
34.6377 -4.08244 7.43684 69 70 41
47.8527 19.3667 11.4077 64 39 20
48.8994 1.03729 5.91739 70 73 52
29.0168 -17.2021 12.7456 64 43 18
-28.3765 16.1152 15.039 47 36 21
-8.85127 11.7139 -14.9597 142 104 47
7.5583 16.0138 -11.6976 116 89 45
-59.6478 -9.5456 1.95791 55 42 22
-57.6691 -20.0711 -3.72581 63 45 21
-32.4938 -33.5296 9.72795 151 105 47
1.36539 19.7477 -10.3517 40 37 33
-39.7401 21.9665 -2.34076 91 62 30
57.7406 11.5255 -14.5846 68 68 50
-36.2853 23.9459 3.00905 64 42 18
-49.5855 1.30502 -2.13104 58 59 51
31.9998 -1.4883 -11.4281 136 139 93
-33.5459 12.4953 -14.3868 107 86 50
50.3598 1.48925 11.2687 62 60 41
34.3891 7.39811 -12.1417 128 119 65
-6.65842 18.6384 -11.9579 137 96 44
0.0522251 22.1525 -7.94124 47 40 28
35.3129 -1.13289 -10.1415 123 123 83
21.8113 -15.3725 13.8189 55 36 17
-49.8084 19.704 2.34828 61 42 23
58.7718 0.310706 2.59528 72 79 60
42.7479 13.1831 9.90169 66 42 18
75.7766 15.279 -3.50336 132 95 42
8.40059 -15.1355 -10.6866 65 55 23
10.6053 24.6667 -0.291199 52 35 20
21.2984 22.0604 9.87968 59 40 20
64.5486 15.2352 -12.403 127 104 56
11.8767 17.6254 11.4571 65 44 22
18.2032 -13.6981 -14.0992 138 105 51
36.7316 16.1144 -10.8764 161 118 56
-11.3837 14.6525 -14.0299 149 103 46
-85.7289 -13.4404 0.403866 25 21 15
27.5376 -32.7899 11.9231 56 41 19
-42.1023 -5.56772 11.3379 44 37 20
-47.5282 8.36375 -3.71725 45 39 21
-39.2242 16.4802 -10.8046 126 89 41
-65.5751 -25.1119 -8.25333 105 83 44
-4.35497 5.82722 15.0682 52 42 21
-31.289 -23.9001 10.5219 84 72 34
-26.5282 3.33974 15.3552 28 29 22
43.8327 15.8292 -10.3314 154 109 49
21.2792 24.6124 4.74714 60 37 17
44.7409 19.4242 9.23158 63 38 17
-32.1818 14.5565 -13.9043 94 72 42
-72.9678 -21.9894 -1.07658 39 33 20
29.981 -4.33742 -10.5687 140 146 105
0.446274 -10.5985 11.0172 64 56 31
-60.8919 -32.197 -11.12 131 90 43
48.6485 8.97573 -14.9497 117 96 53
16.5098 -13.9589 -14.755 146 122 57
-38.534 2.6331 15.48 31 25 15
29.9694 12.6896 14.4178 40 30 17
23.5217 12.5278 -13.7718 61 50 34
52.2027 18.9163 -15.4321 135 102 45
-46.6613 5.36939 8.91971 59 56 33
19.1658 23.1387 7.3801 56 37 18
-60.919 -12.6386 0.988388 54 44 20
-35.8463 17.1089 -11.9612 133 88 42
43.2249 16.1385 9.56108 63 39 18
-75.7257 -22.9648 -0.769775 51 44 23
18.6885 -6.57341 12.7584 53 39 19
-17.6602 2.04609 -12.2235 116 107 63
10.1555 1.91411 13.6696 62 51 23
-12.8961 -7.00954 -10.7483 136 136 76
64.8461 -1.36954 0.54422 84 83 56
46.0204 6.5506 -11.0977 167 154 98
-34.0189 15.6546 15.3118 25 21 15
-7.5371 23.0121 9.34688 27 21 15
-66.4102 -12.806 -3.74459 31 25 18
19.8621 -18.117 7.40802 139 127 59
36.6232 12.2248 -11.4884 192 152 89
-24.4087 -10.5875 11.4567 61 56 28
21.1257 -12.3569 -8.12206 59 63 43
32.0443 -24.3299 8.46423 152 126 51
7.90458 -0.668694 13.613 61 53 26
47.6234 5.81372 14.8081 45 39 23
43.3651 20.3602 -9.08092 163 117 47
33.8283 22.2385 -8.69864 143 99 47
-53.0513 -23.0911 -8.23854 123 111 54
-31.6712 -0.300728 -12.9718 137 119 59
-52.6769 14.5416 5.12209 59 37 18
-24.5949 14.8859 -13.1444 48 46 40
-24.9002 5.45043 15.2901 27 26 18
-1.5802 23.2294 -7.66256 122 88 44
31.3134 -20.9769 8.85327 156 137 62
-23.2162 13.0802 -13.1602 167 148 113
-45.6801 9.73896 -8.69312 45 32 22
10.5966 -3.16874 -11.2565 151 116 52
30.9238 24.1115 7.28913 57 36 16
-7.87946 -5.78017 -13.3724 149 140 73
39.9463 19.8945 8.40799 51 32 17
24.8016 17.7183 -12.9534 134 95 43
35.1485 8.95616 -11.9669 102 97 89
42.1928 9.18659 10.1863 60 47 24
24.6558 -29.192 12.0388 53 39 18
6.74351 -8.91798 -12.2117 153 127 64
38.9496 24.702 -5.72815 120 79 35
53.4589 10.415 -15.7278 129 131 88
-48.6068 5.00922 -6.60292 69 56 30
-14.3622 19.9921 12.4549 60 39 19
-2.5969 16.4889 -12.589 128 93 46
-7.75816 24.9988 4.15809 58 39 18
-4.54909 25.0524 3.08061 61 39 18
38.1949 0.433596 -9.78519 151 160 115
19.6255 4.28381 13.1318 47 37 19
29.7571 25.3363 -1.88073 51 35 18
19.0974 10.7157 -12.6225 51 43 33
46.3762 14.1217 -11.5436 75 62 35
32.6516 -4.06302 9.05865 72 68 36
-40.5982 -18.1498 11.7194 52 35 16
-60.07 -30.104 -5.26297 54 38 17
-27.5517 -12.3656 7.64351 125 124 75
57.4593 8.62702 -13.6399 147 147 98
17.0905 -34.3257 -13.2436 51 35 17
-45.5263 20.904 5.35414 61 40 19
29.3103 6.20067 -14.447 48 44 33
25.0718 19.5718 12.9268 26 19 14
26.1538 25.7976 2.6827 58 40 17
-0.967445 17.8313 12.5273 57 40 20
54.2883 26.4096 -12.1375 60 39 18
-35.9812 19.8751 -9.30619 81 60 33
-28.9184 18.7239 -11.5569 128 83 37
-35.7935 20.6241 11.0986 63 40 19
15.484 -2.26176 11.3248 61 58 35
-28.9049 11.4372 15.9778 26 24 19
2.18897 25.1674 0.897751 59 38 18
17.5918 -4.87694 12.6138 55 41 20
-21.3818 15.9228 -12.8339 147 111 47
31.7728 14.2088 -13.0982 159 121 59
-41.9287 -1.42691 13.0071 52 42 20
-38.6843 18.5955 12.0249 62 40 19
-58.012 -4.19728 -2.86022 148 97 45
6.93854 -18.7051 -15.2135 82 60 35
52.5695 25.8752 10.5852 65 44 20
8.99052 -6.63664 11.32 68 62 32
27.5536 -8.26408 -7.75171 144 149 98
-33.394 -17.1392 14.7153 55 38 17
52.2827 27.1796 7.14369 115 72 35
-42.0515 18.3451 9.50679 60 39 17
-42.426 16.5303 -8.00512 91 59 30
0.500854 18.4665 -11.5412 54 47 32
-44.8127 -7.20207 -2.3245 65 55 24
-33.5719 -3.36057 14.1406 53 49 24
29.0585 9.64963 -14.5223 101 89 51
-35.9539 -35.1459 12.3071 82 61 32
32.049 5.27513 -12.8402 132 124 64
31.0347 -28.7383 14.0325 56 38 17
-40.7313 17.8443 11.9059 26 21 17
-28.5197 0.918043 -11.9287 41 43 40
38.9753 24.5488 5.00792 62 40 19
-52.022 -11.0812 -8.20099 148 97 43
60.1617 5.6575 -10.2758 122 129 99
-37.5286 21.8844 -4.64487 66 46 22
-1.43266 1.65059 14.8075 59 51 28
54.1097 27.6814 9.8988 58 46 24
-46.2172 -3.70716 -2.88374 67 52 22
23.9647 25.0681 -5.65108 63 44 28
-9.49046 24.4815 7.11057 62 39 18
-5.26337 21.5736 10.7945 36 28 18
2.8652 22.0582 8.57158 43 30 18
-20.9289 -4.08461 -8.88403 139 143 94
-15.3221 24.4501 5.97459 58 39 17
30.1118 -22.4887 13.2783 63 39 17
65.7608 2.64474 6.89442 56 41 19
-21.5592 16.3858 13.8542 24 22 15
13.4838 20.6017 -7.62784 34 35 29
41.1855 -33.6432 13.9415 60 43 18
1.09767 0.18428 -15.1231 74 71 50
17.9257 -25.5775 -14.9433 29 29 25
-32.1066 22.4374 -6.34853 103 69 33
-29.8403 24.1708 3.8103 61 38 17
6.76044 23.5431 4.7511 57 39 19
57.2116 26.4869 -8.71937 121 73 32
7.27178 -8.75651 11.2306 61 50 23
-7.40324 14.8041 14.1605 64 42 19
66.0318 22.9342 -8.38582 52 46 36
31.8484 -3.75801 10.9349 56 49 25
27.9634 -28.3819 7.75545 152 125 57
-81.6633 -15.2195 -2.97745 129 95 43
-66.1408 -15.3485 -5.56703 120 80 44
3.14178 -11.5002 10.4006 64 59 34
36.9294 18.8734 9.26933 40 27 16
13.916 8.98317 -10.7743 144 114 53
-45.5318 -19.7945 -7.12907 56 53 30
-57.5084 -33.7037 -4.04021 55 35 17
17.9047 24.5373 -0.520672 53 37 20
71.3325 12.34 -7.20181 140 127 68
-42.4039 -13.5596 8.86678 61 61 50
-45.4112 7.77109 -9.72491 158 116 61
-30.2215 1.75967 15.7022 63 56 30
-54.0676 0.717896 -1.79262 184 136 70
-16.1081 8.70823 12.9511 57 49 23
4.88227 9.52103 -14.0743 170 142 78
62.0712 24.8838 6.89124 29 22 16
33.937 5.74079 12.8406 23 22 15
31.3922 -7.08428 10.3535 78 72 37
-40.8924 11.881 13.7102 54 39 21
26.0135 -18.9484 6.76059 173 168 96
19.511 -16.2167 -10.9125 66 65 36
49.0168 3.12951 11.5992 73 75 50
30.1973 -3.2685 13.4288 29 25 16
-38.7043 -18.7971 7.87268 132 94 42
-25.9831 23.1885 -5.4633 55 37 20
-41.9449 10.0033 13.1373 51 35 16
-17.5886 24.3305 7.0177 42 29 18
-62.1817 -13.444 -5.46819 140 91 43
-29.3699 -1.04381 -11.5848 132 135 90
-30.6374 -30.251 9.43863 148 121 50
32.7126 24.1855 5.4689 56 37 18
-1.0258 25.0449 -2.40752 97 65 29
15.7956 -26.3159 -14.0828 62 53 23
-3.50508 -7.87266 11.7314 65 56 29
18.2221 13.8788 -10.5317 66 55 37
55.4235 25.772 -10.4764 51 34 17
23.9013 -16.8079 14.5916 60 39 19
-69.1114 -15.0644 -4.7018 36 31 24
-43.5085 18.7377 -3.14033 101 64 30
36.6935 -4.62974 4.29027 70 74 50
-19.0139 0.33667 10.7028 62 51 25
25.6829 -19.6757 14.9452 56 37 17
39.2722 -2.69188 2.87706 72 75 53
45.2324 8.21634 11.122 63 55 28
57.2277 0.513229 5.61349 68 63 31
-30.1959 -17.9777 13.6829 67 61 27
-25.6168 -31.176 10.53 57 39 19
33.9338 10.387 -12.3791 94 86 46
-5.27032 2.50177 14.3742 33 30 19
-36.8496 -4.76682 13.1823 39 36 20
-8.83956 10.0724 -15.388 113 95 52
-34.9753 -4.83939 13.5052 57 52 26
-1.40019 23.6763 6.46591 56 37 18
-49.0938 4.58124 -4.97088 40 39 29
19.0552 23.6936 -4.63768 88 57 27
9.67508 -34.6987 -16.137 58 39 19
-50.5882 -13.3767 -3.45013 56 38 18
18.4257 -20.3323 9.80959 65 63 51
67.0163 3.49999 -4.80846 144 114 90
11.6744 6.61058 -11.0767 215 196 133
51.4749 28.9084 11.6232 53 35 20
21.6261 7.18257 13.7725 55 39 18
53.4886 2.34703 -12.2273 158 175 131
-39.1907 -23.0547 15.1547 48 32 16
-26.412 1.83009 -11.3701 127 124 74
-40.6023 -13.7975 11.3631 46 34 19
51.4054 10.1001 15.2963 59 44 21
60.1907 2.18592 5.48003 70 75 55
22.4439 15.1834 -12.7072 136 96 45
-18.8429 24.8142 -2.94836 87 60 29
49.4473 16.5896 15.0398 47 28 16
-20.3439 -5.8346 8.96991 74 77 51
0.254166 -13.2832 -0.865234 65 64 36
16.1345 20.9385 -7.59705 132 86 39
28.4339 -21.1586 6.95749 151 139 68
15.7546 4.67561 -13.2493 120 98 49
-11.3204 -2.8494 11.4556 60 47 20
30.2503 16.2663 13.7764 62 44 22
-14.5315 -2.77193 10.6125 59 43 20
56.1626 6.43627 12.2668 64 63 37
34.5344 -26.0279 10.1567 97 69 34
-37.5288 -29.9635 14.8484 34 26 15
-57.3775 -5.82102 -3.46058 153 105 44
13.7768 0.447479 12.0779 17 19 17
-12.3916 2.13722 12.4498 58 46 22
44.2333 26.9365 -4.0026 115 77 38
53.888 4.03591 11.7642 71 64 35
-41.3053 -15.4464 8.09305 80 83 67
29.6242 -9.45274 8.31613 121 119 72
64.5478 25.2699 3.24574 26 19 15
-59.606 -14.9783 -0.438599 54 48 24
-37.4095 23.8457 -0.271469 83 55 26
40.354 8.76938 -10.8904 49 46 38
51.3109 28.1412 -5.72946 92 57 29
-17.6842 15.2681 13.7276 57 40 19
-4.24576 2.9626 -15.9329 141 117 63
-65.1108 -19.6601 -1.59259 48 41 21
-45.6495 1.13503 -9.74461 148 105 43
49.4443 25.5602 7.15544 63 43 20
74.0989 8.46151 -4.96616 123 129 91
-38.9447 -28.8181 14.2299 38 30 17
64.9027 17.6314 11.4312 55 37 18
52.5591 0.610775 -10.4375 121 129 91
-43.2335 -1.72102 -10.6985 139 100 48
-47.1232 -2.21811 4.34303 64 54 25
-33.1988 13.2008 16.0671 18 18 15
6.84877 -11.944 -13.2934 84 65 31
18.79 21.0587 9.37245 62 39 18
8.31041 -6.08176 -12.0051 149 119 60
22.599 -24.1025 8.87169 115 90 36
1.89865 5.08124 -15.4421 157 142 88
28.1599 9.94607 14.3187 34 29 18
49.3725 12.2859 -15.5404 135 99 41
42.7246 -0.996153 -4.51971 92 100 73
-0.733932 8.77516 15.3611 58 42 20
21.3876 4.29464 13.6256 43 33 16
10.8151 -25.0297 -18.6183 137 112 58
-29.9486 21.8446 10.9153 65 40 19
-44.242 4.77223 -10.9305 134 97 42
-36.303 -16.0502 6.82092 138 108 48
-66.5065 -16.8951 -6.11632 136 91 45
-54.5971 -9.44901 -7.09952 70 70 60
58.9557 16.0311 13.1082 31 26 17
7.00635 -14.642 -11.8652 49 39 23
1.91248 -1.53927 -14.571 98 100 73
47.0656 1.70743 6.80244 71 74 56
-11.3504 21.024 11.8319 29 24 18
8.66744 -0.57522 -11.9803 144 143 85
-4.21669 -0.603764 13.9028 52 43 21
46.0503 15.7724 -11.1503 96 81 46
67.8554 15.5452 -10.1352 146 108 48
-33.4979 6.45012 -14.7053 88 81 52
-33.9281 18.1894 14.1056 29 24 16
8.82298 -17.4306 -11.0465 61 53 23
-1.34566 25.658 1.49969 60 39 19
2.63743 23.1779 -5.00511 49 42 35
-31.4437 -27.5339 13.123 42 33 20
-68.8483 -19.124 -6.50961 140 94 42
27.5478 -1.11498 13.42 18 16 15
-14.5829 -7.89817 6.47795 64 64 38
0.327797 24.5102 3.60538 61 39 18
-21.2064 2.12835 11.6386 54 49 27
9.10486 9.73596 14.0817 63 44 20
-9.59155 -9.50727 7.87105 63 60 34
29.3828 -5.84675 -9.6649 138 144 98
68.0779 6.88566 -1.91209 54 44 38
16.0412 -31.0715 -13.5123 56 46 22
-19.9237 24.1914 7.26514 40 30 18
27.6748 -10.2187 5.42412 65 66 42
-50.6594 18.1088 1.49455 89 65 42
12.9423 1.66915 12.8817 18 18 16
18.7945 21.5639 -7.80821 129 86 40
-36.861 11.7191 -14.1993 92 75 45
-3.47911 7.22671 15.3457 51 41 19
66.8955 -1.4773 -1.07291 113 118 82
-49.1467 -3.03937 -8.36374 167 110 54
-5.22067 25.4526 -1.77335 83 54 26
2.84929 -4.93748 -13.5899 148 147 91
-47.6014 7.65653 -1.54935 55 48 29
23.1102 1.06918 -15.5044 61 47 38
58.3889 6.99177 -12.3428 138 146 109
36.8103 15.6946 10.1111 24 20 16
16.5413 -34.4759 -21.3977 139 144 100
-38.8542 13.9757 14.726 25 21 16
-31.3752 -4.77206 14.1868 57 45 20
18.397 -5.91872 -14.9126 123 114 59
49.2633 28.655 2.92703 65 42 18
13.1959 -23.1714 -17.1432 142 137 77
44.6494 28.581 -1.82825 68 53 35
21.3321 24.7295 2.79628 60 39 19
-44.0916 -6.12506 8.52521 62 58 29
44.4085 22.0878 7.57133 63 41 19
19.9217 -17.5718 -13.79 77 74 50
32.3683 -34.1021 13.7733 52 36 17
-17.0089 -0.489264 10.5544 57 44 18
-51.6332 -4.62279 -3.49794 31 30 23
-36.7983 -33.2951 15.215 26 22 14
66.495 12.5137 -11.5688 128 125 72
-48.0049 -6.2916 -8.85817 129 98 45
41.8471 11.7913 -10.6334 148 134 79
-81.1132 -18.1105 -4.215 135 95 46
27.3735 -10.3066 -4.73778 124 124 75
77.4868 14.3075 2.32893 17 17 15
23.949 9.37318 -14.4466 102 93 57
-37.787 -27.1563 8.9445 129 95 42
28.5646 19.1471 13.0719 60 38 19
-18.2744 -8.02618 -4.95964 116 115 70
-37.9058 22.274 -2.81548 78 52 26
-60.3593 -20.8472 -10.3224 134 92 39
-34.092 -33.7081 10.2147 142 100 45
48.9072 19.7116 -12.7322 82 56 25
54.6259 -0.0905876 -7.94052 106 115 85
15.3746 -24.3304 -13.1633 69 61 24
-14.7015 0.338654 -12.7269 138 117 61
-45.1435 11.5033 9.75459 54 35 17
62.7281 16.3273 12.923 36 28 19
32.7703 -21.6654 9.66843 117 93 43
-42.6558 -8.88291 9.69209 67 62 37
19.2159 16.1388 11.749 56 39 17
-46.8953 9.9725 -3.7458 59 42 23
60.1592 26.7648 4.45417 39 29 17
28.7466 24.8793 8.16159 59 37 17
19.4767 -34.3435 -17.4674 68 53 21
-36.1883 -7.79091 12.5373 44 34 18
-68.0532 -23.5164 -3.04994 56 52 26
-40.5746 -13.0756 -11.2538 133 137 84
16.6963 11.7882 -10.8074 139 103 43
70.0051 20.0945 -1.35328 78 53 26
60.6684 2.14115 -4.43866 155 170 130
60.3516 28.5529 -0.13942 32 23 18
-34.1154 -13.363 5.99074 181 171 96
63.5152 6.74712 -6.14886 114 117 94
33.2089 3.52677 -12.2254 133 129 71
10.0252 -24.6153 -12.0899 59 46 19
-22.148 25.2595 2.75385 63 39 19
-51.1659 14.9183 5.69409 62 38 17
15.2153 -15.9935 9.49942 77 78 65
20.0416 13.5829 12.2989 59 38 17
-54.7044 -25.9238 -7.39948 76 72 45
9.0202 -32.0342 -15.4295 55 39 20
35.5974 20.5565 -9.47655 135 100 48
42.8398 4.2099 -10.4861 141 122 63
-65.7026 -33.8119 -9.37529 79 59 33
-45.8432 -1.64959 -9.61768 146 101 41
41.8388 5.74938 -10.496 154 152 106
-22.5569 -8.02713 8.33675 83 87 56
-39.1694 -14.4056 8.62453 125 110 55
-64.7238 -10.348 -2.16781 38 29 17
-23.0528 4.22282 13.6291 57 50 28
63.7748 3.38088 -4.99818 173 183 131
41.1047 20.3392 -9.21925 162 119 50
3.73612 17.923 -11.6408 134 89 41
-61.5945 -33.6369 -11.6814 118 84 42
-53.5665 14.8438 2.63778 68 46 23
-14.7447 15.4406 -13.7309 62 56 40
-80.2853 -22.4711 0.0698395 50 45 22
9.01668 -3.74713 -11.5672 153 140 68
-52.571 -16.3092 -3.78781 56 38 19
-25.4693 -36.2121 7.87097 130 88 43
41.5202 2.85543 8.81551 64 58 30
13.0619 -9.82106 -15.0482 72 70 42
26.8484 -7.56245 -9.2037 98 103 73
-64.4662 -28.1722 -9.06924 114 84 34
-0.0154648 -7.12165 -13.852 141 127 69
-21.6248 22.5976 -8.61796 90 60 27
-2.93328 4.94647 -15.8551 120 98 49
-50.9253 15.1018 0.0994296 135 87 39
1.0784 3.24416 -15.3884 66 59 44
-38.111 -12.1876 -10.2753 109 110 69
-13.1711 24.5572 6.8434 22 19 14
-11.502 -4.19258 -12.66 125 110 60
64.2764 1.83296 -4.427 148 155 104
-12.9803 1.63503 -14.0176 145 133 82
71.1152 17.0996 -5.71846 77 52 25
-48.1888 18.1135 -0.208984 131 88 43
-62.4679 -34.9788 -3.17497 18 17 15
26.0313 0.920732 -15.4544 118 96 48
64.8518 25.8172 -1.52875 38 29 20
-26.323 9.27277 -13.4234 132 119 71
67.3983 18.7723 -9.67409 143 120 57
59.9902 28.1827 -3.39708 87 63 34
44.5347 24.6309 -6.94028 126 77 37
-16.6238 -7.71528 -6.72696 127 126 76
-61.1548 -24.6763 -3.74269 53 37 19
-3.4907 25.7055 -1.22501 84 58 28
77.1452 12.9457 5.23281 48 34 19
62.0759 25.9861 3.95058 19 18 15
9.13239 2.32288 -12.2136 75 77 54
11.6015 -16.1686 -9.39596 76 67 31
-51.6193 13.464 -0.0540009 143 98 39
-31.1412 24.3758 0.568161 61 42 21
12.9854 11.6263 13.0098 63 45 20
-12.6609 -8.46021 6.98557 66 63 35
35.6538 23.8653 6.13015 28 21 17
3.70986 7.93593 -14.651 117 102 59
-49.4247 -12.1039 -9.48011 132 87 39
-7.46101 4.38371 14.4684 52 40 18
29.8651 25.6307 5.10992 42 30 16
12.4878 -6.65315 -14.8914 85 71 41
-28.423 -36.3097 9.08388 113 79 35
-21.9139 1.22746 -10.7601 155 147 81
-59.6062 1.2507 0.544952 70 54 35
-83.46 -22.4335 -0.577728 46 43 23
-27.5338 20.534 12.5343 62 41 21
-28.1551 -30.197 9.375 114 81 38
13.6075 -32.8187 -20.9262 129 85 41
-20.7226 24.6227 5.00012 40 27 16
-24.8148 -34.6457 14.448 67 48 21
-4.07693 24.2129 6.37476 56 38 19
-72.5766 -19.5093 -5.84148 116 83 48
-8.29656 18.0328 13.133 62 40 19
9.24966 5.39022 -12.148 118 103 53
41.6518 25.3722 -5.40584 128 83 40
24.3666 25.6983 -3.84833 79 53 28
54.7971 27.8272 5.32458 69 42 19
-6.2872 -2.54005 12.9536 59 47 20
-28.5526 14.4001 -14.0768 115 103 87
18.447 22.9267 -6.03687 98 64 29
-19.4672 25.3143 -0.538616 75 49 24
38.9837 -32.1983 5.80186 99 67 29
-11.5383 9.35306 -15.3595 152 115 51
-39.2615 -3.1345 13.4013 61 55 31
27.3149 -4.39555 13.9623 56 39 17
9.21358 23.4981 4.61137 63 40 19
49.3541 13.8477 -14.9254 113 80 35
2.05568 4.56884 15.2444 49 42 24
-44.2853 -8.01471 0.856373 105 89 35
-51.3322 -1.57414 -1.76356 87 87 72
35.5071 -6.98639 0.51334 68 70 48
-76.9073 -19.6788 0.0720825 17 16 15
62.737 23.0731 9.03807 45 33 19
-57.805 -21.5462 -11.3259 139 99 45
-31.2638 17.9947 14.2142 62 41 19
-46.5544 -8.08191 -9.71289 37 34 28
-45.6488 19.8724 -0.349106 119 82 40
-26.9574 23.3015 -3.99694 42 31 21
-62.3303 -8.25864 -3.06725 108 76 38
1.87107 1.76353 -14.9817 71 71 56
29.0303 25.7234 -0.170471 55 35 17
-13.2569 25.2695 3.83287 61 39 17
