ply
format ascii 1.0
comment Created by Open3D
element vertex 1387
property double x
property double y
property double z
property uchar red
property uchar green
property uchar blue
end_header
6.95998 2.40073 5.84517 95 91 43
-2.16029 -7.17256 7.48114 100 102 99
7.41432 1.29253 -4.7556 82 85 5
5.49819 5.69896 7.06487 117 100 83
5.37777 -6.6923 -7.4695 86 91 86
-4.55027 1.39813 -4.78044 100 99 41
-1.31793 6.64071 0.941462 97 95 44
-0.60505 7.55498 3.40361 115 107 78
-2.0681 -8.95578 7.60689 93 97 93
-1.76368 5.58504 6.33898 94 87 37
3.76422 7.69557 -2.86643 87 88 65
4.29198 -7.02423 -7.46433 81 88 83
7.50182 1.8026 3.68596 92 91 38
1.92017 -2.16628 -6.9482 14 15 10
-2.22295 4.58938 6.88216 94 86 34
-2.47189 4.75941 -4.42817 100 94 35
2.02678 -4.07996 -7.34159 65 72 68
-1.56387 -7.65168 -7.40136 77 80 73
5.40305 6.50011 -6.74277 87 89 18
-2.61422 -5.84501 7.34111 103 104 100
0.376654 7.56144 6.89915 105 102 57
1.11456 -5.90099 7.36792 78 78 79
-3.80479 -3.328 -7.18941 83 87 86
2.20712 -5.96106 -6.69637 11 8 5
-0.616376 5.75315 -7.36191 77 76 39
-1.44375 -1.7183 -7.1678 54 60 55
5.25931 3.71453 -7.54525 83 89 78
4.97853 6.77977 6.08552 86 83 38
0.0488324 7.20627 -7.4267 79 81 45
6.34492 -6.23602 7.20886 89 87 89
-3.45243 -8.67597 7.59955 100 101 99
7.18586 -7.4006 0.859003 82 89 84
3.80498 6.54585 7.55177 86 86 64
0.0509179 -6.41317 -7.23384 16 18 20
-1.91852 -3.97773 -7.26467 74 85 78
6.0299 4.88654 -6.33616 80 82 4
1.08072 6.65082 -7.27084 71 78 61
-4.09744 1.72685 -7.24626 93 97 54
2.64503 4.75395 6.50275 94 95 90
6.5774 -7.73384 7.19284 86 86 87
6.1194 4.48036 3.31893 95 93 34
3.37578 -2.8879 -7.10656 25 25 28
6.0878 -0.302385 -7.18221 90 94 86
-2.27566 4.54636 7.3511 92 87 40
1.65991 -8.66162 -7.45102 73 77 73
3.11074 -3.27084 6.67756 13 7 9
-4.39831 -8.03363 -7.3464 87 94 89
-4.25698 2.04411 1.01815 104 94 52
2.13503 8.97462 -5.44105 76 79 76
-4.39679 1.54286 -5.39636 100 98 43
-3.13698 3.90819 -3.71597 105 102 53
5.80583 5.26051 2.49271 89 86 30
1.58995 -4.7183 7.29776 83 88 88
7.62126 1.59829 6.58528 95 95 51
-2.70188 4.35987 -2.32844 97 90 35
4.97358 -3.32126 7.06657 85 86 83
-2.87231 -1.87611 7.14811 106 104 102
4.98933 0.318166 6.759 84 88 86
7.89906 0.294464 -1.57032 85 89 35
-2.07618 5.14272 4.45783 92 88 27
-4.3891 1.76402 -0.233935 99 94 37
4.82429 -6.29335 7.17917 83 86 84
2.25719 9.14812 -5.36927 77 79 76
6.8681 -1.88446 7.03273 90 88 89
-2.87497 2.57254 -7.46264 75 82 62
-0.159079 5.57047 -6.93522 74 79 66
2.81701 7.72576 -2.43051 94 88 66
-3.16007 3.73912 -6.45457 101 98 39
2.65895 7.62111 2.45315 100 101 44
7.94216 0.256117 -0.924407 86 87 33
6.86701 3.03949 3.17274 93 91 37
-1.60119 5.78076 1.98016 92 90 30
7.21915 2.15899 5.20745 92 89 34
1.24455 -4.17798 7.21564 84 87 87
7.12211 -2.1552 6.97675 91 89 90
3.79906 8.6719 -4.0593 79 84 78
1.15291 -3.80063 7.21357 80 85 85
2.16555 1.65204 6.39428 12 6 11
-1.48175 0.422799 6.96156 103 105 103
3.46257 2.26334 6.53167 16 14 12
-3.83592 0.506916 7.54938 99 100 93
3.79301 8.87122 -4.00251 79 85 79
-2.6563 4.38196 0.90684 94 89 31
4.92692 7.26831 0.963397 78 76 25
-2.9019 -8.44065 7.54093 100 101 98
-0.0780411 -2.74804 6.70887 35 23 22
-0.208449 -0.481878 7.01317 91 95 94
6.19282 4.15792 5.84207 96 94 46
7.64053 0.875187 -3.62105 84 86 22
2.74805 7.51873 -7.25261 79 76 31
2.92301 0.533007 -7.05396 87 90 86
-0.45111 -1.3625 -6.8793 5 3 1
4.9124 3.19034 -7.16403 86 91 83
3.54163 7.3787 5.71518 98 97 43
-2.0296 5.15297 4.86148 98 87 34
-0.45918 -5.11376 7.14402 34 28 28
6.05935 4.7298 4.75908 95 95 49
-3.60674 -3.88689 7.28451 107 103 103
5.34406 -2.40481 -7.25362 89 94 88
3.00875 4.67369 -6.75045 86 91 85
-3.47274 2.93695 6.36012 93 84 38
1.66542 6.22657 -6.97385 77 79 69
-4.27269 1.45052 7.11062 95 88 61
-1.30452 6.12353 5.71001 95 90 30
-4.64242 1.43308 -1.10497 100 97 40
-4.02662 2.27231 5.83983 93 90 40
6.68593 -5.47662 -7.20071 84 88 86
-4.22603 2.02345 1.58027 99 92 39
3.4784 4.28224 -6.80882 87 91 86
6.58862 -1.50323 -7.26048 88 91 88
-0.891795 -0.997274 -7.05495 19 16 14
-4.22523 -4.76065 7.29215 107 102 106
4.93825 7.04247 3.61199 83 81 37
6.07056 4.29391 -7.38645 87 89 44
-4.09229 2.40419 -2.23294 102 97 40
-2.36066 4.71953 -7.36578 98 96 46
3.44189 -6.83576 7.13171 17 14 13
-2.57229 -0.484873 7.03201 106 106 103
-4.14099 -0.990036 -7.07895 90 92 89
-1.79367 5.59889 2.51479 90 87 28
0.229467 -1.5611 -6.85402 11 9 8
1.51206 7.61197 5.24868 105 103 50
-1.43067 -8.9177 7.59041 94 97 94
2.77131 7.51519 5.25091 102 99 52
4.58811 2.17627 6.75265 81 85 81
3.37698 7.67008 1.11907 104 100 51
-1.64273 6.13467 -2.43385 99 95 37
-4.0095 2.22691 6.1496 95 90 49
-2.89223 -6.54246 -7.34619 82 87 84
1.39532 7.82316 -5.94714 73 70 34
2.90735 1.68473 -6.97551 88 89 87
-0.248557 7.75244 -2.82135 100 94 49
4.84157 7.30437 1.09122 74 72 21
3.46053 -3.51451 -7.28005 49 56 55
6.70608 3.1434 -2.14743 99 89 36
7.30964 -5.09492 6.79016 89 94 93
-1.11677 -4.66327 7.34828 85 85 83
5.33222 -8.47856 7.317 84 75 83
4.64463 -5.31284 7.21024 83 85 82
-3.70865 -8.62953 7.56779 100 101 99
4.18462 7.61745 -1.08864 81 82 36
1.45938 -1.58131 -7.18235 66 71 70
-2.9756 4.01291 -0.336838 98 95 35
5.19651 7.01003 -0.768598 89 87 31
2.07127 -6.31969 -6.69427 11 9 7
-0.740742 -6.01144 -6.92126 1 0 0
-3.0661 3.88123 -2.20948 103 100 28
-0.715357 6.09743 7.66532 104 99 103
6.82022 3.0863 4.8151 92 92 41
-3.61843 -1.47164 -7.13496 86 91 87
-2.90973 4.14635 -7.18567 97 94 48
4.96215 7.2489 -0.477925 80 80 29
2.41898 -8.98697 -7.50138 74 77 73
1.69059 5.98509 -6.83062 79 84 69
5.05539 2.30291 6.80327 81 86 81
-2.01847 -0.658689 -7.1222 76 88 83
4.69156 -4.70256 -7.37837 86 92 86
3.74494 -10.2135 7.42143 53 53 51
3.91295 -5.17703 7.25143 75 79 76
3.17636 -6.38132 7.08029 8 5 5
0.479582 -8.71418 -7.45855 68 75 70
-1.83881 -1.06105 -7.151 81 87 82
4.78018 -0.880074 6.83225 87 83 86
0.429259 7.741 1.08516 105 104 46
3.20986 5.59899 -6.80325 80 87 78
3.45035 1.86162 6.50701 14 8 10
4.04127 -4.7651 -7.37262 79 86 81
6.35048 3.67455 -2.43259 82 83 18
0.243172 -0.990256 7.03157 83 85 85
4.23408 7.50447 -3.66842 74 75 45
-2.16653 1.38449 6.99616 101 104 100
5.04603 7.19798 -2.42278 83 80 25
-3.23482 -8.82858 7.61553 97 100 97
-1.50097 -8.0775 -7.36574 75 81 75
2.86177 7.29054 7.23174 90 89 48
-1.16198 6.69403 5.92617 98 91 41
3.25427 7.62897 1.35163 102 98 50
2.75795 2.54486 6.26568 13 7 8
-0.161628 2.88371 -6.89451 81 84 82
1.04091 2.42941 -6.9234 85 85 83
4.4097 7.56192 -1.81764 64 63 22
-0.808928 7.55023 -3.6463 94 91 41
6.50705 3.59516 -1.98585 85 87 25
-3.54976 2.733 7.51463 93 90 57
-2.66883 4.13726 6.19839 91 85 31
1.75977 -4.80656 7.31072 81 86 85
-0.39607 -1.71807 6.84578 29 23 22
-3.96521 2.6405 -1.20532 103 97 47
-3.22969 -5.5276 7.32655 105 104 103
4.02182 4.27241 -6.87774 87 91 85
6.8571 2.76218 3.93791 100 95 41
1.67477 7.63852 -1.56373 98 94 53
0.581992 6.8486 -7.34467 73 80 62
-4.19633 1.95506 0.540023 110 98 68
6.28312 4.02695 -6.31432 78 80 5
2.22858 5.60977 6.55038 90 94 89
-3.91295 -2.31164 7.22424 105 100 101
-3.90194 2.66973 2.2529 96 92 42
-4.16405 1.33833 7.52712 100 96 72
7.64784 -2.8877 4.69732 93 95 91
4.07557 -7.64051 7.33802 76 83 79
0.819311 -0.174285 6.90025 40 43 45
4.28906 -8.40972 7.38689 87 81 86
6.17686 3.96082 3.46551 95 91 33
3.46972 -3.37953 6.59781 18 7 12
3.6726 -2.20115 6.65216 26 19 19
5.99418 4.55868 -1.78888 93 88 35
3.77968 -7.72016 7.35051 63 71 67
-4.74787 1.13558 -1.82178 100 97 47
-3.21615 3.28862 2.96006 95 91 23
5.63791 5.90996 -6.06498 77 80 9
7.39078 1.92086 3.43835 90 90 32
4.54436 7.34285 -5.14219 74 75 27
3.62881 -5.71854 7.12391 34 30 28
-0.272182 -3.97008 -7.27431 52 54 52
-0.108067 2.38853 -6.9044 83 82 82
-1.14594 -1.89475 -7.04005 14 14 12
0.0873531 7.71737 0.327782 102 99 49
1.61659 -2.04669 -7.14626 53 57 54
3.5665 2.84876 -6.93281 89 93 88
3.42527 -0.858118 6.93839 80 85 81
4.63493 1.96644 -7.01072 91 95 86
6.02444 5.0415 1.13031 92 89 46
1.95876 0.26944 -7.1242 84 88 84
0.402572 5.58589 6.78377 91 96 87
-1.64302 2.40331 6.95401 95 98 94
3.24137 1.86082 6.38883 12 3 8
-1.17595 7.23665 -4.15641 98 95 42
-2.07402 -0.628322 7.02006 106 105 104
2.0196 -2.72852 -6.79005 60 61 49
-3.20085 3.91904 -3.19138 101 97 48
2.60726 1.18571 6.42712 11 6 8
0.283376 -2.61582 6.73048 21 14 17
-1.32823 6.80046 -3.32685 102 96 33
-0.280969 -6.28144 6.96059 22 15 15
4.37891 7.38186 -5.52575 75 73 31
-2.22974 5.10578 -4.55781 107 101 44
7.71585 -2.95754 3.33403 86 92 85
5.90216 4.88101 6.07169 94 90 37
5.78574 5.10922 5.22176 93 87 34
-2.08676 -0.993836 7.06468 105 105 104
7.60671 0.770263 -1.60791 86 86 28
1.90988 -0.64197 6.8924 62 68 66
4.80857 1.12461 -6.99785 93 95 91
0.777703 5.22077 -6.68995 83 87 81
-4.46577 1.58357 -2.97462 99 96 42
-2.57038 -1.00641 -7.12513 84 87 83
2.85873 7.68825 -6.02556 81 79 31
3.16578 -6.18591 7.05143 12 8 7
3.7925 -5.61683 -7.42313 73 79 75
4.79942 -7.76323 -7.49137 84 89 83
6.75357 -4.1626 -7.15528 86 88 85
-2.36211 4.70376 -2.36651 102 96 29
-1.72381 5.69569 2.28376 89 88 29
-3.4668 -7.61728 7.48719 104 102 101
2.69063 -7.30527 -7.44738 69 75 72
-2.59414 4.3001 5.48806 90 81 37
7.62564 1.30895 4.3727 97 96 41
3.24491 -4.85068 -7.20579 33 32 31
2.47339 0.251213 -7.10139 85 89 84
-2.90684 -7.74289 -7.3809 78 90 83
-4.06095 1.87806 -7.25363 94 98 51
2.45474 4.4204 -6.75827 87 90 86
1.01008 -0.238382 -7.13856 78 84 80
-0.870303 7.35274 3.83535 100 94 46
1.28303 -3.02769 -7.28683 64 69 66
-0.701113 -5.21314 -6.83511 5 3 3
3.63187 8.57206 -3.26679 91 94 89
2.04646 -2.18403 -6.82056 14 15 10
-1.76643 5.67018 1.38037 91 89 33
-0.133703 4.50617 6.75816 95 99 95
2.90138 -7.15745 7.18689 10 4 6
-0.950994 3.37161 6.87389 94 97 93
5.25637 -1.14068 6.91512 87 82 87
3.78849 -8.40479 7.37688 81 83 85
-4.28821 1.72955 -3.78082 101 98 34
3.7716 8.90106 -4.68535 84 83 79
-2.21677 1.56879 -6.97783 83 87 85
3.80508 -2.26369 6.70266 25 20 19
-2.46983 4.52505 1.62528 93 88 29
-4.18183 2.08868 1.80069 99 92 40
0.242223 -1.34779 6.97952 57 55 56
-3.99191 -6.27016 -7.28326 85 87 85
7.36372 1.79412 -0.567719 89 89 29
-2.23008 -4.41923 -7.28174 77 83 78
4.56396 4.06743 -7.0702 85 90 84
0.498291 7.69317 -2.92472 102 89 64
5.60643 5.63404 2.49106 93 87 31
5.12066 -4.08683 -7.36021 88 93 88
2.91826 4.44986 -6.74872 86 90 86
1.389 0.795055 -7.08488 84 86 85
1.57878 7.77859 -6.88917 83 81 25
6.56039 3.53371 3.5695 90 87 34
-3.92618 2.37964 -5.13541 106 101 48
-3.98923 2.14846 7.32815 95 89 51
-1.81456 5.67619 0.440983 91 86 34
-2.19011 4.7403 3.11307 98 91 28
1.5562 4.61791 6.54113 93 98 95
7.20868 -6.93046 5.18579 40 37 39
5.15692 -2.61569 -7.25818 88 93 87
-4.20047 2.14001 -0.0844696 101 95 40
1.65804 4.27216 -6.7714 86 87 84
-1.37981 6.12151 1.93161 101 94 40
4.80947 -3.30454 7.07416 83 83 80
0.320653 7.67102 2.6311 106 103 47
-2.08114 4.95502 4.56927 94 87 23
-2.69237 -5.00565 7.34322 106 103 102
0.701807 7.14069 7.47441 96 93 69
7.78883 -3.15231 2.71874 85 89 82
-2.4281 -6.65321 -7.34521 75 85 80
4.15746 4.87327 -7.00247 79 86 77
0.391833 4.39149 -6.74781 84 85 83
-1.78933 -6.74852 -7.31984 64 76 69
-2.56359 -1.58268 -7.12254 80 87 80
-1.35162 6.83751 -5.24315 109 103 51
-3.72351 -8.08755 7.53212 101 102 101
3.52401 7.37421 6.00961 98 97 47
3.40229 7.67561 -2.02164 98 92 61
-0.0714617 5.55117 7.34376 92 95 90
2.343 -0.667868 6.92204 66 73 72
-1.85762 -0.447051 7.0211 104 105 103
-4.30894 1.68021 4.91861 94 89 36
7.49831 1.0717 -6.53231 82 87 13
0.73159 7.68703 2.4798 108 103 49
-4.18408 -7.10887 -7.32251 88 89 88
-3.72196 -8.72035 7.56581 99 100 99
0.386608 7.71627 -1.36476 99 98 50
-4.8555 -7.49748 -7.29152 87 91 88
7.67717 0.755383 -4.80668 83 87 18
-3.29613 3.13279 5.06554 94 87 29
-4.21781 -6.36481 -7.27319 88 89 87
-0.101215 4.88341 -6.72641 79 84 78
-2.11178 3.61246 7.78886 98 100 91
-4.06774 -6.35445 7.43828 107 101 104
6.27007 3.85494 5.45034 93 91 39
-1.99461 -2.42533 -7.20763 74 80 77
4.53016 -8.10328 -7.51569 82 87 81
6.29569 -6.15044 -7.39661 87 90 88
0.911217 7.1034 -7.4242 76 81 59
6.90705 0.915428 7.55978 81 83 72
1.89138 -3.30482 -7.13702 17 22 20
-1.8253 -0.845553 7.03478 103 105 102
-3.8079 2.77592 2.46807 95 89 41
-2.2821 -5.42656 7.34042 103 102 100
7.45222 1.65594 0.3669 89 87 29
-4.17145 2.06639 -1.30185 105 98 46
0.178382 -3.48207 -7.26134 53 61 60
0.0839014 7.67467 4.3183 108 105 50
-4.47652 1.29405 6.72565 98 92 54
5.66726 5.44128 -2.60283 82 85 13
-1.97864 -0.328729 7.00035 106 106 104
-1.56031 5.86192 3.24844 90 87 30
4.21959 -9.77507 7.686 73 77 74
6.72633 -9.13526 2.40048 39 38 37
3.65823 7.35645 6.36299 99 97 54
5.18398 -7.29537 7.24641 86 84 86
5.72391 -5.70382 -7.41747 88 92 89
4.75971 7.06348 4.99111 79 75 36
6.89421 2.94961 1.03239 94 91 26
-1.69875 -5.44176 -7.2883 42 47 41
-1.96099 -0.972073 -7.12325 81 89 84
-4.63165 -1.62185 -6.81579 93 94 95
-3.09016 3.80297 -4.07391 103 102 36
2.42267 7.61307 5.40741 104 102 52
-3.65084 2.85863 3.09772 93 85 31
-3.28038 3.40573 0.959664 99 93 30
-0.606326 7.72086 -4.22463 90 88 41
6.04273 -1.6972 -7.27505 90 94 90
-1.2354 7.20772 -4.65954 99 98 43
-4.75054 1.22255 0.196406 97 93 40
-3.82156 -8.27178 7.54773 100 102 100
-0.144779 0.448215 -7.09134 85 85 87
-4.43312 1.54816 -5.14486 101 99 45
5.38225 6.66257 0.0323792 94 89 37
0.30509 7.88212 -4.73697 95 85 54
-1.65069 2.85338 7.21177 92 98 93
5.64948 -0.151346 6.81558 86 84 86
7.57729 1.59587 2.76856 93 92 44
-4.09893 2.39934 1.59795 98 93 39
2.78737 -2.52718 -6.64901 24 17 16
6.80079 2.89637 6.20244 95 92 46
6.52882 -2.673 -7.25623 87 90 88
-0.636756 7.74794 -4.90361 88 89 38
-2.39289 4.86701 -5.82054 103 98 32
6.17007 -4.10249 -7.34357 89 92 90
1.004 7.5673 6.41764 106 101 54
-0.474477 5.72817 7.61639 94 96 87
-4.13789 2.07609 -6.96177 100 97 49
6.44275 3.55893 4.60787 93 92 34
5.71802 5.55505 -6.58037 82 84 3
0.678417 1.74834 -6.96629 82 84 81
0.898445 -1.43631 6.9729 75 76 76
-0.00957012 7.83304 -5.41265 90 87 35
6.00601 4.78194 -1.16562 88 87 33
-4.49071 1.61119 1.56926 95 91 44
1.25815 1.8244 -6.97869 85 85 84
4.47344 7.28758 3.3873 89 87 39
-4.22623 1.9409 0.387988 105 97 46
2.01339 1.80174 6.4126 7 4 8
5.46165 -1.38345 -7.25535 90 94 89
-0.877777 1.39984 -6.97943 76 82 78
3.1406 -9.45714 7.51315 80 84 82
-3.00957 -0.951311 7.10168 105 104 103
5.46624 5.81592 -1.14826 91 91 22
-0.336823 -8.45252 -7.4388 69 80 74
-0.0610805 1.69826 -6.95609 79 85 85
-1.33452 -8.73826 -7.40153 75 80 75
4.0491 -8.68073 7.41329 84 80 85
4.69924 -8.86906 -7.60302 78 82 78
7.35006 1.94326 4.61942 91 91 40
5.50843 5.82633 -7.22357 103 93 70
-0.565534 7.7306 -1.02207 103 96 52
3.34145 -7.56174 7.31986 27 30 30
5.04614 -9.24526 7.41413 83 82 86
-2.98992 1.62755 7.72761 99 101 94
6.72355 -4.53463 7.1004 90 87 91
-0.106947 -3.17682 -7.13829 5 10 10
-2.70343 -6.66578 -7.34637 80 85 82
-0.667792 -7.48452 7.50996 89 94 91
-0.814834 3.93011 6.95633 93 98 92
-1.39235 6.30935 2.75786 97 93 33
-2.1799 4.88536 6.0327 92 91 38
0.298503 7.61845 5.59113 110 103 54
-4.62622 -3.95753 -7.12138 91 92 90
4.19002 7.39635 3.81676 94 92 40
1.31352 -3.0541 7.12871 73 77 74
5.82533 5.05257 5.07974 93 88 34
2.85115 -1.14949 6.9659 79 83 82
-1.3671 5.99166 6.37838 92 85 22
-1.33111 6.42952 2.1472 100 95 44
-3.98253 2.35826 6.05113 94 91 47
5.31881 6.35965 -4.9484 96 93 32
1.33774 -3.16711 7.15179 77 82 78
7.00407 -9.0319 7.05619 89 92 88
-3.16478 -8.73803 7.59188 98 100 97
7.39871 -2.30432 5.47676 96 97 96
4.17 -6.81071 7.28762 76 78 75
-0.625628 -1.19582 6.96984 74 73 72
3.44318 -3.16365 6.53479 24 7 14
6.82669 2.45356 7.58586 86 88 70
-1.17955 6.94132 3.53999 89 93 41
6.67925 -5.37155 -7.20852 83 88 85
6.50005 3.36899 -3.50409 68 73 13
5.37321 -4.21929 7.13509 86 85 85
3.35622 -6.10153 7.06289 17 12 12
4.04467 -6.49587 7.27408 69 71 67
6.14582 4.2054 6.71921 94 95 45
2.28266 1.1605 -7.01248 87 88 87
-4.67674 1.38201 2.63019 95 90 34
0.296212 -2.33563 6.75675 24 16 18
-0.816385 -8.26063 7.59792 94 95 94
5.01998 7.14258 -3.92714 83 85 8
2.30893 -0.443274 6.78212 35 39 35
0.81192 -0.814266 -7.15552 73 77 76
4.30922 -2.43472 6.96614 48 49 46
-3.49067 3.0045 -0.317822 96 92 36
3.43516 9.41043 -4.47574 77 82 77
7.95153 0.332323 5.96036 93 93 52
-1.99674 -0.577126 7.01562 106 105 104
7.07781 2.4101 7.12849 89 91 63
4.04211 5.97499 7.46075 78 79 69
3.66647 -3.13816 -7.268 54 62 60
-3.50516 -2.30564 -7.17367 87 88 89
3.30241 -6.32758 7.08487 12 9 8
7.60121 0.22327 -7.00064 92 93 46
7.5532 -3.6647 5.47871 87 96 92
-3.12172 3.6949 -5.45377 105 101 37
1.45081 4.35573 6.5686 90 94 92
-0.586135 -8.33064 -7.44033 73 79 74
6.87161 -7.08355 2.27604 23 20 19
0.896161 1.33721 -7.02582 83 85 82
-2.05212 -6.88571 7.49477 97 99 97
4.84782 7.31097 -3.02861 82 82 19
-3.7315 -2.47317 -7.16549 90 88 88
6.8303 -8.70942 2.15723 25 21 20
5.60577 -0.187288 -7.13108 91 94 87
4.1689 -5.45879 -7.40526 80 86 82
7.1091 -7.26912 6.97028 88 91 89
5.23516 6.88214 -2.9899 91 90 18
2.5651 -4.78647 7.24644 70 74 73
4.68255 7.40717 0.19841 73 70 26
6.53724 3.5843 -4.8766 82 83 20
-1.90443 5.87724 -7.07217 95 95 42
-0.987416 -7.6808 7.53252 92 95 93
7.13042 -2.27596 6.97892 91 90 90
5.36531 5.98104 5.64398 105 97 49
-1.45198 -0.977543 7.04043 100 102 99
-2.02354 5.60712 -1.27462 95 92 35
2.45357 7.96638 -5.8097 86 87 46
-0.921079 7.45198 -2.60038 91 90 34
1.64878 3.21317 -6.83542 87 88 86
2.98967 6.84399 7.54862 85 87 54
6.90114 -0.80868 7.08903 81 82 75
6.71897 3.33309 3.92702 94 92 41
3.1839 7.70457 0.887949 100 95 46
0.503618 -3.71555 -7.28636 61 70 68
3.50255 -3.44839 6.64634 18 10 13
0.724956 7.30909 -7.42676 80 81 51
0.89375 4.93674 -6.70552 84 86 82
6.54385 -0.969053 7.00145 85 85 79
1.39145 -2.78023 7.10227 73 77 74
-3.97643 2.49765 4.0129 90 91 38
7.61351 0.811262 -5.64498 87 89 17
-2.02955 -2.02214 7.11711 103 104 100
2.02455 2.2512 6.40962 11 5 8
-1.70246 5.68165 5.18963 91 85 32
-3.7724 -0.240933 7.16996 99 99 95
7.63917 0.938829 6.11726 96 98 46
-1.4202 -8.53888 7.5491 96 98 95
4.27382 7.4387 -5.87605 72 68 34
3.84976 7.63611 -5.04591 78 82 64
-0.626081 3.99838 6.84493 93 98 93
2.45451 5.07692 6.51451 94 95 93
5.56328 5.9511 0.967157 88 86 26
3.99243 -6.80301 7.28792 64 66 63
3.25516 8.89703 -5.27217 80 80 78
3.63468 8.0282 -5.21545 87 85 73
5.97189 -8.79964 7.34365 85 76 85
-1.95152 2.71069 7.51369 91 98 92
2.65465 7.61959 0.4547 95 95 38
0.429645 -6.81908 7.3755 54 59 55
3.3703 -2.04659 -6.95597 23 21 22
-3.20571 -7.83435 7.5144 102 103 100
1.30251 -2.57065 7.06178 63 65 62
-3.6333 2.82714 6.84615 92 83 45
-3.4534 3.20357 -5.66131 97 95 38
-4.03148 2.49542 1.89216 94 91 35
2.74761 7.50458 5.5456 101 98 51
-0.988435 -3.66195 7.30276 72 75 74
-2.34144 -8.32564 -7.39931 78 83 78
-2.44277 4.63351 -1.63849 98 92 36
6.17717 4.15061 0.859049 94 91 25
6.13886 4.56703 5.69517 95 93 46
5.88743 -8.91465 7.35472 84 76 85
1.45935 -3.6474 7.19239 80 85 85
-0.516942 4.69843 -6.87477 79 84 73
1.04803 -6.41118 -7.38367 58 65 63
-2.14289 4.75173 4.5816 96 86 26
-0.940255 -0.0419941 -7.11359 78 86 77
6.08012 4.28687 -5.23139 84 84 10
-3.62272 -8.51732 7.56439 100 101 100
3.10257 7.72597 -2.50861 90 87 67
-0.818813 7.22395 -7.22486 98 92 45
-0.578603 6.44116 7.66594 119 103 124
-4.15954 2.30538 -0.272842 101 97 40
0.406108 -0.190044 -7.15597 77 81 77
4.54809 4.75293 7.30356 94 96 87
-4.22755 2.08362 1.16565 101 93 43
-3.10583 4.01851 -2.53435 98 96 35
6.08146 4.1031 -3.62299 84 84 9
3.73995 8.25113 -4.88522 83 84 84
1.23555 -5.09114 -7.36349 58 64 62
6.76703 -8.21253 7.17474 87 86 89
7.34751 1.82919 -4.94198 81 84 13
-3.30381 3.06511 4.48312 93 84 28
4.0016 7.59003 -4.28555 78 79 62
-3.64719 -9.44288 -7.26794 69 68 64
-3.32456 -1.7066 7.17368 105 102 102
-4.01723 2.33226 4.03071 95 88 38
6.31173 3.90667 -5.40891 77 80 5
7.70413 -3.45953 5.04682 92 94 91
3.78589 5.00949 6.6853 90 93 89
0.47344 -6.42065 7.28967 35 30 32
1.10713 -0.173423 6.88446 26 27 30
5.95402 4.84487 -3.5242 80 83 18
-4.74363 -7.02218 -7.28134 89 90 88
5.16902 7.05117 1.44817 86 82 34
-2.30725 2.43233 7.6518 95 98 92
-4.12223 2.26299 3.49559 95 91 35
-3.46365 -2.80009 -7.17044 86 87 86
-2.30463 4.57493 2.82679 95 88 25
-1.85186 5.77547 -1.64055 94 91 36
1.39044 -4.06975 7.21705 82 87 86
4.60261 1.24214 6.74734 81 84 81
-2.74371 4.55111 -4.11271 100 94 43
-4.05965 2.56241 1.0026 98 93 37
2.98343 6.45549 -7.38915 79 79 67
-0.36618 5.35052 -7.00527 73 77 68
6.82529 2.48757 -4.15345 85 84 14
-4.30097 1.90083 -0.190163 100 96 36
-3.89661 -3.8081 7.26315 106 102 104
-4.64186 1.35093 -1.51591 98 94 41
7.13968 1.87047 -7.43449 93 90 56
0.702644 -8.09048 -7.41298 72 78 73
-1.16259 4.11246 -7.1056 76 84 71
2.66274 3.20657 -6.86638 88 89 87
-2.75882 4.17217 5.20812 91 84 37
5.7193 2.56852 7.43103 73 75 68
-1.23544 4.55976 -7.34622 72 77 52
-3.33364 3.31663 -1.32982 100 95 33
2.13578 -0.207756 6.55711 15 15 17
-4.27132 1.92484 -0.0400743 99 93 36
6.40794 2.21936 -7.70756 89 92 72
6.58752 3.56449 0.152564 88 87 32
2.24754 6.28907 7.29088 85 86 76
1.70739 -3.56834 7.19014 76 80 83
6.8468 2.58474 0.812585 91 88 23
5.2663 6.94768 1.08079 89 85 35
-3.8844 2.75643 -1.11486 100 94 44
5.96529 4.99867 -0.384937 87 87 28
4.87563 7.31864 -0.179638 71 70 25
6.62115 2.9745 -2.9012 89 89 16
6.69445 3.30923 5.33723 92 91 53
3.35036 0.856014 -7.0468 89 91 88
4.25082 -9.60076 7.60882 77 80 79
6.69991 -1.03568 7.0145 85 85 80
6.33775 3.71214 5.70582 93 90 34
-2.72324 -3.67243 -7.24506 83 87 84
5.89221 4.93024 6.2877 92 89 40
4.10608 7.61245 -2.82403 76 78 50
-2.50033 -6.24735 7.36919 103 103 102
-4.16804 2.1418 1.66555 99 92 40
-2.95404 4.0194 3.74531 96 91 36
0.496928 4.34549 6.63707 94 95 94
-3.75831 2.82033 -2.21502 98 93 38
-4.02389 -9.50541 7.60121 84 84 85
2.02109 7.6545 3.12963 104 103 49
2.20835 4.3165 6.57509 90 91 87
-0.204216 2.49103 -6.90446 83 83 84
-1.11694 -1.29777 7.01312 92 93 91
-4.80108 -5.66119 7.22459 99 97 94
0.548189 0.599925 6.54426 19 19 22
1.76086 7.67967 0.420234 104 97 49
4.60647 7.36808 1.90373 84 81 36
-1.0297 -7.05015 -7.36619 65 73 68
7.19439 -3.59112 6.92014 92 92 93
-2.82125 -7.60928 -7.37406 78 90 82
6.80525 -8.53115 7.19356 88 85 89
3.52146 -4.63428 -7.32988 63 66 65
-1.75504 -7.44601 -7.38306 77 83 75
6.13122 3.98057 -1.00993 88 86 19
2.83167 7.68806 -2.31259 97 89 65
-4.16922 -6.2958 7.44731 107 101 104
1.76505 -1.07798 -7.18629 70 75 70
-3.2289 3.42448 -1.69828 105 98 44
-3.8713 -2.18345 -7.16852 89 89 86
5.0353 -5.25495 7.19879 85 86 84
-2.89158 4.0669 3.14058 92 86 35
2.74481 -8.63179 -7.47994 75 80 75
1.26113 8.9809 -5.27966 74 81 74
1.62058 7.65777 -1.97617 102 93 55
-4.33103 -3.56979 7.21235 103 99 101
-4.14616 2.36078 -0.400265 99 95 36
-1.6218 6.21267 -2.38088 99 95 38
-1.71663 6.06944 -5.13418 100 95 42
4.05705 7.58294 1.6568 96 96 38
-2.23608 4.98875 0.730485 97 94 28
-2.43234 -6.16037 -7.34041 75 85 79
-0.981268 6.89758 7.12763 92 91 51
5.83754 5.12657 -0.680696 85 84 25
7.21184 -8.90481 5.5146 69 70 72
5.22103 1.28901 -7.02647 89 94 87
1.12016 8.86817 -3.00647 82 80 64
-3.6999 2.92469 -4.27699 97 95 35
7.32045 2.04317 6.30139 89 90 39
-1.10635 -3.75377 7.30169 86 89 88
1.09903 9.25862 -5.07537 83 86 81
0.892609 -0.348497 -7.14077 76 83 78
-3.04892 -0.592045 7.06902 105 104 103
6.88783 2.75613 7.40674 89 91 60
-2.06554 5.27597 2.481 95 90 32
3.7585 9.044 -4.1126 76 84 81
3.82568 7.60377 1.90113 97 97 43
6.40696 3.68671 -4.62792 78 79 11
4.85867 7.23225 -4.25797 79 81 12
2.23544 -4.26642 -7.2957 61 63 61
2.6229 7.43081 6.66447 99 99 49
-0.34241 6.87735 -7.43392 81 81 31
-1.17705 6.96465 2.5036 92 91 42
4.53475 -2.48618 -7.24446 83 89 85
-2.39593 4.39115 -7.44207 95 95 29
-3.34013 1.0386 7.68052 102 101 95
5.86681 -1.36189 -7.28117 90 94 90
-4.75377 -4.0366 -7.0816 92 93 91
5.56282 5.79307 -2.16894 84 85 21
7.75113 0.578236 3.37927 94 93 34
-4.91747 -7.05798 -7.27617 89 91 88
5.81111 5.27047 2.16315 90 87 34
-1.04663 7.48549 -6.52749 96 94 43
-1.77646 -0.994391 7.04135 103 104 102
0.602817 -1.6323 6.88873 37 34 35
0.484833 0.930803 -7.06721 81 81 82
3.42876 -8.19234 -7.4838 78 83 78
-3.8245 -4.23005 7.25367 107 102 104
3.79163 7.38836 5.0517 97 97 47
-4.2005 1.84987 -3.57703 101 99 33
7.68464 0.690851 -5.11259 84 88 15
6.05376 -4.63463 7.17535 89 85 87
-3.36861 -3.01869 -7.17543 85 87 85
6.40101 3.6292 3.00779 91 89 30
7.76353 0.636841 -2.79303 84 87 15
6.25301 -1.20199 6.97362 90 83 86
6.06567 -7.10203 7.23029 89 85 86
-3.12067 -4.0313 -7.21421 84 87 84
0.377018 -7.59238 7.4893 88 91 87
-2.15536 -8.16043 7.54536 98 101 98
5.81099 -1.07952 -7.25957 91 94 91
6.05562 4.41182 -0.916191 94 90 25
2.83998 7.51092 4.57047 101 101 48
-2.82805 4.11478 5.33224 92 85 42
3.35206 7.62861 2.6663 103 101 53
5.48613 6.45316 1.02093 93 86 28
5.56812 6.06425 1.09341 90 86 31
4.89529 2.20499 6.74395 82 87 82
-4.21647 -7.71179 7.51041 105 101 102
-1.04643 7.01588 6.37298 94 90 34
2.24122 -2.2471 -6.55738 11 14 8
3.01088 -8.78932 -7.50596 75 80 75
2.35651 9.15158 -5.36868 77 80 76
6.80379 -7.39687 7.14213 90 89 90
-1.33575 6.47942 2.30705 96 93 40
-3.96123 2.24891 7.23658 95 89 47
-2.63544 2.58089 -7.41253 73 80 62
7.81506 0.413706 -5.32861 83 87 15
-1.51087 -3.15226 -7.24022 60 71 67
4.33943 7.58896 -1.60882 74 74 32
5.56147 5.62225 -1.73822 89 86 22
6.19161 -3.66375 -7.33082 89 92 90
5.74782 -7.68357 7.23713 85 84 85
-2.44723 4.60443 0.666811 97 91 30
5.51559 5.59227 -1.08305 92 88 24
7.13578 0.534601 -7.55093 88 89 66
-0.668565 -0.226669 -7.13488 74 83 74
5.5635 -6.57829 -7.45763 86 91 87
4.88108 -5.08982 -7.38007 86 92 86
-3.82316 2.85822 -6.02286 100 99 38
3.44518 8.8825 -3.30201 91 85 91
3.38012 6.95645 7.47838 82 84 45
3.05414 -8.28083 7.4224 75 83 80
7.28854 -7.50865 6.36868 89 96 93
-0.473977 3.72419 6.76216 93 98 93
-0.0162268 0.365688 -7.10856 81 83 79
4.90399 7.20571 2.03426 71 68 28
-3.60203 2.85826 6.91261 92 83 45
7.21872 2.15929 4.9454 90 89 34
3.32782 -9.67377 -7.49315 85 89 87
-1.86389 -3.41266 7.21394 101 102 100
-3.58496 -7.9526 -7.36571 86 94 89
2.31266 4.82366 6.55038 93 95 91
-4.08207 -7.1222 7.47301 103 102 102
4.18225 7.55306 1.71804 94 93 38
-3.27987 3.29828 2.26209 98 91 34
-0.36827 7.78248 -4.41949 95 89 41
0.737045 8.31383 -4.71772 97 94 82
1.78255 9.30442 -5.25788 69 70 67
-4.86536 -3.64447 -6.96236 92 95 92
6.211 -4.58618 7.16766 89 84 87
0.573891 -3.90674 7.19898 68 71 70
5.02008 -7.51319 -7.47293 85 90 84
-0.229124 0.537524 6.87152 78 80 79
2.59739 -5.96026 -6.88109 13 8 7
7.15361 2.20082 3.27732 92 90 26
5.31114 6.20232 6.54089 95 92 41
-2.20888 5.2191 -3.13685 99 96 34
7.14751 2.04292 0.077898 86 83 24
1.46668 -6.73625 7.39136 78 80 81
6.69463 3.23121 5.58837 96 95 51
-1.69596 -5.27264 -7.29026 43 48 42
-3.98747 2.59443 -4.47894 104 100 44
-3.94987 2.6227 -5.9183 100 99 45
5.73073 3.62779 -7.63277 88 91 73
-1.14453 7.19515 -2.08554 96 92 40
-3.56844 2.96495 2.51876 93 85 34
1.47317 7.97347 -2.62534 89 83 49
-4.17187 1.94534 -1.69718 101 97 34
4.93516 7.21465 -3.86864 81 83 9
5.18216 3.88947 7.52109 75 77 69
-1.60058 2.82109 7.11479 92 98 93
7.73778 0.748594 2.86504 94 92 37
2.47395 9.63003 -4.73878 75 80 79
6.11933 4.77294 0.323641 90 88 30
0.841323 7.60081 6.21636 105 103 53
-1.67795 0.320354 6.96875 105 106 104
6.77113 -9.09546 2.3298 30 29 28
-0.105869 7.26864 -7.40292 83 84 36
2.99961 -1.74358 -6.79388 22 16 16
5.5127 4.12502 -7.60114 86 89 80
-1.52448 -5.88772 7.29492 79 82 82
6.64299 -0.86572 7.0251 83 84 78
5.57069 5.80775 -5.69261 70 74 5
-2.94842 4.26141 -3.20214 98 95 35
1.98959 -9.78723 7.50894 75 76 76
-1.56861 6.16678 -3.67734 102 98 26
0.265938 -8.88862 -7.46018 71 76 70
-4.42795 1.15212 7.03956 96 92 67
2.89801 7.54506 -7.01007 80 77 33
6.47632 -8.44277 7.25985 88 80 86
-3.82601 1.376 7.71454 102 101 89
3.82579 5.28865 6.78097 86 88 84
-2.26903 1.38032 7.03111 100 104 99
1.25746 7.74277 2.30406 109 100 64
0.439862 -0.460629 7.00256 82 87 87
-1.20612 7.2023 -4.00093 100 95 44
-0.959485 7.12478 6.46773 103 85 54
-4.03167 2.3481 -1.74329 102 97 33
7.49958 -2.85362 2.50148 89 92 85
2.2304 -1.95769 -6.67304 15 14 9
2.9359 7.67989 1.12159 106 102 58
-1.86766 -0.573519 7.02772 104 105 103
-2.72379 4.30751 -0.486693 95 91 28
6.70859 2.85308 -1.77661 105 91 46
-4.17149 2.28897 1.23534 100 92 39
-3.32847 -0.499434 7.11581 105 104 102
3.25801 -3.10856 -7.13456 16 17 17
0.708884 0.424048 6.63274 16 16 18
6.50109 3.52108 -2.62562 84 86 26
0.12821 -6.38356 7.12264 32 28 24
-1.63038 -10.0081 7.65806 48 46 44
-1.35332 3.26284 7.13837 93 98 94
-2.42211 4.40537 4.41144 93 85 32
3.745 8.93583 -4.81867 82 85 80
-4.11004 2.12537 -6.81494 101 97 41
-4.01007 -2.97794 -7.17821 87 90 89
0.434031 0.580404 6.5563 22 22 24
2.71574 -0.0155811 -7.1071 85 90 84
1.90454 1.12336 -7.02752 86 87 87
-3.48135 3.09227 -1.16602 96 91 30
4.18761 -1.36574 6.88683 82 86 83
2.25478 4.63087 6.56044 92 95 88
4.53353 6.12821 -7.64144 94 90 85
-4.06019 2.2305 -1.68756 103 98 34
3.51727 7.6651 -2.10164 91 88 56
5.07389 7.08851 -6.40346 86 87 18
-1.9416 -7.92803 -7.40063 74 84 77
-2.26427 4.97601 -7.28816 98 95 58
0.140458 -8.72839 -7.45887 70 77 71
6.88176 3.02018 1.13004 93 90 29
4.80382 2.33945 -7.03647 89 94 84
6.3983 3.83316 -7.26904 87 88 42
5.43602 6.49464 -1.64308 89 90 27
4.04868 3.32596 -6.95534 89 93 89
0.442781 7.73254 -0.611018 102 98 46
1.14721 -1.24105 6.98027 81 85 84
6.49677 3.52125 7.29124 85 82 61
-0.82711 7.40591 3.27909 105 101 53
0.735155 7.66389 4.85288 109 105 53
-1.43692 6.56588 -5.55186 105 99 39
1.79472 -8.72976 7.52346 84 89 86
3.99642 -6.54844 -7.46773 78 85 80
6.34855 -6.39105 7.19946 89 86 88
5.77696 5.23961 3.34563 90 86 34
5.87764 -8.43513 7.27895 86 80 86
-1.57616 6.09935 -0.865907 99 93 37
6.64572 3.20322 -5.70067 79 82 4
-3.92351 -4.56283 -7.24632 88 88 87
-4.17406 1.82259 -5.71718 100 100 30
-4.56628 1.42649 -2.71009 99 96 38
-0.536938 7.58837 3.06114 108 101 69
3.99046 -9.5094 7.57299 79 81 81
-4.39151 -6.60065 7.45838 106 101 103
-3.49592 3.02121 2.08867 93 87 32
-3.76969 2.80436 2.08087 93 89 36
-2.38824 -4.67333 -7.28938 78 85 79
-0.728843 7.13363 -7.31127 98 90 44
-3.12476 3.63209 -5.67274 102 100 36
8.09728 0.131176 3.41387 91 92 40
2.69745 7.41956 6.77687 98 98 50
5.154 6.80113 4.23079 90 87 40
-2.20401 4.78309 5.53998 95 84 32
0.929118 -9.13047 -7.45681 79 82 77
0.775061 -5.73935 7.30217 56 51 53
-1.49648 3.88838 -7.22988 74 81 64
0.0784744 7.93454 -6.34787 94 90 38
-0.557201 6.59327 7.63778 122 103 121
-3.98187 2.51875 2.18842 97 93 39
-3.95901 -0.589409 7.08686 96 95 93
1.87371 -9.2948 -7.48318 79 82 78
-1.32919 6.40835 6.68062 94 83 27
7.53889 1.71224 5.74141 94 93 43
7.66561 0.699783 -5.25547 82 87 9
2.69011 -3.2461 6.83573 15 12 12
4.56057 7.46585 0.794664 80 77 32
-2.07614 0.332907 -7.04882 83 89 84
1.68423 -3.25089 7.17207 76 81 82
0.216135 7.74984 0.731796 103 103 41
6.44628 -3.75723 -7.31092 87 90 88
0.817223 -3.65114 7.16492 61 66 64
3.96899 4.73558 -6.8748 82 87 79
-4.34988 -2.04388 7.03267 97 97 93
2.84949 -1.4435 6.96256 73 73 73
-3.64186 -4.91356 -7.25406 86 88 85
-2.4147 -6.13772 7.37121 101 103 101
-3.79087 -4.6795 7.28722 107 103 104
-3.29761 3.40188 0.504568 99 95 28
2.50085 7.57341 5.54876 104 100 55
3.49114 -0.45977 6.89811 78 83 84
1.43643 -4.43626 7.25717 83 88 87
2.4273 6.33199 7.36596 84 86 75
0.571109 -2.33301 -7.07384 27 30 31
1.98484 3.21071 -6.85827 87 88 87
-1.02693 7.192 2.46081 96 94 41
6.94437 -8.8435 1.96693 46 42 40
2.01873 -9.08447 -7.49724 71 74 71
2.54134 7.59996 0.0282784 95 94 46
-0.392502 7.62644 4.78813 111 105 50
4.41811 -1.18966 -7.15419 90 95 89
-3.97242 2.49207 5.45543 95 90 39
5.49155 5.56564 5.27502 105 95 53
5.25577 -3.98949 7.13192 83 88 83
7.31009 -4.84951 6.82803 87 94 93
6.91026 2.50401 -2.47211 87 84 11
6.03596 2.96733 -7.673 88 92 77
-2.75972 4.10261 7.03396 94 86 44
-0.597261 -6.96699 -7.36814 59 70 67
-4.16869 2.0729 0.475322 110 98 65
8.01571 0.153067 0.848488 89 91 40
-1.66724 6.13643 -5.6311 98 95 32
1.32262 7.57979 5.69659 106 102 52
3.59416 7.62775 1.42289 96 96 38
6.47038 -8.52918 7.27168 88 79 85
-2.56823 4.53078 -1.65605 97 90 38
-2.26424 5.30629 -5.37499 105 100 41
-1.68568 5.65358 3.90723 89 86 29
4.86442 5.34202 -7.62413 83 89 78
-3.19355 3.31407 6.36235 94 87 33
6.96276 -9.18085 7.08565 87 89 86
4.82896 0.568101 6.76261 83 88 85
1.93219 6.6301 7.50721 88 90 77
-3.9266 2.51951 5.89503 93 90 38
0.627296 -4.91124 7.29548 70 72 70
2.7546 7.65482 1.33159 99 96 50
8.05324 0.0560036 1.72174 89 89 42
1.12074 7.65434 0.33324 107 98 59
1.70952 -3.43523 7.18346 76 81 83
0.946244 -4.90986 7.30738 81 85 83
0.203152 -3.30281 -7.24431 39 46 46
5.49162 6.15595 2.33945 93 87 29
7.5393 0.887623 -2.37641 87 87 20
5.91019 4.6555 -2.4551 69 78 9
-2.95685 -8.68609 7.55878 99 100 97
6.80868 2.97701 6.31414 93 92 47
-3.80115 2.83939 -5.68016 100 98 44
-2.33486 4.87232 -1.4495 102 96 36
4.93363 6.96284 4.86698 85 82 36
6.84067 3.04416 5.26885 100 95 48
1.78192 7.18239 7.45441 94 93 54
-2.47675 2.95883 7.81031 99 100 94
3.94682 5.71186 -7.26486 77 84 76
-3.38974 -9.52012 7.66495 81 83 80
2.40644 7.53824 4.48496 101 101 42
-3.6478 3.04417 -5.85116 97 96 37
7.36716 1.79935 0.718157 88 87 31
7.67556 0.670232 -1.63589 85 86 29
2.20661 -4.22686 7.21299 55 60 61
4.68992 -2.26239 -7.24266 86 92 87
5.49657 5.80584 6.57269 98 95 37
6.8204 3.19264 1.68993 95 92 51
1.7026 -4.03412 7.21881 78 83 83
-0.945194 7.21124 -7.12878 98 93 46
-1.12518 -10.0505 7.65504 42 42 39
7.59989 1.6599 6.24109 93 94 48
4.64556 7.42692 -0.571466 69 67 21
2.2641 5.50956 6.52467 90 95 89
3.36915 9.24733 -3.79071 76 82 76
6.9313 2.37852 -0.220662 92 88 26
2.8859 -3.29762 -6.97078 12 11 11
-3.59223 2.98872 -4.14721 95 93 32
4.33105 7.56197 -0.816855 78 79 36
6.05445 -3.5527 -7.32156 89 92 90
-2.69087 -8.73522 7.5866 98 99 97
0.785621 -4.33007 7.25123 83 85 84
2.12692 -9.71652 7.51941 76 79 77
-2.36411 1.67281 -6.99518 83 88 84
3.67319 7.56252 -6.41914 68 65 27
-2.59307 4.59568 -4.84764 99 95 31
-2.15386 5.03186 6.00088 91 90 38
1.0393 2.58129 -6.91353 85 85 83
7.36452 1.55851 -3.98334 91 93 16
1.09689 9.23091 -3.23837 75 79 71
0.086606 -2.61558 6.71004 28 18 18
6.65661 3.30485 -5.77994 77 80 4
0.591924 -2.96359 -7.25715 36 42 43
1.27003 6.0983 -6.81272 77 79 71
1.60743 7.7758 -6.97324 81 80 27
-1.47881 3.08441 7.15961 93 98 94
5.49417 6.29345 3.20052 97 91 42
1.97518 -3.22245 -7.03582 13 16 12
-2.19185 1.78787 -6.97476 83 87 85
6.38714 3.56417 -3.37237 74 79 9
-2.04737 5.66642 -2.00747 96 93 43
1.33454 5.43601 -6.69457 82 88 84
-3.79426 -3.66746 -7.19724 84 87 86
1.35446 9.12945 -3.02348 76 75 65
7.60321 0.909922 -3.38935 82 84 13
3.72413 8.37342 -4.99213 84 85 84
-0.0745981 1.20576 -6.9859 87 85 88
1.65835 -7.37699 7.40555 76 83 82
6.24283 1.29146 -7.64305 85 89 78
2.65135 7.6006 0.300914 96 95 41
-0.613266 -8.98824 7.63982 90 95 92
-4.94835 -7.5969 -7.27201 88 93 88
-4.30793 1.62913 5.36154 97 90 42
0.00796461 7.74564 -4.04514 100 83 54
3.17552 6.115 7.25056 88 89 78
2.66871 7.59253 2.9684 105 102 52
1.75878 7.32532 7.32693 91 90 50
-0.479986 7.66784 0.224608 105 99 52
6.53078 3.45807 -3.83307 75 79 15
5.78219 -9.10353 7.37206 82 76 83
7.3617 1.85906 -0.887526 89 88 33
-3.20584 1.32227 7.72032 102 102 97
5.36334 6.6867 -5.99308 83 85 7
3.20156 5.34977 -6.76316 84 89 77
4.44678 7.40926 -6.0994 71 69 33
-0.995528 -8.05681 -7.38658 78 81 76
-2.78305 -7.92274 7.51975 101 102 100
-4.53553 1.4222 -4.89818 101 99 42
-2.0142 5.78624 -5.24869 98 94 41
4.37923 7.45575 2.08927 90 88 39
2.03179 -8.14863 -7.4532 75 80 75
-2.38804 -5.83059 7.35756 100 103 99
-4.20058 2.2284 0.893631 108 96 62
-2.85447 -6.90901 7.39023 104 103 101
7.16298 2.22389 1.44123 87 86 28
-4.3457 1.87578 -0.615097 99 96 31
-3.10358 4.10837 -4.90694 101 99 42
-4.13147 -7.67589 7.51539 105 100 102
6.49364 -0.748558 7.00537 84 84 80
5.96066 5.096 -6.23844 80 80 15
0.506185 0.0862112 6.84535 37 40 42
5.313 6.39702 4.81217 96 92 39
3.21107 0.30299 6.59577 32 31 28
-3.31775 3.25126 -4.9214 100 97 36
2.00251 9.47165 -4.11846 83 85 82
6.24603 3.82189 3.46749 93 90 32
3.0829 9.21872 -5.19532 77 81 77
3.50504 -5.07993 7.24164 70 72 69
3.06485 -3.68933 6.85811 14 5 8
-3.52262 -6.22597 7.35373 105 103 103
-2.6196 4.57797 -4.71868 100 95 33
-3.3724 -0.103793 7.15854 101 101 97
-3.11552 -0.281496 -7.0515 84 89 84
0.199317 3.77421 -6.78371 84 84 85
-3.6647 -0.352193 7.15617 101 101 98
-1.71287 -0.171328 6.99879 104 105 103
3.87269 -6.82589 7.27637 50 52 48
1.58652 4.84714 -6.70272 86 87 83
-3.05258 4.18089 -3.30844 99 96 43
-2.20226 5.23429 2.15234 97 91 37
-0.47065 3.31926 6.76697 91 95 91
-3.36527 3.23313 -4.70896 99 96 40
3.02644 2.52567 -6.9154 88 91 86
-4.51985 -1.55098 -6.94825 88 95 89
-2.85259 -0.741837 -7.08909 87 88 84
2.29774 -4.20007 7.19721 44 49 49
5.55825 -3.18766 -7.30024 89 92 89
7.87954 0.35041 5.10699 93 92 44
-4.55892 1.4763 4.10707 92 88 38
5.13118 6.85601 3.92706 89 87 37
7.04754 -8.62867 7.0125 87 90 88
1.90338 -6.35405 7.22302 53 57 57
2.15776 1.38809 -6.98463 87 88 87
1.56881 -3.40536 7.19267 77 83 82
-2.26103 5.08384 1.65691 98 93 37
6.26394 2.77331 -7.67805 89 92 73
6.61739 3.32658 6.10088 90 92 41
-3.65172 3.09763 -6.87398 99 98 42
5.60072 5.92868 3.34173 103 94 55
-2.85284 1.76576 7.71388 98 101 92
7.42755 -3.50239 6.62243 94 94 97
-4.30962 1.70638 4.48721 100 84 32
5.84075 -5.71938 7.2272 87 85 87
-1.54054 6.4901 -6.34478 103 98 39
5.97976 4.64067 -3.72554 85 88 21
5.14711 3.24061 7.17188 75 78 71
1.66273 -0.371288 6.77486 23 26 27
5.55093 5.40241 7.22105 107 94 70
-3.32848 0.0486202 7.19013 99 100 96
8.02634 0.329325 2.8209 90 92 37
-4.3792 1.55331 5.52195 93 88 43
6.80494 2.70671 -6.87967 81 83 6
3.09952 9.14742 -5.23509 77 81 77
-2.74604 4.31753 1.61562 91 87 29
2.28244 -6.81084 -7.26846 32 37 36
6.80119 3.17431 3.8859 98 96 44
4.32361 -1.43779 -7.17256 87 93 87
2.12821 7.61183 4.08041 106 101 53
6.13389 4.50828 6.24402 95 96 55
6.75126 -5.07593 -7.1272 86 90 87
-3.30868 -8.3229 7.56032 103 101 99
8.07178 0.079752 6.13896 94 96 57
5.54894 5.4964 -1.11834 90 87 23
-3.2407 3.15324 4.61716 95 88 24
-0.902512 5.56005 -7.42746 76 76 25
2.11403 -3.45593 7.09112 54 53 59
-0.907943 7.48637 -1.81828 94 93 42
4.80813 7.26095 -6.32788 79 79 25
4.40017 7.56412 -1.22125 75 74 28
4.94489 -5.83788 7.22519 85 86 85
6.49708 3.49431 5.63515 92 91 37
0.0251839 7.78305 -4.67548 98 86 55
6.2021 4.49119 2.0204 93 90 35
-4.05962 2.28224 -1.88698 102 97 36
-0.660134 7.83962 -6.17257 88 84 40
8.04911 0.112248 1.16485 89 91 40
-3.0297 -8.31917 7.54378 101 101 99
-2.48506 -7.53461 7.47289 101 101 99
2.97163 6.52894 7.52168 83 85 72
8.12479 0.0354605 3.83673 92 93 45
-2.27291 -1.63483 7.10258 105 105 103
-2.33462 -8.62235 7.56427 97 100 97
-2.71296 2.64043 -7.44409 73 81 61
-0.967933 7.29545 1.65919 98 94 38
5.05627 7.10973 -4.65416 84 85 10
-0.550964 2.09464 -6.90849 82 84 87
-0.669749 3.11756 -6.86191 82 85 80
2.02001 7.844 -2.5491 88 87 50
2.86823 7.50568 4.02029 101 100 51
0.787999 4.26442 6.58345 95 95 94
-1.99475 3.6222 7.76435 96 99 90
-1.42156 5.9144 5.38347 97 87 29
0.122409 7.61848 3.46925 113 102 57
1.74526 -0.333019 6.70459 21 24 24
7.19441 -7.94206 6.86446 90 94 92
-2.57199 4.37172 2.2348 91 84 29
4.59154 7.41521 1.26709 83 80 34
3.40159 -8.86944 7.46753 86 83 83
1.42504 0.595577 6.55539 10 9 11
-1.81174 5.93432 -2.95245 97 92 35
7.93044 0.328547 5.76696 92 93 50
2.57781 -3.99076 7.10203 19 21 26
6.9689 2.33876 -0.324811 91 88 24
-4.32959 1.81661 0.0669842 99 93 36
3.89188 -9.08111 7.47981 82 81 85
1.07203 8.96271 -5.17815 82 87 78
-2.57949 -7.5373 7.47664 102 102 100
3.182 -4.19149 -7.31285 68 73 70
7.69631 0.530817 1.78026 90 88 45
7.20134 -8.1109 6.85002 89 94 92
-2.79323 -0.26937 7.0526 106 106 103
-2.54797 4.51616 -0.571602 98 92 33
1.64048 -2.97833 -7.15856 35 35 29
6.4371 -7.01339 -7.38877 83 87 85
6.71142 2.89853 -5.9625 83 83 4
1.88064 7.6537 3.12721 104 102 50
-1.76088 3.16246 7.59785 90 98 90
5.78597 2.33689 -7.59372 82 88 79
4.56565 -7.71229 7.32993 83 82 84
-1.7427 -7.02817 -7.35367 68 81 73
-4.15484 2.22071 1.52589 99 93 39
1.87851 3.01143 -6.8601 87 88 86
-4.49238 1.41876 -5.59746 101 101 45
-1.22138 -7.61539 -7.39359 73 80 72
-3.72222 -9.40927 7.5732 86 88 89
1.86307 -2.77619 -7.0342 33 32 21
-1.45484 -0.228266 7.01237 102 104 101
-3.15596 3.4283 6.34815 94 87 35
-1.02604 7.30533 -2.78291 96 91 37
1.75164 7.63797 -1.28548 98 95 46
0.0623808 -8.76724 7.57321 89 94 91
2.79918 5.93084 6.87815 90 93 84
-2.80122 4.05841 6.21593 90 84 32
5.0236 6.36105 -7.42152 93 84 59
-0.953173 7.07987 -7.20992 102 93 52
-4.1452 1.89944 -5.00097 103 99 42
1.1545 9.53951 -4.51713 84 78 78
-1.85703 5.8734 -2.71511 98 94 37
2.88127 -7.8135 -7.47069 77 82 77
-2.08439 -3.88727 -7.2663 74 84 78
-3.27505 3.09183 3.42506 96 88 32
4.36727 7.3196 3.58904 91 89 38
0.790184 4.25715 -6.76966 84 87 83
-2.67343 -8.35204 7.54533 100 101 98
-3.63181 1.45343 7.76211 104 103 96
-3.61467 -4.34306 7.26539 107 103 103
-2.54025 4.4574 -7.36575 98 96 42
4.67106 5.54603 -7.61748 83 89 75
6.88677 -1.53915 6.9938 88 88 86
3.17528 -10.0624 7.18052 66 67 66
0.775142 7.66261 4.37303 107 104 51
-1.25056 1.15215 -7.00844 79 86 82
6.97854 2.306 -0.183706 90 87 24
3.20621 -0.35869 -7.13217 83 88 82
6.11739 -7.26086 -7.46622 86 89 87
-1.80272 -5.42584 7.32669 94 96 94
0.453015 -2.52532 -7.06018 17 20 20
2.24711 7.59689 4.05017 106 102 53
5.05103 -8.21704 7.31806 86 81 87
-4.24594 1.67778 5.88963 95 91 42
0.921281 -2.70974 -7.29695 55 61 65
-1.60014 -0.389905 7.01208 102 105 102
-1.13267 4.65479 7.64601 93 94 89
-4.03753 2.36243 2.11526 97 92 35
-0.798999 7.45216 0.725986 94 92 44
-3.63097 3.07178 -6.20251 98 96 36
-2.26443 4.68887 3.44442 98 91 29
3.34227 1.26903 -7.02254 89 91 88
6.66429 0.151789 7.23786 75 77 69
-3.17495 3.87495 0.947699 97 92 37
7.47187 -2.64386 3.44854 90 94 89
0.562483 4.95494 -6.69412 83 86 81
-0.240474 7.77345 -4.24299 97 87 51
1.36813 7.78093 -6.18277 99 87 63
-0.415054 7.65429 2.93949 111 103 58
5.37716 1.62481 6.81166 82 86 80
0.42906 -8.02822 7.5132 89 91 89
4.34716 7.40683 -5.75194 73 70 31
-1.40431 6.78067 -2.72122 98 97 46
-3.80367 -3.70173 7.27529 107 102 103
2.46379 0.424162 -7.08796 86 89 85
-2.32827 5.12205 0.00412083 98 94 44
2.51912 -2.50351 -6.53636 19 17 13
6.86332 2.92937 6.53924 92 93 49
-3.81879 -3.78155 7.26997 107 102 103
-3.24133 3.2259 3.02195 95 90 24
5.4343 5.88484 5.28767 106 96 58
-0.40737 7.64192 5.08236 112 103 55
3.98574 -9.76616 -7.50562 88 93 91
7.76523 0.405342 -6.1607 86 88 22
2.84519 0.700963 6.51906 23 19 19
-1.64188 -3.15166 7.20627 96 100 98
-2.41885 -9.75096 7.73996 69 66 66
6.78498 3.26219 1.70271 93 90 48
-0.434592 3.82685 -6.81403 81 83 82
-3.75809 -7.63171 7.50123 105 101 102
-3.94638 -9.90882 7.78414 43 44 41
1.45138 -6.50494 -7.21773 16 22 20
0.23791 5.08237 -6.68249 82 85 79
7.43764 1.76831 -1.60159 86 86 29
7.4979 1.02699 -0.356675 91 91 34
1.77772 -6.07982 -6.74407 17 17 13
1.57948 -3.94094 7.21153 80 84 85
-0.42555 6.59925 -7.44342 79 81 27
6.42 3.67932 1.57838 88 86 28
-4.21422 1.92867 -1.90803 101 96 35
3.69127 8.06023 -3.53915 87 92 80
6.65513 3.50343 2.00922 91 89 39
4.15772 5.52053 7.27198 124 125 116
4.15439 0.111893 6.77393 79 85 82
-0.897683 7.5024 -3.82866 96 92 39
3.72513 -2.32698 6.64833 22 17 16
6.69796 3.32038 1.34397 88 87 32
4.46495 5.45349 -7.5415 80 86 75
-3.88351 1.50215 -7.37526 88 93 68
0.444459 -7.8159 -7.39007 71 79 73
4.8707 3.3223 6.9128 80 83 76
-3.34098 -7.31159 -7.37177 85 88 85
-0.120654 -8.43104 7.57319 91 94 92
0.964631 8.88628 -3.17393 83 82 66
3.50735 7.58461 3.00532 103 100 56
6.17422 -0.892569 6.93289 87 84 83
2.16742 7.70807 -6.22005 86 76 32
6.16637 3.96279 6.7268 95 92 39
6.90958 2.4337 -4.70881 79 82 9
4.45704 4.16881 6.88 85 87 83
5.50359 6.02104 0.248407 94 91 37
-2.28746 -0.117144 6.99849 107 106 104
4.00841 -7.29487 7.32383 67 72 67
2.93242 -5.35598 -6.98497 18 15 14
3.41657 6.35102 7.49063 82 83 73
6.71999 3.3735 1.71957 89 87 45
7.38167 -4.10603 6.70849 93 93 96
2.58759 3.00036 -6.88477 88 89 86
1.11816 7.63643 0.845602 102 99 45
-3.82493 2.66361 5.98826 93 89 38
-3.82593 2.84669 -4.72691 103 99 49
1.41504 9.56617 -4.5564 82 82 79
2.08263 7.63541 -1.18635 97 94 44
6.83325 -9.14375 2.25279 25 24 23
4.66332 -8.21934 -7.53107 81 86 81
-2.02854 -1.1923 7.07398 104 105 102
-0.488793 -1.21249 6.98971 65 64 63
5.82375 1.14927 6.92872 80 83 78
5.22502 6.59153 4.78137 95 92 40
-1.77985 -1.17112 -7.17812 77 82 77
5.33653 0.876078 6.74588 83 86 82
-1.63931 3.09235 7.38613 92 98 92
5.69389 5.62292 -6.53634 83 85 3
4.5928 -3.53494 -7.34152 85 91 85
0.334108 7.62393 6.61129 112 102 64
0.92511 -5.65986 7.33091 73 71 72
3.31967 -6.40896 7.09762 11 9 8
7.1431 2.17474 4.43807 91 90 33
7.4207 1.12216 -2.30249 90 89 21
-1.08134 3.98681 -6.98882 77 85 74
0.16736 6.10182 -6.99919 70 78 67
0.329246 -3.73172 7.06718 40 42 43
3.69996 8.02752 -3.83776 82 84 79
5.16178 3.75643 -7.51698 82 88 79
-3.72141 -7.40135 -7.34742 86 90 86
3.65394 -2.37262 6.60164 21 16 15
5.79346 5.26739 0.161041 87 85 26
1.57476 -5.1695 -7.12623 18 15 13
0.157098 -9.71981 8.20943 78 83 83
-3.94842 2.32791 7.07209 92 87 44
2.69557 -9.47451 7.5336 80 85 82
-3.24125 3.38383 0.0157833 104 96 43
2.63351 7.54643 -7.25804 79 77 30
6.33034 3.61023 6.67571 92 87 43
5.55018 3.27482 -7.60123 85 88 78
2.40577 7.57198 4.00797 104 101 52
1.86319 7.67673 -2.25517 100 91 53
7.73129 0.63644 7.27307 93 93 63
0.157615 5.18118 -6.70214 81 85 79
-2.33757 4.7278 0.732078 97 92 29
6.70713 2.81514 -3.92947 81 82 11
6.03991 4.82665 -6.41252 80 82 2
2.22027 9.48166 -3.41274 77 79 78
4.86532 -2.50477 -7.25882 86 92 86
7.07873 -8.77536 6.96574 89 92 90
-4.18723 2.18199 -0.604835 100 98 33
0.906728 3.25084 -6.84739 85 86 82
4.77232 -5.2221 -7.38844 87 93 87
6.553 3.52995 -1.97337 85 89 28
-4.54637 1.59623 -0.86822 98 95 40
3.93936 -5.8138 -7.42738 77 83 79
-0.901385 4.41189 -7.03207 77 84 73
7.25689 2.07588 -2.4498 84 83 23
6.2933 3.86978 1.16722 91 90 28
2.02903 -4.01352 7.20191 62 67 67
2.42058 -6.53039 -7.0098 7 7 7
5.2391 6.9542 -0.481712 90 87 32
6.38306 3.77378 1.76867 89 87 29
-2.83817 3.98471 7.35197 94 88 40
-3.21151 3.24277 7.46915 90 86 44
-2.53389 4.59287 -2.82422 100 93 32
-1.69126 -3.76886 -7.27856 70 82 75
2.39588 -4.11078 -7.32225 65 69 67
2.30546 3.7872 6.60803 60 58 60
5.1809 6.89486 -4.24879 82 87 7
5.82178 5.09094 -1.08533 85 85 26
5.1542 7.02892 -6.24301 85 85 11
-4.02133 2.45421 3.58531 93 91 36
3.66523 5.35306 6.70671 88 91 86
-3.31743 0.827094 -7.17015 80 86 76
-4.0537 2.48405 2.81293 97 92 43
-2.22318 5.32287 -6.85741 99 99 40
3.45166 -6.48284 7.12723 14 13 11
1.82762 -4.32266 7.24504 77 82 83
5.02748 7.199 -0.893309 84 84 24
4.97869 -9.43762 7.45214 81 82 83
-0.407132 -3.13736 -7.10627 11 19 17
5.12852 3.15548 7.1056 75 78 71
5.73895 5.12845 6.10693 94 91 37
5.60591 -2.40466 -7.2656 89 94 88
1.32036 -3.61556 7.19425 79 85 83
6.81892 2.55594 -1.6997 91 87 26
-1.35512 -5.94688 7.24393 63 64 66
-1.98865 5.43448 2.38988 92 88 33
-2.76888 -9.12659 7.6476 90 97 88
3.77482 7.813 -3.9443 78 82 69
-3.35249 3.08526 4.94717 93 85 28
3.87743 3.9274 6.66029 90 90 91
1.62031 1.6602 -7.00136 86 87 85
-2.9413 4.07202 3.99683 93 88 36
3.25328 -5.65764 -7.16208 39 41 39
4.33295 7.4015 -5.66202 74 72 32
7.57858 0.943821 -3.31189 84 87 14
3.64628 5.68765 6.92496 80 83 77
1.70115 6.1335 6.97766 94 96 87
5.77891 -8.66282 -7.57532 81 86 82
0.589239 4.71837 -6.71957 83 85 82
-1.49474 5.91473 3.42229 91 87 27
7.59621 0.81472 -6.64515 86 92 30
-0.0867617 7.76103 1.177 113 103 72
-3.29841 3.1344 7.03442 89 81 35
4.21383 -5.99572 7.26646 75 77 73
2.61236 5.7101 6.61904 88 93 86
4.90511 0.48012 -7.04578 91 94 89
-4.23932 -3.14108 7.22702 104 100 101
-3.19632 2.86421 -7.50482 86 90 54
-1.13015 6.92381 0.273903 98 95 43
-3.15611 3.54366 -5.84599 102 100 36
3.87503 7.6486 -4.85174 79 80 64
-1.84073 0.702476 6.94508 105 106 104
-4.73352 -3.20218 -6.99616 91 96 92
-1.57929 -5.75287 7.29629 85 88 88
-2.29849 4.82693 -2.12328 104 99 29
-1.63895 -0.0326023 6.9907 104 105 103
-1.74827 0.243762 6.97154 105 106 103
5.1665 -2.55486 7.04266 81 86 84
4.28038 4.88479 -7.12509 78 86 80
-4.13727 -5.28481 7.33389 107 102 106
5.96712 -6.02222 7.23808 87 85 87
-3.12483 3.60998 -7.28362 95 95 39
5.12503 -5.33902 -7.3947 86 92 86
-1.46832 6.82799 -6.17228 105 99 42
0.529295 -4.67377 7.32041 78 80 78
3.32832 -3.61511 -7.27365 49 56 57
1.4084 -3.32604 7.18362 77 83 80
7.00064 2.13704 -7.459 87 88 49
3.1693 -2.52691 -6.87952 21 15 17
7.12623 -6.48826 6.99262 90 92 92
5.32757 6.82204 -2.56169 87 87 13
5.77337 -5.47087 -7.41267 89 92 89
-1.38438 6.09401 3.5092 94 90 23
-3.20187 -6.06323 -7.27475 87 88 86
