ply
format ascii 1.0
comment Created by Open3D
element vertex 1375
property double x
property double y
property double z
property uchar red
property uchar green
property uchar blue
end_header
6.63744 2.89278 -3.60875 77 80 13
3.34689 8.67173 -5.291 81 83 76
7.42363 -2.17425 6.17062 93 96 94
1.97415 7.09101 7.49005 94 95 56
6.67938 3.16435 -5.94799 81 82 3
1.46203 7.70976 1.69332 105 99 53
-5.19808 -4.58591 -6.16311 102 104 104
7.82915 -3.80844 2.93587 70 73 71
7.01525 -5.47721 -4.07939 57 57 50
7.07462 2.05475 0.266643 88 85 24
5.71248 5.32751 -5.1281 76 80 9
4.38298 0.117022 -7.08905 90 93 88
-2.00396 -5.26895 -7.3189 66 75 67
4.09747 7.49617 -6.06912 70 65 35
-1.351 6.68652 1.20073 95 93 42
-3.2195 3.20304 3.75103 95 88 30
6.58316 -5.50956 -7.29906 85 88 86
1.13389 -6.43623 7.38673 77 83 82
7.2759 -1.91494 -1.92036 90 91 81
2.15829 9.09139 -5.39276 76 78 75
-4.39042 -1.10975 3.28171 97 93 89
0.119597 -1.01879 -7.03445 21 18 17
-4.51217 -0.79835 -6.57512 98 97 97
-0.98195 7.22841 5.04478 97 92 43
-4.60057 -2.63164 5.14844 96 91 92
5.07362 7.03278 -5.0406 83 85 12
-4.64096 -4.53836 7.15509 98 95 94
-2.15974 5.62352 -5.93895 101 99 47
-4.23577 -9.67956 7.65939 74 69 69
6.06306 -8.81696 -7.53219 82 85 82
-0.64507 7.52731 1.71281 105 101 54
-4.30242 -0.0914647 -6.86164 89 92 83
-4.32287 -3.4197 -7.14371 87 92 90
-0.554998 7.56459 4.77292 111 102 50
1.83258 7.44489 -7.43174 81 81 37
-4.52708 -1.30802 -4.5069 104 103 95
-3.2442 3.35435 -5.28402 102 99 38
3.76091 4.49398 6.62408 94 94 94
3.56328 -5.94292 7.10348 22 17 16
3.58715 4.08978 6.60972 91 91 91
-0.584856 7.65579 -3.29202 94 89 46
-3.11646 3.9132 2.46041 95 90 35
7.16734 2.00614 0.133455 86 83 24
3.77363 8.39585 -4.40718 82 87 77
1.84311 7.50269 6.85313 97 97 54
5.13064 -3.02763 -7.28239 89 93 88
-3.04778 0.886984 7.46165 100 100 97
3.50826 8.29986 -3.11107 94 88 87
5.53385 5.77873 4.33869 99 92 40
4.51848 -3.05727 -7.28832 83 90 85
1.69587 4.94124 -6.69567 86 88 83
5.49089 2.95718 -7.55224 84 88 80
0.100242 1.60671 -6.95606 83 83 85
-1.2658 5.28188 -7.44651 77 79 14
-5.26373 -5.40805 -1.1049 109 107 105
4.75497 7.38068 -0.611735 73 71 22
7.18389 -7.01166 6.89447 89 93 91
7.30261 -2.82791 1.05575 92 93 92
6.2751 3.7023 6.41078 94 88 43
7.05411 -8.12969 4.84859 25 16 19
3.95455 -3.82432 7.00165 28 24 25
1.7515 5.66346 -6.75337 81 87 77
0.31539 7.82878 -4.32713 115 92 88
7.44335 -3.79777 6.05521 96 96 95
-1.64124 -3.34614 7.22455 98 100 98
6.81984 -8.53528 -5.09703 60 68 66
-1.48155 -7.6827 -7.39771 76 80 73
7.53346 1.62953 1.6425 90 89 31
-4.33131 -0.796792 3.65063 95 93 87
0.157398 7.62793 6.56908 117 104 79
6.46517 -8.69757 2.81758 38 38 36
5.13158 6.97225 2.35209 84 82 29
-4.69133 -2.99233 4.32986 96 90 90
7.3969 -2.59791 2.98557 90 95 89
7.43985 1.13968 -4.4571 82 86 5
-5.05541 -3.86458 -4.70396 106 106 104
-2.04782 5.20324 7.28531 96 93 48
3.40314 0.248976 -7.08782 88 92 86
-1.31691 -9.28177 7.60184 88 93 86
-1.64879 5.68818 6.17776 94 82 32
-0.793442 -8.50238 -7.43009 72 80 74
7.48527 1.79203 4.47329 90 90 41
6.88757 -5.6232 -6.60427 83 89 84
-5.24719 -5.63296 1.17915 104 101 99
6.75308 3.16338 4.68688 91 90 40
-2.11263 4.09641 -7.48236 78 81 13
7.57992 -0.460968 -3.26547 73 80 53
1.08396 8.95763 -5.18907 81 87 76
4.92698 7.28293 0.632183 78 76 29
-2.30555 4.98394 -5.01612 104 99 35
-5.39823 -9.4018 -5.10075 73 71 70
5.21932 6.90521 -6.40685 87 88 13
6.63494 3.12289 -3.78376 72 75 13
-2.1312 5.57459 -6.28239 106 102 54
7.33191 -1.26362 0.869491 91 95 83
7.8874 0.368374 -3.94122 86 85 19
1.37529 -4.91948 7.30037 83 89 88
6.54324 -9.35352 2.90416 45 45 44
-5.42325 -9.71435 3.67233 79 72 69
0.435956 -6.27611 7.22825 26 20 22
1.05844 7.77157 -6.22048 88 84 41
2.47978 9.26064 -3.22894 76 77 71
5.84305 -3.62987 -7.3348 90 93 91
-5.07258 -4.40666 -1.06697 105 105 103
6.79207 -7.29931 -1.75297 23 25 23
-3.18612 3.26199 4.32941 96 88 26
-2.464 -6.87466 -7.35338 79 85 80
6.99181 -3.14159 -6.67302 86 91 86
0.389881 7.90935 -4.53844 104 86 72
-3.10155 3.69965 4.76723 93 88 38
6.6133 -8.80034 2.52834 40 42 40
5.61565 5.69734 2.80518 94 88 30
-4.27684 -8.21721 7.52949 101 102 101
2.42047 -5.91585 -6.77291 13 8 7
7.06311 -3.71181 6.98479 93 90 92
7.26494 -4.34772 -1.03295 85 91 84
7.857 -0.337878 -2.00295 79 85 43
5.58462 6.13024 -2.41795 88 89 16
-4.78473 -2.49833 -2.74423 106 103 101
-4.06809 -9.03221 -7.23144 71 72 68
4.45412 7.37729 -6.53062 72 72 28
3.2708 -3.81519 6.90031 9 11 11
1.62974 7.52776 6.52399 105 99 57
-2.83635 4.31625 -1.53438 95 91 36
-1.0886 7.37949 -5.22157 102 96 39
-4.76163 -3.36655 3.18033 96 93 90
-5.17245 -5.77005 2.66444 100 97 94
7.6538 0.686929 -6.38793 83 90 13
-5.03939 -5.4298 -7.10255 90 93 90
3.26948 -0.707971 -7.15111 80 83 78
6.72464 3.316 0.0123332 91 90 33
2.17292 3.74629 6.61348 51 49 51
-5.28992 -8.46857 6.8439 96 95 93
2.87816 -5.14756 -7.00015 16 12 11
3.27342 7.51919 3.3778 100 99 42
-0.0955267 7.76671 1.10181 111 102 67
4.08566 -1.31233 -7.17582 82 87 82
1.49376 9.53733 -4.36395 83 83 76
-5.4881 -6.73633 -5.01214 111 111 110
-4.90841 -3.08712 -4.58328 106 105 103
4.69784 6.95282 5.98947 79 77 35
-4.88441 -3.03867 -2.68173 106 104 102
-2.29846 -4.63023 7.35629 102 105 102
-4.77513 -3.38117 3.46537 97 92 90
-2.03884 5.77762 -6.3233 106 101 63
-1.98365 3.22829 7.71392 92 98 90
5.62056 5.93636 3.22916 99 92 44
1.89547 4.51646 6.55567 93 96 91
1.06674 -7.98105 7.47393 89 91 89
-1.30143 6.94224 -5.03287 111 105 56
5.41656 3.70854 -7.58498 84 90 76
-0.86464 3.70926 -6.83535 77 83 75
-4.44026 -8.57168 7.46484 99 99 98
6.83979 -7.42664 -6.14298 75 84 77
6.39756 2.85586 7.62345 84 85 78
6.89268 2.59896 2.58671 95 91 32
-0.777364 7.76901 -6.04758 84 88 39
7.39979 1.47674 -6.99783 93 87 39
7.13122 -5.16234 -2.56842 79 87 80
3.74643 7.76731 -5.16307 84 85 64
4.75872 2.33879 -7.03404 90 94 85
5.67241 5.49426 -5.56083 76 81 5
7.33588 -1.80194 3.3693 95 97 90
6.32041 3.62094 6.43278 92 87 45
-3.43282 2.97532 3.14102 93 84 29
-2.33592 4.75722 -0.995528 106 100 43
1.16847 -5.16009 -7.38202 58 65 63
1.00871 -7.92183 -7.4451 73 78 74
7.37796 -2.20525 4.71828 96 96 95
1.23847 7.65154 0.541428 106 99 50
-4.54157 -2.49375 6.62062 98 93 92
3.56692 3.56617 6.66981 83 85 81
-0.381788 -5.13853 7.10667 33 27 27
0.0710526 3.2184 -6.84695 83 84 84
-0.742524 7.50399 1.60154 101 98 48
-4.30342 -5.74883 7.40273 106 101 105
6.88155 -9.07595 -4.4364 72 79 74
-0.539429 7.66032 -1.59601 98 97 50
0.00278917 5.56877 -6.83731 75 82 71
-3.60531 2.2473 7.69817 101 99 82
3.49382 -9.35566 7.50556 81 82 82
3.48851 -10.1244 7.29778 67 59 58
-5.50222 -7.50879 0.86613 108 109 106
3.81545 -2.17777 6.7276 28 22 21
-1.60013 6.36831 -6.30702 101 97 33
1.17297 9.15861 -3.12013 73 76 68
1.02727 -5.43638 7.3448 78 80 79
-4.67887 1.04788 5.87699 95 87 47
7.31955 -5.6801 5.77208 85 93 90
3.58558 -1.52464 6.9119 74 78 78
7.07409 -7.88626 -0.0965028 57 58 59
7.35785 -0.927961 -1.75529 83 90 73
7.65581 0.818491 2.17745 89 90 32
2.06328 -3.13409 -6.75714 25 25 17
-3.10631 3.86529 -6.19965 101 98 39
2.20865 7.67724 1.21196 97 99 49
-4.36279 -0.263918 -2.92562 103 103 60
0.289159 -8.42121 7.54586 89 94 91
7.06474 2.25927 -1.63417 86 86 18
-3.6779 1.50969 -7.41059 84 90 73
-0.495712 -2.68373 -6.85794 0 1 0
2.3255 -3.46017 -7.08089 23 29 28
-2.10369 5.38342 1.36185 96 93 40
7.36659 -1.1091 0.185742 90 94 82
7.25302 -7.16826 5.71318 82 85 85
-3.0127 -0.421585 -7.0572 85 90 85
-4.53492 0.392215 6.49694 87 84 59
7.37921 -5.20982 6.53572 90 96 95
-1.5751 6.16828 -2.72665 108 94 46
6.00432 4.43827 -4.55955 72 75 2
7.25802 -5.06119 1.9339 41 44 39
1.21604 -9.70463 7.80949 71 73 70
-3.16718 2.35087 7.80892 103 101 99
7.98037 0.0464778 -2.53365 84 85 37
7.06702 -3.36294 -5.44366 84 90 84
2.11382 5.23462 6.53551 94 96 92
-1.36488 -8.86301 -7.39789 78 84 79
2.905 -0.858987 6.9501 78 84 84
5.14669 -4.19366 -7.36496 88 93 88
0.818254 8.99517 -4.82745 98 91 95
3.15328 8.18069 -5.44591 84 83 74
6.93331 -9.6452 1.74022 66 68 64
7.91675 -3.59355 3.70193 81 85 82
7.23604 -2.39198 -3.12176 85 87 82
-4.49395 1.3619 6.10457 95 90 47
5.46874 6.52951 1.18382 94 89 29
2.27579 -6.73669 -7.18875 23 25 26
2.78776 0.504152 -7.0614 87 89 86
4.85899 6.93044 -7.15397 89 86 41
-1.10095 4.52998 -7.26925 74 81 63
-5.52897 -9.62653 -0.0147674 91 89 86
-0.290142 -1.63582 6.85476 30 24 23
5.4326 5.98052 6.63289 97 92 41
1.44418 5.72844 -6.72375 81 87 76
7.22949 -8.42931 6.3615 90 95 93
6.62961 -6.91607 -4.91348 7 4 5
0.413966 -3.61121 -7.27783 59 69 68
-3.99217 2.64751 -0.827902 98 93 40
0.471337 -8.83973 7.57484 86 93 89
7.34947 -5.66573 6.13783 88 96 91
-5.36162 -5.86908 -2.59993 110 110 107
5.09188 3.45095 -7.4262 85 90 80
7.04053 -9.48066 0.66403 74 76 73
4.20764 7.48441 2.67323 96 94 41
7.37426 1.84203 -0.962469 89 88 32
7.23087 -2.536 -3.42142 86 90 82
-4.44078 -1.82541 5.23103 97 91 91
1.78398 -2.13081 -7.05675 33 35 31
2.77026 7.51825 4.45039 101 100 48
-4.172 1.81988 -4.67263 102 99 36
-4.05945 2.11495 -6.27146 99 100 41
7.33096 -6.03152 6.07402 89 96 92
7.61901 1.03513 4.76916 100 97 43
-3.98682 2.46579 4.01935 91 90 38
5.10175 7.09418 1.72115 80 79 31
6.86733 -4.43396 -6.92604 88 91 87
6.98437 1.52029 7.63237 87 88 79
3.30449 0.79222 6.52795 16 15 14
5.08561 -3.84829 7.12571 82 88 83
-2.20486 1.44642 -6.97594 84 87 84
-1.89267 5.44971 6.89522 97 83 35
-3.78754 2.83871 -3.27847 100 96 38
7.09104 -4.6245 -4.08526 81 89 83
6.64093 3.4115 3.35285 91 89 34
-2.98957 4.07715 -2.18767 100 98 28
6.19398 4.24673 -6.56789 81 83 5
7.45869 -2.77965 6.44783 92 95 94
-5.60951 -9.16647 -4.36466 86 84 80
7.32463 -1.10708 -0.589665 88 92 80
-0.721224 7.51554 0.667 93 91 45
3.74618 -3.36111 -7.29312 67 75 73
6.45856 3.52852 4.85883 92 92 27
-3.78643 2.71147 5.66874 90 86 35
5.23889 0.449747 -7.06451 91 94 87
5.17563 7.00181 -6.2396 85 85 10
7.7616 -3.30699 4.81311 90 95 91
7.45161 -3.33393 6.40473 94 95 95
6.80669 -9.14461 -5.50098 76 81 71
-4.55301 -2.17747 4.57122 97 92 91
5.77667 5.05581 -7.41933 86 85 57
7.26892 -4.97801 1.23627 82 87 83
-1.63165 5.72574 2.75295 90 89 28
7.93468 0.28822 -0.822397 85 86 33
7.55649 0.92688 1.86567 93 91 42
-5.20172 -5.51919 1.71164 102 99 98
-5.20474 -5.38766 -0.390259 109 105 104
-4.81444 -3.65027 3.36238 97 92 90
1.88407 8.28166 -5.68162 78 77 67
-1.32094 7.0218 -6.76297 103 101 53
-1.8272 5.65284 0.715816 92 86 30
4.84092 3.52978 6.9658 79 82 75
-2.46418 4.56627 -2.05796 99 94 29
-5.30763 -5.84043 0.37623 107 105 103
4.49217 7.40803 -3.37426 75 77 20
-5.04074 -9.04599 -1.8782 104 106 103
-3.99704 2.39829 -6.07627 100 100 43
6.58279 2.61297 -7.61433 86 88 56
-0.0713749 -9.29864 7.76651 82 88 85
-0.644474 -1.98277 -6.88003 3 3 1
0.806005 8.92376 -4.62461 102 97 97
-1.08919 -3.59386 7.26987 79 82 81
-1.90087 2.66787 -6.99097 80 86 72
-5.24477 -5.55912 0.721764 107 103 102
-4.96759 -4.66267 4.23282 97 91 91
2.86838 -0.0941911 -7.11775 85 90 85
6.83357 -8.72088 -4.96449 70 75 72
-2.87578 -2.761 7.1972 105 104 103
2.53037 9.62027 -4.37126 78 81 82
-2.23334 5.3577 -5.18025 103 99 39
-1.98018 5.75527 -3.61898 98 93 37
1.09547 8.14276 -5.42714 81 83 58
-4.93892 -7.63332 -7.27211 88 93 89
6.19745 3.98602 -5.15963 79 81 7
-3.0413 -1.25422 -7.14449 83 88 84
-4.72237 -2.33088 -1.65627 105 102 100
-0.276519 0.481899 6.90113 83 86 84
-1.35208 6.9959 -4.00717 100 95 44
0.196459 -3.65961 6.94374 33 35 35
-0.782297 -3.30462 -7.24387 46 57 53
2.93106 7.60301 2.91249 103 101 52
7.57497 0.817116 0.234184 89 88 43
7.25043 -6.47623 1.37447 81 87 84
-2.505 4.82085 -6.87567 97 96 40
-0.80113 1.6674 -6.95731 80 84 83
4.4949 -0.137572 -7.10592 89 93 87
-5.33387 -5.89105 -4.40398 109 110 108
7.13442 -1.23057 -5.3648 83 92 81
2.39487 6.75323 -7.4757 78 81 68
7.27455 -1.64497 -1.33431 88 91 84
5.87886 2.91807 7.56589 75 79 73
-0.645052 7.7653 -5.41537 90 86 39
-0.239127 -3.63312 7.0487 44 46 47
-3.80717 2.7764 2.44477 95 89 41
4.87114 -0.258205 6.76958 87 86 89
-1.00308 7.08034 5.92078 100 87 42
4.19874 7.46469 2.99737 97 94 45
-2.89076 4.26085 -1.87581 97 94 40
7.44923 -0.323118 7.31955 86 87 79
7.45712 1.42865 -1.80716 88 88 26
-1.09964 -4.44284 7.3731 92 93 90
-2.17689 -0.221344 -7.07123 79 89 85
4.04822 7.62424 -3.04833 71 76 48
-2.48392 4.56196 -1.2846 98 92 34
6.61969 3.57136 -6.13441 79 83 8
7.87119 -3.27334 3.04381 82 89 83
3.44238 8.47618 -3.12125 94 83 87
7.73833 -0.316466 -2.76947 80 82 45
7.2333 -1.1543 -3.62053 81 89 78
-1.85349 5.52927 4.0408 90 86 32
-3.09748 3.74945 6.47506 93 85 44
-1.98025 0.328733 -7.05087 83 88 83
2.60026 7.55149 5.189 102 100 49
5.26498 6.91164 -0.0559338 90 86 27
6.6093 -8.05243 -4.33938 19 8 14
7.27245 -4.34166 -1.15064 85 91 83
-2.00929 4.79902 -7.44286 93 91 44
-4.33691 -3.28955 7.20058 101 98 98
-2.50705 -6.99936 -7.36333 81 85 80
-5.01995 -9.18293 7.02799 87 83 83
7.13213 -2.67356 -4.41698 85 88 84
6.85108 -5.40019 -6.77827 85 90 86
2.75715 -1.64729 6.93286 45 44 44
6.93426 -8.81936 -3.18221 74 80 76
-2.38099 2.26373 -7.13522 77 84 72
-5.53264 -7.27933 -0.547172 111 112 109
-3.65118 -6.91543 -7.31088 87 88 86
6.1702 3.94503 -4.18448 82 81 10
7.59475 0.872238 0.467586 89 88 39
-4.42064 0.235803 6.32699 89 85 67
0.529245 7.73183 1.01307 104 103 46
6.61101 3.55891 2.16336 90 89 36
6.85761 -7.8798 -1.83164 26 27 25
4.70055 -3.18375 7.07283 79 79 76
-4.63115 0.677378 6.70482 90 88 47
6.16591 4.35484 6.19601 95 96 51
-2.51468 3.07646 7.81851 101 100 95
7.2287 -8.67938 6.26934 89 95 94
7.46883 0.666103 7.51508 93 89 82
7.28871 -6.61158 6.07478 90 96 92
7.31532 -1.05784 -1.68664 88 91 80
1.08685 -1.70464 6.95843 75 76 75
0.568036 2.387 6.48452 26 20 24
-4.44783 -1.09234 -3.96714 103 104 92
4.55133 1.85386 6.77454 81 83 80
2.82247 3.67313 -6.8068 88 90 88
5.44628 1.95868 6.89982 80 82 75
-4.2854 0.0368948 4.90974 93 90 81
-4.434 0.318427 -3.75331 96 99 72
7.15726 2.1026 -0.264945 87 85 23
6.09311 4.91097 2.18566 90 87 35
5.6257 5.52591 -2.51341 83 85 14
-3.12158 2.92982 7.73842 98 96 75
-4.72046 0.91021 3.56385 94 87 35
-0.352762 6.37788 -7.42949 70 76 35
4.9316 2.36881 -7.06044 89 94 84
4.20765 7.62338 -1.34064 81 79 33
7.3083 -5.56681 5.45376 76 82 81
4.01888 7.6454 0.504687 94 93 43
-1.5747 5.82333 0.563905 92 89 32
-3.44099 -8.37189 7.55914 102 101 100
5.2434 6.87124 1.90212 87 86 28
7.14696 -4.04436 -3.32587 84 90 83
-4.79321 -3.90857 6.55097 99 92 92
7.24537 -1.15828 -2.90881 82 90 75
-2.50621 -4.0245 7.29699 105 104 102
0.422257 7.72227 1.36595 108 103 54
-1.62577 5.72665 2.64163 90 88 27
-0.974253 -5.4577 7.12202 37 34 34
1.66037 7.71237 2.42283 109 100 70
6.68037 -6.10959 2.48522 30 32 31
-4.33197 -1.20937 6.74409 96 95 91
-1.27231 -0.385234 -7.13579 77 84 79
5.81509 5.21558 -0.266521 85 84 25
-0.104167 -1.72762 6.81807 28 21 21
1.50436 5.44719 6.52808 94 97 92
1.6753 -5.17477 7.30754 79 83 83
-4.40839 -1.21112 2.41342 99 94 90
-2.35655 4.69132 1.5283 97 92 31
-2.10728 2.37533 -7.00877 80 87 73
-4.19756 2.16588 -0.192159 103 98 41
-4.56455 -2.66609 6.67425 98 94 93
-4.26799 1.93 1.77234 97 91 38
5.0374 7.07365 2.77165 83 78 35
3.78007 0.892462 -7.03306 90 92 89
2.91425 7.50082 4.80419 102 101 49
-3.09263 4.0542 -1.11681 97 95 40
1.60377 2.27314 6.46241 13 8 11
5.31028 6.59211 -6.91517 91 90 24
-4.12564 2.12018 0.526612 112 98 75
-3.05886 3.73784 -7.27421 97 96 43
2.30835 -5.9168 7.13397 17 16 18
4.76916 6.2586 7.51272 88 89 55
4.77128 4.0589 7.18961 77 78 72
7.35895 -1.13635 6.86616 85 87 83
0.664745 -5.65105 -7.345 51 58 58
-5.62169 -8.15644 -0.401975 109 112 107
-2.14247 4.75356 4.57786 95 86 26
-5.40191 -6.48494 -1.5324 111 111 108
-1.16009 -6.21764 -6.91337 0 1 0
-2.05127 5.64446 -4.11533 102 98 42
3.23602 7.64167 2.33226 101 99 46
-5.33571 -9.61875 -0.944582 88 88 85
-1.39127 -7.14987 7.38169 87 91 89
-1.28005 6.17637 0.381317 104 96 39
6.27503 3.71606 7.40347 88 86 66
-4.93388 -3.43237 -2.22564 106 104 102
-3.97091 2.24366 6.88925 93 87 38
-2.44657 4.6312 -2.51957 99 92 30
-0.842346 7.40896 2.93822 103 100 45
5.75178 5.3651 2.87639 92 87 34
7.31166 -2.49327 0.00566715 92 93 87
7.95685 0.190657 -0.0561771 86 89 40
7.29804 -2.29583 1.02508 93 94 91
6.67421 3.32572 4.27281 93 91 43
-5.12024 -4.37766 -3.46348 109 107 105
5.7625 5.31988 -5.30193 74 79 7
6.66948 3.34146 5.31819 92 90 52
-2.70096 2.12098 -7.29206 77 83 72
3.65373 7.4711 3.7819 99 97 47
5.84308 -0.313957 -7.16501 91 94 87
-5.32123 -9.56002 -3.13558 93 91 91
4.64269 2.36583 6.73905 82 86 82
1.751 -4.91518 -7.13693 19 17 15
7.26982 -3.95506 -0.866789 88 92 85
1.99946 2.11368 -6.92455 87 88 85
6.55626 3.47787 -4.16283 78 82 8
3.84344 7.55408 -5.45446 77 75 41
-4.96862 -4.84402 5.65599 99 91 92
-1.10834 4.91034 -7.39138 72 76 45
1.36701 1.90062 -6.98266 86 86 84
4.51638 5.96857 -7.63308 91 87 84
7.12251 1.44138 7.61743 88 88 77
6.64667 -4.86931 7.14091 89 86 90
3.2181 -4.95275 -7.17796 26 26 25
6.82717 -6.70095 2.27864 24 22 21
1.73888 -9.34647 7.59255 82 85 83
1.20192 0.360089 -7.11771 82 87 83
-4.86477 -3.2889 0.102179 105 101 99
-0.822046 -8.03586 -7.40634 78 82 77
0.216116 7.71953 1.41926 108 101 53
-1.23407 -8.09852 -7.37176 80 84 79
-5.17181 -5.62549 -7.00057 91 94 91
-0.528717 -1.21274 6.98712 66 64 63
6.1733 3.95665 -0.386403 90 88 21
7.04523 2.39899 6.64054 89 91 45
-2.56334 -8.52473 7.56319 98 101 98
-2.23608 5.16691 -0.578118 100 96 41
-2.16645 4.66707 4.73881 97 84 34
-5.67608 -8.4243 -5.47672 106 112 107
-4.09706 2.36291 -2.18393 102 97 40
-1.29932 -5.86227 -6.92806 4 3 2
-3.40571 -3.44523 -7.18474 79 83 81
-3.42818 -7.05917 -7.34177 86 88 85
5.274 -0.741173 6.86491 87 80 86
4.16433 7.55811 1.70751 94 93 38
5.79164 5.14334 -1.0095 86 85 26
2.03046 -9.60127 7.58541 77 81 80
-2.36038 -3.81966 7.25405 106 103 102
-3.66686 -7.33547 -7.35051 86 89 86
5.0308 7.1581 -3.24326 84 88 11
2.45363 -8.01443 -7.46197 75 81 76
-5.70715 -8.59642 -3.83935 107 112 106
6.84088 -8.50677 -4.11296 50 53 54
6.39389 -0.125881 -7.26445 85 89 81
-3.25961 -9.15655 7.64023 93 95 91
-3.36634 3.20933 0.819679 97 90 29
-0.0288696 -3.40488 6.70736 28 19 18
-2.46222 4.83793 -7.20411 93 90 50
7.68092 0.720325 -5.01786 84 89 18
2.07012 7.94063 -5.88664 83 80 44
-2.25116 5.31073 0.099206 95 92 41
2.79427 7.50831 4.76794 102 101 47
-3.40294 3.34893 -6.69717 96 95 42
7.40833 -2.46651 4.26564 95 96 93
-1.83845 5.52847 3.86589 89 86 29
-0.459459 7.59067 4.39768 110 103 57
5.0006 7.22909 0.806181 80 77 29
6.95556 2.35649 -5.29959 79 79 8
2.22926 7.36203 -7.45907 82 83 41
-2.54994 -1.24857 7.11121 105 105 104
1.23443 8.43633 -2.82693 88 81 54
-4.83577 -3.09466 -0.930422 106 101 100
-1.07884 7.10513 2.08042 91 89 38
5.3303 -6.26604 7.23368 86 86 86
2.35752 5.01891 6.52653 94 96 93
-4.9157 -3.7618 -6.94656 91 94 91
3.05183 -0.392869 -7.1474 83 88 83
1.60802 7.71975 1.67061 104 100 48
-4.96399 -4.67253 5.01706 97 91 92
7.50595 0.892488 -1.97228 86 86 21
1.73085 7.75372 -6.28899 88 80 48
-2.22582 5.40736 -3.28638 98 95 37
1.07545 7.80464 -6.86825 85 85 23
2.92869 7.20735 -7.50066 87 87 37
-3.78886 -9.53958 7.62682 82 83 80
-0.597709 3.88546 6.81501 93 98 93
2.75856 -7.27606 -7.44622 68 75 71
-1.08872 7.1899 -0.422935 91 89 41
-1.17414 4.08565 7.51865 92 95 90
4.17909 -7.43199 -7.46597 81 87 82
-2.96946 -9.65639 7.71291 76 73 73
7.58615 -3.8013 5.41575 86 94 90
-4.28356 -2.76149 7.1814 99 96 96
0.165611 -8.89882 -7.46273 69 76 71
-5.16487 -4.74371 -6.72122 98 99 97
7.43643 -3.93012 6.05529 95 96 94
-1.54826 5.74851 6.50307 93 87 29
-2.92472 -0.121892 7.06508 104 105 102
7.86132 -3.33948 2.89688 82 88 83
7.88674 0.265285 -1.18936 85 88 34
6.77856 -6.61825 4.51713 17 16 17
7.31832 -5.77308 5.84936 86 94 92
2.03742 0.0435429 -7.12713 83 88 83
5.83622 4.88614 7.26028 89 89 57
-4.64644 -2.00762 -1.85117 104 103 97
0.971664 1.21117 6.39018 15 12 17
3.24808 3.36821 6.66226 60 58 56
-5.42872 -6.41291 -1.97917 111 111 108
6.21063 4.13544 -5.98553 83 83 5
7.30998 1.98228 4.54437 91 90 38
5.86785 4.17752 7.56052 92 90 83
-4.42938 -0.854727 -4.11712 102 104 89
6.47288 -7.00427 4.00842 24 23 22
5.83127 -9.03395 -7.56925 80 82 79
1.37724 5.36494 -6.69286 84 87 86
4.1498 -3.09973 -7.28239 79 87 82
-5.45382 -9.02441 -3.45891 96 97 92
-4.51121 0.555387 7.1708 90 92 57
-0.993576 -3.01474 -7.11527 16 22 19
7.20085 -4.45425 -1.94634 82 91 83
7.29227 -2.17914 1.51439 95 95 92
-2.83494 2.69116 -7.46844 74 82 61
7.36071 1.95375 4.19023 91 90 39
-2.51055 4.66904 -3.31935 99 93 30
-2.22506 3.49038 -7.43584 75 77 48
-0.32963 7.63509 3.359 127 106 117
1.19984 -6.26464 7.38156 78 82 82
6.87293 -9.05619 -4.54674 70 78 73
2.19806 -6.17634 -6.71362 10 6 5
4.76591 7.31872 1.36095 75 72 27
7.18958 -7.03137 1.11652 84 89 85
7.11896 -3.08188 -4.52009 84 89 84
0.224892 1.35402 -6.96727 79 85 86
1.64843 -4.07473 7.2249 80 84 85
-0.124481 -4.92595 7.23567 48 43 44
7.10769 -6.75286 -2.3482 67 73 68
-4.28829 -0.238449 2.28851 97 96 84
6.55216 3.53283 4.15153 92 89 40
-1.45125 5.90844 6.78506 91 87 27
2.19289 7.69738 1.59129 101 100 44
3.71146 4.68371 6.62509 91 92 91
5.53871 5.86117 3.62542 109 97 62
6.17917 3.95774 -1.73632 89 84 22
-1.43752 6.09668 2.7318 96 92 29
7.21044 -5.92159 1.12431 83 90 85
-0.895247 7.3975 1.18081 95 94 33
7.27194 -4.39271 0.0949555 87 93 87
7.40265 -0.796945 -0.922937 87 90 75
0.263376 7.60835 3.90891 108 103 44
0.690995 2.34567 -6.91389 84 84 84
-1.28774 5.05373 7.73067 99 97 87
-3.93555 2.56948 4.56783 93 86 35
-4.44272 -1.40019 3.66253 97 93 88
1.53718 5.42638 -6.69626 85 86 85
-0.0671387 -8.65486 7.57455 91 94 92
-4.73654 1.21069 2.5193 95 91 34
7.82518 -3.60152 2.65169 77 82 78
7.58093 0.71774 1.82709 91 89 46
-4.01981 -8.03448 7.5312 102 102 102
0.0697754 7.63833 4.0812 108 104 47
4.30922 1.9341 -7.02603 91 94 87
0.358088 -3.77994 -7.28574 60 68 66
-4.18023 -8.02338 7.51815 102 102 102
7.29216 -1.49517 1.54023 93 96 87
-5.57968 -9.69601 2.08723 85 84 77
3.45018 4.23469 6.60222 91 91 91
-0.837818 7.65547 -5.28262 96 92 40
-0.376324 -1.49723 6.90296 35 31 30
5.9155 -5.08357 7.1946 88 85 87
-3.93546 -0.976907 7.13979 98 96 95
3.69657 8.10447 -3.26775 89 93 85
7.34653 -1.75977 4.68274 98 98 94
-1.31705 6.56066 2.3738 96 93 42
-1.91119 5.53664 2.46723 90 87 29
-5.30875 -5.35514 -6.33325 102 103 102
-3.87066 2.68803 -5.61363 101 97 42
7.34714 -1.14788 0.814837 91 95 82
5.03858 6.26631 -7.45183 96 86 68
8.12087 0.0483241 3.84711 92 93 45
4.55509 4.18966 6.98304 82 83 79
3.95675 2.63154 -6.97151 88 94 87
5.9775 4.87148 -1.02317 88 86 32
-0.336577 -6.94853 7.23215 51 54 53
7.23524 -7.84046 5.97817 86 91 88
7.61946 1.0551 4.42728 99 97 39
2.80844 7.62642 2.3176 101 100 44
6.66489 3.02158 -4.82215 87 89 11
2.50111 -9.4762 7.53769 78 84 81
7.50629 1.07896 -3.11426 87 90 14
-1.52894 6.52397 -2.26334 100 94 39
-4.66045 0.80965 -5.09468 98 97 49
1.05887 5.71387 6.60193 91 97 91
1.60429 -5.69089 -6.99109 6 5 0
-2.32072 4.98713 -3.333 101 96 33
3.45133 7.62719 2.52077 103 100 51
4.77843 6.90759 6.14325 81 79 35
-0.0380373 2.96342 -6.8815 81 84 81
-0.701068 7.54563 1.43405 101 98 46
-1.33833 -2.8596 -7.14144 41 47 42
3.78197 7.65158 -2.67787 82 85 51
-2.56333 4.2271 6.2138 92 86 31
7.29532 2.10574 7.25201 89 90 69
7.17398 2.13355 -6.73839 82 85 7
-4.24928 -8.5383 7.5172 101 101 100
0.688713 -6.10969 7.29899 45 39 41
3.26278 -3.04516 -7.10836 17 17 17
-5.58559 -7.44147 -6.40047 104 104 105
5.50937 4.35119 -7.60133 86 90 79
-5.46983 -6.61297 -4.23364 111 112 110
7.34707 1.79566 0.375568 88 86 27
-2.99993 -7.16308 7.43653 105 101 100
5.11833 -3.88689 -7.35256 88 94 89
7.11604 -2.03261 -5.41026 84 90 85
6.84467 -7.51662 -6.09985 75 83 76
5.32736 -7.76476 -7.47898 85 88 84
-4.28033 -0.339973 5.15982 94 93 89
7.40363 1.30185 -5.2568 84 85 9
-3.92558 -8.92054 7.52346 101 100 99
-1.85936 -3.01242 -7.23643 66 77 72
0.681602 -5.89884 7.27383 44 37 40
4.25554 7.45993 2.84267 97 95 44
-2.00567 1.59465 -6.96576 82 86 82
0.84112 8.93036 -4.93646 96 90 92
5.51019 -5.84481 7.22542 86 85 85
-1.65997 1.87149 6.92535 98 103 99
-0.401404 4.49666 -6.78696 80 85 75
-1.43212 1.86249 -6.93936 79 86 81
-3.17983 3.66744 -2.61013 101 96 35
-2.73365 -1.46011 7.1264 106 104 103
-0.451108 7.68638 -0.0442924 111 100 67
-5.10548 -4.89803 -0.319973 107 105 104
7.01872 -3.15991 -6.51607 85 90 85
-3.76762 -4.12948 7.25775 107 102 103
-3.25796 3.59534 0.81652 99 95 31
-1.85471 -6.65395 7.44676 93 96 94
-1.19992 2.57224 -6.91152 75 82 77
2.3515 7.65624 2.33397 101 100 54
-2.96371 4.22134 -4.1042 99 97 42
0.951725 4.33564 -6.77217 84 87 83
0.0248985 7.5751 5.75375 117 106 56
-3.02642 -3.83787 -7.20435 85 88 85
-4.02316 2.44092 -4.54538 103 100 43
-4.24316 -3.14904 7.22615 104 100 101
5.25086 -9.08696 7.38037 85 80 86
-4.90758 -3.3409 -6.84389 92 97 93
6.14014 4.64706 0.625678 93 89 33
2.11901 2.03651 6.39065 4 4 6
3.76526 8.00566 -4.90394 87 84 87
2.16433 -8.44278 7.48912 83 86 85
1.25581 -2.27185 7.02956 69 70 67
-4.31694 -7.9091 7.51719 103 101 102
-4.61822 -2.55265 4.0197 97 92 90
7.19699 -3.63007 -2.52668 85 91 86
-0.813739 1.42892 -6.9756 76 82 79
-1.66667 -3.38935 -7.25115 71 80 75
-1.46139 6.45731 -5.17935 107 100 42
-4.81147 -2.94622 0.0229723 103 100 99
-1.35545 -3.69149 -7.28386 68 76 72
-4.43033 -1.00597 1.49433 100 96 89
3.88023 1.86001 6.64809 19 18 12
-2.33456 5.01633 -6.44969 102 96 39
2.95524 -7.55414 7.31812 26 28 27
5.19223 2.85772 -7.30782 84 88 82
6.02939 -8.51657 7.29756 86 77 85
1.48752 -5.14855 -7.20174 33 32 30
7.51839 -3.14136 1.81735 84 90 82
-0.365528 6.30723 7.70485 107 100 105
0.831581 7.83115 -6.68503 88 84 32
7.44385 -2.67555 5.21255 98 94 98
-4.84909 -3.81977 2.93106 97 92 91
-1.3497 6.25632 1.96526 103 96 45
-4.68514 0.998621 6.00934 96 87 48
1.89783 5.19709 -6.69594 84 88 82
4.28161 0.274408 -7.08701 90 93 88
3.41314 2.41944 6.5154 17 13 12
7.2071 -4.9618 -1.46587 80 89 81
4.31973 7.5617 0.973249 91 87 42
7.47547 1.61478 -1.59421 86 86 28
3.03549 -3.94498 7.00393 10 16 16
0.86304 1.52815 -7.00305 84 85 82
-1.65021 2.5232 -6.91282 82 86 79
-0.999346 7.18972 4.72598 94 96 41
-4.67188 -2.44422 2.17426 99 95 92
-3.26998 -7.86307 -7.37338 84 91 87
5.29865 0.0282269 -7.10656 92 94 89
6.16856 4.18282 4.88656 98 93 44
4.27083 -1.01108 -7.15693 88 93 86
-1.77746 -7.40115 7.46857 95 99 95
6.05467 4.70654 -7.11885 91 91 40
7.19853 -9.06591 5.73261 83 87 86
7.46759 1.2227 -3.07816 86 88 17
4.38732 7.37163 3.07312 91 88 41
0.598755 2.7892 6.49375 27 22 25
2.03676 7.69807 -6.6148 82 77 34
3.34146 -9.01815 7.4893 85 82 83
0.681137 7.66952 4.68412 107 103 54
-1.4614 5.93109 4.25471 94 87 31
-2.72298 4.54364 -6.51872 98 95 39
-5.05228 -4.88071 2.77201 99 94 93
4.61664 0.684674 6.75816 81 86 83
-2.41703 0.751765 6.9962 105 105 103
7.22315 -1.77063 -3.34279 79 86 80
7.0396 2.07138 0.367693 88 85 24
3.71777 7.34789 5.74584 97 97 42
-3.74155 -7.15571 -7.33525 87 89 87
2.45244 5.31497 6.4982 94 97 90
6.31874 -10.0556 7.26445 69 71 71
-4.93057 -3.3329 -2.62618 106 105 102
-4.27947 -0.122989 6.84757 89 88 77
7.89131 -0.181538 -4.13316 80 83 9
5.25842 6.67976 -5.25988 74 77 12
3.15848 -0.667836 -7.14369 80 84 78
7.26502 -1.16693 -2.56742 84 91 76
0.469719 7.65135 -1.79179 100 96 45
-1.31276 -8.24146 -7.37466 79 83 79
5.63755 5.33691 6.93913 100 91 51
-4.49014 -1.25917 -3.49527 105 103 99
7.37106 1.6206 -2.30255 87 88 17
5.34668 6.587 2.15692 89 84 32
3.84398 -2.52938 -7.22766 62 69 69
-5.39145 -6.41102 -0.0164395 108 107 105
7.85352 0.114027 -5.75977 86 89 11
6.70689 -7.12243 -5.15725 13 14 11
2.76795 -0.603052 -7.15467 81 87 81
-1.54947 1.0284 -7.01181 81 85 82
6.21538 4.06083 0.964909 92 89 24
5.3422 6.63762 2.39865 88 84 32
2.67786 -9.60039 7.50281 77 82 79
-2.18544 5.27863 -4.72133 105 100 40
4.37881 7.08349 -7.34217 87 85 36
6.73821 2.83418 -7.29235 83 85 30
-1.82976 5.86121 -4.43784 101 95 37
2.44514 0.0860462 6.56043 13 8 11
-3.95837 -8.17197 7.53799 100 102 101
-1.29146 6.70049 2.44591 96 96 39
-4.89142 -3.38828 -1.37841 108 104 102
7.36372 1.83922 -5.55556 82 86 7
6.48293 -6.15912 3.26302 26 26 25
-2.88431 -8.95399 7.6031 96 98 94
-0.280652 2.57054 6.6704 67 67 66
6.9774 -8.8761 1.90755 54 52 50
3.84357 -5.25812 -7.38396 74 80 76
-4.28552 -0.479446 4.06417 94 92 89
2.01654 7.6729 1.1981 99 99 49
-4.93402 -6.86086 -7.25574 88 90 87
-2.97506 4.14835 1.83356 95 90 37
-0.59353 -6.51014 6.99142 20 18 19
-4.23642 1.85865 -6.55855 101 98 49
-1.26361 -0.784622 7.0241 100 103 99
6.98689 -6.42208 2.18373 18 14 14
-1.44426 -7.06243 -7.38669 66 78 71
-5.62276 -7.8871 -1.52236 113 115 112
-4.72158 -3.09206 3.72683 97 92 90
7.05397 -2.66958 -5.71573 84 89 84
2.74658 7.24576 -7.49522 87 86 40
7.29786 -3.44254 -0.632997 89 93 87
0.166547 7.605 5.90514 112 104 50
6.03014 4.86925 -6.4853 79 81 2
7.89965 -0.0548997 -3.05721 79 84 39
-1.59752 6.27017 -5.90011 101 97 33
-2.07088 5.63738 -1.98356 96 94 44
-5.37465 -5.97598 -2.9674 109 110 108
6.89855 -4.58271 -6.76928 86 90 86
-3.1218 3.58788 7.17162 92 87 44
6.93626 -8.26929 -0.640804 18 18 17
-0.838244 -9.94444 7.68009 48 47 47
3.98426 1.50039 6.69141 29 30 25
0.293818 7.85948 -6.03492 94 85 37
3.13663 -8.38918 7.42513 81 86 84
5.27337 6.74575 -3.76095 91 87 12
-3.95578 2.63771 -2.47308 99 94 36
-4.41396 -0.995606 0.2595 101 99 93
3.66887 4.801 -6.80452 84 90 81
-5.08709 -4.23748 -2.65111 107 106 104
0.181182 6.21301 7.52563 91 93 88
6.17704 2.05495 7.55033 73 76 75
-3.45692 3.09517 1.02227 94 89 31
-4.40285 1.58643 4.35986 96 85 37
-1.13686 -1.17305 7.01253 94 96 93
3.65252 -9.57215 7.50309 75 80 78
-1.287 6.79981 -0.11759 94 91 42
3.7146 -1.99442 -7.15369 42 46 46
5.68061 -0.933278 -7.2362 90 93 90
-1.59954 -1.32004 -7.18466 65 68 64
7.49359 1.78164 5.28793 94 94 36
-4.70612 1.27721 2.39631 96 91 34
6.77211 2.58909 -4.1127 85 85 14
7.75954 0.464745 0.0937862 86 87 44
-4.38678 -1.19951 4.77434 95 93 88
6.48706 -7.30813 3.63229 29 30 28
3.23828 9.38895 -4.03966 67 72 69
6.17049 4.16057 0.690859 93 90 26
4.65319 5.84166 -7.64073 91 88 84
6.21266 -1.34337 -7.26332 90 93 90
2.17301 3.34593 6.54837 20 18 19
6.52985 -6.8967 -1.5152 21 21 18
7.25484 -7.71861 5.5785 51 50 52
-4.07699 1.8984 7.08298 92 84 41
5.71267 0.854921 6.82898 84 86 82
0.344244 -0.680034 7.01826 86 89 89
-4.68524 0.919844 5.84667 93 86 45
0.251105 -4.04877 7.27292 76 82 81
-4.63922 -2.21744 -6.93179 92 95 90
-3.51244 1.95829 -7.46572 84 89 69
-2.07239 3.02085 -7.25176 75 82 65
7.41722 1.69379 -3.03805 85 85 14
-0.339168 5.00789 -6.85457 76 82 76
0.13296 -1.91807 6.76468 25 18 18
-5.2229 -4.92588 -4.22513 109 108 106
4.69264 0.254398 -7.06923 91 94 89
-2.48485 -0.363361 -7.09111 83 88 86
5.25191 6.74857 3.43279 93 87 38
6.32489 -5.76616 -7.39919 88 90 88
6.8934 2.70658 7.42856 88 91 62
4.0672 7.65011 -1.75178 78 80 38
7.09233 -7.08744 -2.41073 66 77 70
-3.99414 2.60474 -0.0240278 98 93 40
-5.42004 -6.84997 -6.8493 97 97 96
3.76848 8.89594 -3.8644 80 86 80
4.32012 2.2423 -7.00724 90 93 86
-2.63428 2.9365 7.81578 100 102 91
1.73842 0.978754 -7.0457 86 87 86
7.51029 0.968268 -0.0774471 94 93 43
-1.50999 2.59897 -6.91418 82 87 82
-4.58914 0.772786 -2.6596 96 94 64
1.45141 7.55468 6.32919 105 102 54
5.0648 7.17518 0.661564 84 80 34
6.8028 3.21593 1.92338 96 94 55
7.21059 -6.81809 5.3184 58 57 59
2.83173 8.79448 -5.40758 83 83 79
1.67074 7.68367 0.375024 105 97 54
6.13155 -6.39192 -7.43049 87 90 88
5.97578 4.81382 -3.36431 83 86 22
-0.119143 -2.60957 -6.91035 1 1 1
6.26279 -0.465948 -7.21268 89 93 86
-5.48917 -6.93999 -1.59628 113 113 110
-4.6852 -2.2102 -3.84309 106 104 101
-4.37559 -1.11007 4.81349 95 93 88
3.2391 0.768297 -7.05305 88 90 87
0.83918 8.87069 -3.81955 95 94 85
5.39374 6.00455 5.48178 103 96 52
2.23905 6.98883 -7.50867 80 83 64
5.98585 2.38785 -7.66738 85 89 79
0.753719 7.98829 -3.53021 95 89 56
-5.52215 -7.79687 1.15921 106 107 104
-5.22591 -6.46801 4.36055 98 91 90
0.646179 4.65407 -6.7299 83 85 82
5.69764 2.63893 -7.60143 84 89 81
-1.06792 2.85127 6.82745 95 98 95
5.93489 -1.2822 -7.27519 91 93 90
-3.08545 -9.69787 7.71317 71 67 67
-5.01931 -5.90976 7.05271 100 96 96
-3.20911 -4.05158 7.30412 106 104 103
2.98291 -5.07071 -7.06464 17 13 12
-3.39347 3.01154 5.66332 93 85 39
1.01095 8.90572 -5.14736 86 86 80
-3.59436 -4.06422 7.27635 107 103 103
6.69223 -5.48159 -7.19192 84 89 86
0.636644 3.30251 6.61051 39 36 38
7.06891 -7.24682 1.91271 45 43 41
6.15955 -0.267168 6.92811 84 83 84
0.654251 7.63322 3.23653 110 104 55
3.59226 -4.08872 -7.34386 73 82 77
4.83488 7.23247 -6.49455 80 80 27
5.04564 0.524387 6.74434 83 88 84
1.45086 7.69413 3.72482 105 102 53
7.12532 -4.94467 -3.35206 77 88 79
-4.47451 -0.869558 -1.88481 102 102 77
0.238935 7.79558 -4.16676 110 89 74
3.2316 5.07225 6.5498 95 95 91
-1.39081 6.84093 -6.84816 108 102 62
5.18877 7.03297 0.662895 89 84 37
6.50552 3.22611 -3.40914 71 76 17
-3.83014 2.58098 6.35093 97 91 49
-2.2435 4.65497 2.81048 96 89 25
6.91333 -4.37459 -6.76441 87 90 87
6.6011 -3.38843 7.08096 90 85 89
3.41767 -7.5589 7.32069 28 30 30
1.63713 -0.455438 6.84823 32 37 37
6.03485 4.65226 -1.23784 90 88 32
-1.02496 7.14755 4.80746 94 92 41
6.90579 -6.09545 -5.58468 69 75 69
7.11586 -3.16318 -4.44753 84 89 84
7.84277 0.343952 1.80685 88 86 45
7.45035 -0.911892 1.1711 90 94 75
-1.78286 -6.09662 -7.27767 49 54 49
-4.33258 -4.22741 7.23928 104 100 102
0.00649738 4.91815 -6.71321 79 84 78
6.59095 -6.02898 2.6345 32 35 34
7.17861 -8.98063 6.68845 91 96 93
7.52887 0.964147 -6.40629 82 88 8
-4.37317 -0.211761 -6.72652 93 95 86
7.45017 -2.72415 3.00915 89 94 87
0.800712 -5.5394 -7.37247 55 65 64
6.68231 -7.11989 -7.14579 85 88 86
2.95662 2.93979 6.45238 21 13 13
4.61134 2.41962 -7.02518 90 94 85
7.09808 2.30661 6.36969 89 89 45
7.56379 0.53553 -7.08981 90 93 52
7.10639 -6.05581 -2.31168 67 73 68
-4.33979 -7.37647 7.46752 105 101 102
1.83675 -2.56038 7.12593 75 79 80
-4.54925 -2.24858 3.6617 96 92 88
-4.71484 1.22003 3.48375 95 89 31
-0.0759792 7.85663 -4.95392 97 86 44
3.78617 7.91591 -4.31897 81 85 74
6.23505 -7.10956 7.22956 89 85 87
-0.597528 7.56227 3.05557 105 102 61
-4.75431 0.718464 0.273804 94 91 49
6.7392 -9.2355 7.23502 87 88 88
-5.19401 -5.27376 0.771766 106 101 102
-3.37707 -4.83983 7.25312 106 104 103
-1.78199 -5.61403 7.32028 92 95 94
3.43311 -5.07426 7.23724 69 71 68
-0.787199 7.42444 2.70896 102 100 44
4.42471 7.07476 6.55438 81 81 36
6.2333 4.09791 -5.86107 80 82 4
5.68542 4.4859 7.58714 88 88 75
6.17738 3.88704 -2.14141 83 83 19
-2.6393 -9.3545 7.70348 87 89 86
-4.84498 -2.51127 -5.73137 104 102 101
1.79571 7.74834 -6.94711 82 80 32
6.57981 -4.71758 7.13173 90 85 89
7.28608 -6.97332 6.58529 91 96 94
3.41391 -7.04906 -7.45225 72 78 75
2.95854 7.49946 3.7916 101 100 47
-5.15684 -5.62938 2.6063 100 97 94
5.90407 4.94282 -3.68496 83 87 17
7.66046 -0.269689 7.23199 87 88 77
6.58021 -7.66688 -4.30924 29 13 17
1.16728 -5.34349 -7.382 55 62 60
7.48692 -0.220372 7.34707 86 88 78
-2.57858 -3.3812 7.23056 105 104 102
-2.13298 -9.55671 7.71832 80 79 83
-4.64292 -4.7463 7.1824 100 97 97
-2.57512 4.26661 4.86023 92 85 31
5.54174 -9.927 7.46585 72 73 73
-1.54053 -6.52703 7.36951 72 75 74
-5.60961 -7.6967 -3.32427 114 117 114
-5.41436 -6.28759 -2.27812 111 111 108
5.9929 2.10683 7.4832 74 76 68
-2.65002 -9.00526 7.62747 94 97 93
2.44083 -8.29718 7.48533 79 83 82
6.13442 4.42101 6.42684 96 97 53
5.40778 -2.4472 -7.25948 89 94 88
6.42737 3.74601 -5.17347 81 84 16
-1.63382 1.63344 -6.95256 75 84 78
7.68309 0.606611 5.43391 95 93 38
4.60372 0.834974 -7.03722 93 94 91
3.09453 -8.59981 -7.50549 76 81 77
5.62752 5.34945 4.08293 96 92 30
6.29836 3.8359 1.5368 90 88 25
-5.32689 -7.41688 3.57912 97 95 93
-0.481215 -6.37345 6.92508 22 15 16
-1.07547 -4.53138 7.36815 89 90 88
0.828656 6.79409 7.52228 91 93 81
5.07366 -9.13164 -7.60283 78 81 77
-2.24012 5.27394 -5.10387 104 99 37
3.23861 7.75782 -2.65764 87 86 70
5.05394 7.21651 -1.70017 86 82 27
7.08917 -6.99236 -2.79108 70 79 75
-4.62005 0.901989 -4.6541 99 95 58
6.16573 4.27707 4.98393 96 92 42
-3.3528 -0.608068 -7.08813 84 90 86
-0.660609 1.94169 6.80536 86 90 89
7.05193 2.2658 -3.14043 85 83 18
7.4628 1.35124 -3.71247 87 89 16
2.78376 2.75872 -6.89492 88 90 86
-3.60013 -7.49545 -7.37428 85 89 86
7.39822 1.34861 -4.72177 82 85 6
-2.13441 5.53913 -1.37896 97 93 40
-2.01816 5.46938 1.20877 95 92 41
-4.66281 0.665376 -1.22737 96 94 61
-2.94361 -9.32168 7.69062 88 91 88
1.55418 3.18982 6.49431 19 15 19
6.73417 -6.82999 -7.01511 85 89 89
-0.753565 7.44947 2.3633 101 99 47
5.77918 5.19499 -4.40781 78 80 7
7.20252 -5.82619 -0.320368 57 58 56
-4.29925 -0.193386 -0.54932 100 101 82
-4.36366 -0.24361 -3.4618 103 102 59
-1.49793 2.93216 7.06944 92 98 93
7.86706 0.491848 1.09636 89 91 35
-4.30864 -0.0909296 -2.23982 102 102 78
-5.55336 -7.83592 0.523587 108 110 106
7.93598 -0.0922213 -2.64245 80 83 37
-0.871751 7.44612 -0.0639791 94 93 44
-0.700853 -9.26809 7.65055 88 93 90
1.13733 2.65277 6.49108 19 13 14
-0.782301 -4.44077 7.39181 86 87 85
2.13523 -3.80628 7.16018 42 46 47
7.75135 0.496858 -5.93878 86 89 23
-0.659694 4.86855 7.47705 92 95 90
5.35419 5.07709 7.58695 90 89 61
-2.02453 5.32578 6.1011 92 88 40
-4.30781 -8.4019 7.52457 100 102 100
6.96508 2.48826 5.26237 100 95 49
7.09665 -6.32419 -2.65817 72 80 75
7.12781 2.17131 -1.27434 84 83 22
6.91171 2.28572 7.57576 89 89 77
-4.39942 -0.0568128 -4.94913 103 104 50
7.38409 -3.34586 1.49917 86 91 85
7.4978 -4.08998 1.90289 74 76 74
6.74826 -6.70612 -0.835827 15 15 11
7.16011 -4.74445 -2.61611 80 91 80
7.43747 -3.66893 6.53709 92 96 97
7.2982 -7.27027 6.42079 91 97 94
-0.271842 7.72075 -1.54446 99 98 48
0.389177 -9.31627 7.71338 82 84 83
-1.0721 6.98468 6.54919 98 90 37
-0.760689 -1.59403 6.92598 51 49 48
7.17222 -4.29818 -2.8094 83 89 82
-4.60046 -1.55549 -2.0575 105 102 98
-3.2221 3.2098 5.69639 93 86 34
-0.355596 4.67433 6.93544 93 99 94
0.863168 7.62691 3.08337 109 104 52
-4.80005 -2.80253 -6.87478 92 96 92
-4.937 -3.43195 -2.32535 106 105 102
-5.00224 -4.33291 0.659594 105 101 100
6.93896 2.69849 4.49761 96 94 38
-1.94937 -1.60602 7.08172 103 105 101
-2.25675 5.22624 -4.13921 108 102 51
0.591379 7.78634 -5.68804 91 84 35
7.64437 1.37135 6.32167 95 95 51
-0.811053 -8.26149 -7.42052 76 81 76
-2.03648 0.762594 -7.01943 86 86 87
4.60657 7.19507 3.91757 79 79 30
6.86494 -8.77703 -4.30149 66 74 70
-4.27485 -0.157001 1.28885 98 98 82
-4.04547 2.28401 -4.4378 104 101 39
7.09926 -1.06299 -6.8005 84 90 81
3.12618 7.39525 6.69683 100 100 52
-3.7234 2.61615 -7.32867 93 94 47
2.71754 7.22015 7.33866 83 84 42
6.5004 -7.06235 4.10703 22 21 20
5.1025 7.15468 0.187482 81 80 21
5.12578 7.00695 -6.55036 88 88 20
-1.13707 6.78241 5.92077 99 92 43
-0.444809 0.230889 6.96022 92 96 93
-0.10288 7.66952 4.39489 109 105 53
-4.39829 -0.0750828 -5.05495 102 103 51
-5.23873 -9.61784 -1.37546 96 95 92
7.34797 1.59468 -7.20605 106 99 64
4.26151 7.41353 -5.27522 74 73 42
-5.39403 -8.58903 1.55791 100 103 99
7.19705 -8.93231 5.68714 80 83 84
7.3773 -5.19583 6.28558 89 96 92
-4.0669 -7.13969 -7.32449 88 89 87
1.92969 8.02178 -2.64353 81 83 50
6.88317 -7.4358 7.12555 90 90 90
5.50553 5.79732 -3.9822 86 89 5
-3.74528 1.38482 -7.38984 84 90 73
-4.42396 -1.73562 5.06896 96 93 91
6.96379 -6.93873 -1.99916 36 37 32
-4.48028 -0.624458 -6.34068 100 99 98
4.50114 2.24557 -7.01742 90 94 84
6.33331 1.04005 7.36063 71 76 70
7.61641 0.870118 3.44427 97 96 37
3.28989 7.48086 3.91132 101 99 52
7.91977 -0.072298 -4.51741 81 84 11
7.05756 -2.56959 -5.84756 84 90 83
-4.44976 -0.903614 -0.543452 102 100 86
0.571682 7.69012 -1.3954 99 97 50
6.18092 4.05525 -5.31363 80 82 5
7.12349 -2.96127 -4.64275 84 89 84
6.83184 -7.67002 -6.223 75 85 78
3.91342 -0.859035 -7.1452 83 87 84
0.612801 7.87964 -3.85382 94 84 40
6.89007 2.49596 2.12122 98 92 34
4.80599 7.22602 -6.61258 82 82 31
-0.600967 -1.32409 -6.90213 5 3 1
-1.39453 6.41884 1.46279 98 93 33
7.27949 -4.18592 -0.49198 87 92 85
5.25677 6.86571 -6.25662 84 85 8
2.83918 2.26055 6.21513 11 6 9
4.67636 0.415341 6.7647 83 88 85
7.29652 -1.43497 1.08058 92 95 87
-4.74902 -1.94942 -6.12703 102 101 101
0.693794 -2.18229 -7.13383 36 41 42
-0.934001 -1.62866 6.94626 68 68 67
-1.4128 -10.1553 7.67673 37 36 35
-4.99845 -3.62356 -3.76641 106 106 103
2.01527 -6.12724 7.18056 42 43 44
-5.22944 -4.77012 -6.11468 102 105 104
2.9167 -9.18919 7.53896 83 86 84
-0.155085 7.73472 -3.20622 101 92 54
-4.95474 -6.42094 -7.20339 89 92 90
-2.23943 -9.86062 7.71997 60 57 57
7.21289 -6.07824 1.20537 83 89 85
6.233 -0.0654182 -7.21853 88 92 84
-5.42049 -7.52643 1.77532 103 105 101
7.24602 -7.86842 5.79028 75 77 76
6.09842 1.80582 -7.65877 84 89 78
5.936 4.88613 -1.30194 87 86 32
4.49385 0.226966 6.75706 82 88 85
4.60981 5.27435 -7.56462 80 86 75
-3.87243 2.7789 0.21317 97 91 38
2.04458 -5.27117 7.28637 54 54 55
2.1053 7.83779 -5.98315 83 80 36
7.89929 0.398879 -2.74681 85 87 24
7.25744 -6.24763 1.4283 79 86 83
-2.94635 -6.3359 7.35272 105 103 101
6.5939 -7.35822 -4.13511 24 14 18
-2.24216 5.08677 -4.43663 107 100 46
-0.266739 7.55859 5.67497 125 107 109
6.73077 -3.03846 7.06013 92 87 91
-4.36284 0.267521 0.679291 94 94 83
7.01428 -8.67071 1.74531 72 74 70
3.55824 -7.08806 7.18059 22 17 18
7.61995 1.29929 3.74339 95 94 35
-4.84486 -2.74401 -4.54546 106 104 102
6.6448 -6.16756 -4.12823 20 12 11
5.14625 2.4869 6.87239 81 84 80
-3.95942 2.65457 -3.97014 101 97 44
7.37392 1.63791 -3.90751 89 90 16
-3.59071 -8.27729 7.54281 101 102 100
2.94819 -7.38997 7.25574 15 11 12
3.02793 7.63192 -0.942835 116 93 113
5.23748 -8.96565 -7.6021 80 83 79
-1.00378 -0.305292 -7.13394 76 81 74
-1.08743 7.28736 -1.11662 93 91 42
3.22807 7.46764 4.72612 102 101 52
5.61928 4.05946 7.60419 84 85 79
7.08499 -8.89425 1.41253 80 84 81
-3.3894 0.902177 7.6507 101 100 94
-4.56469 1.05827 6.7903 95 92 51
-1.94105 -9.62344 7.67772 77 76 80
7.23094 2.08089 -6.02241 86 87 22
7.25231 -5.25416 0.329503 85 90 86
3.06101 7.67106 -1.32858 108 94 88
4.4799 7.05587 6.45794 81 81 36
-1.15522 -1.18986 -7.11072 28 30 27
-4.32794 -0.564841 2.41113 98 95 84
2.86949 6.78556 -7.52258 82 83 61
0.794395 -5.57462 7.30847 63 60 61
2.95839 -4.73134 7.21443 70 75 73
7.16564 -0.840384 -6.65883 82 88 77
-4.63255 -3.77777 7.00025 96 96 94
-1.30655 -7.86985 7.52072 95 98 95
-0.0715876 6.77461 -7.42333 73 77 46
7.05693 -7.78778 -2.81744 70 80 76
1.77932 9.51031 -3.68841 85 84 86
-4.66411 -3.33733 6.66967 98 91 93
5.36358 4.97067 -7.60534 89 92 67
-4.90705 -6.06989 -7.21381 89 92 89
7.34965 -2.16691 4.2151 96 96 98
5.88813 5.21697 -5.84915 81 84 13
7.44201 -4.1567 6.37053 95 96 97
6.87199 2.57241 -6.98026 80 83 10
-4.60107 0.620587 1.83736 90 88 60
-2.17346 -2.55204 -7.21513 77 83 79
1.7604 7.69719 0.14419 101 95 50
-3.09132 -4.12 -7.22978 84 87 84
7.23043 -8.42594 5.42566 41 38 41
5.37037 6.60433 -2.89386 98 90 31
7.2878 -2.04575 1.1286 94 94 93
-0.981133 7.59777 -5.82019 98 94 40
3.37354 -0.188313 -7.13985 85 90 84
7.59834 -0.736433 4.8269 93 96 80
-4.57952 1.32684 -6.22538 101 102 53
7.33873 1.73418 -6.44776 84 85 10
5.57199 5.60262 3.70473 101 93 49
6.27118 -3.95285 7.12386 91 87 89
7.28584 -2.34061 -2.07728 87 90 84
7.31064 -2.99893 1.34959 90 94 88
0.799313 7.68304 -0.316917 103 97 52
2.65233 7.39903 -7.43998 85 83 35
6.85406 2.65148 -7.2169 83 85 22
0.204241 7.73506 0.512196 102 102 45
-2.79507 -9.41768 7.70536 86 87 85
5.52634 5.66914 -3.07882 88 87 18
-4.78925 -3.04898 1.48031 101 97 94
4.17462 5.51766 7.29231 80 81 71
-1.21292 6.82745 5.46287 94 88 44
0.554642 0.277561 -7.10702 80 86 83
6.54287 3.34241 -2.92211 85 88 26
7.36648 -3.97806 1.49618 82 88 82
-3.68606 2.93869 -3.43344 98 95 33
-4.42419 0.411972 -0.939126 96 95 74
-3.73442 2.67014 6.58781 96 89 48
-5.62226 -7.82713 -2.0995 114 117 113
-2.43848 4.61298 -0.819447 97 91 33
-1.83892 5.64217 -0.0892754 91 89 26
7.32753 1.95744 5.93273 91 90 38
0.536505 -4.09752 -7.31648 60 66 63
5.53312 5.68709 4.20032 98 92 32
3.64133 -3.0055 -7.23488 50 57 57
1.18826 -4.96208 7.30932 83 88 86
0.681447 -5.85781 -7.35933 53 60 59
6.67129 -5.73543 2.52633 32 33 31
-1.54736 -0.328255 -7.1118 81 88 82
-3.88549 2.68488 2.34761 96 91 43
-3.96014 2.57146 -3.46194 102 99 38
-4.94741 -3.1836 -6.67913 95 100 98
-4.22244 -5.92117 7.44605 105 102 104
-2.85467 3.08539 -7.50896 81 85 52
-5.19877 -4.65972 -5.31718 107 106 105
1.96745 -3.64271 7.17174 63 64 69
-3.02556 0.713898 7.35238 100 100 96
7.31078 -6.38498 6.27208 91 97 93
-2.6112 -3.34069 -7.23623 81 88 80
7.17008 -1.42376 -4.65621 85 92 84
1.55409 4.27032 6.57557 89 91 89
-4.28398 -0.386877 3.18608 96 94 86
7.16164 -4.50382 6.96326 88 91 90
-4.62802 0.77186 -2.45221 96 94 62
2.65628 -4.31013 -7.28331 57 58 56
5.4237 6.47578 1.93093 95 87 40
2.74767 -3.65664 6.93656 12 10 11
-5.46827 -6.63856 -2.31779 112 113 111
5.4373 5.9423 -4.83058 90 85 6
5.05584 -1.43598 -7.21716 89 94 88
-4.53636 -1.28901 -1.72475 104 101 95
0.442046 -7.24681 7.4554 83 89 85
4.8658 7.05705 4.2454 80 79 28
7.2275 -8.747 5.82585 83 88 89
5.25969 2.64984 6.98802 77 81 76
-5.38743 -9.35816 -3.39352 77 75 74
6.96229 -5.49894 -5.5639 78 82 75
-4.51589 0.47005 2.09619 90 88 68
-4.80136 -2.61246 -3.96723 106 104 102
6.60888 2.9645 -2.95847 90 89 17
4.06102 5.53572 -7.26972 78 84 73
-5.06433 -5.40565 5.05053 97 91 92
-4.07333 2.00962 -4.26668 104 100 39
-4.38751 0.347442 -0.634307 98 96 75
-5.49483 -9.72028 3.11478 86 83 77
7.38936 -1.02131 5.26322 97 99 93
-5.49715 -6.97195 -1.04204 112 112 109
-2.07272 5.12118 6.38669 97 94 43
-2.25043 4.82202 4.01691 97 91 33
7.53712 1.42839 3.20781 99 98 49
2.16563 3.77924 -6.81023 87 88 87
6.08823 2.26115 -7.68591 86 90 78
-5.14894 -4.35728 -5.35009 106 106 105
-1.38502 7.04255 -5.92688 102 99 41
5.89817 5.20431 1.03296 88 86 34
-3.20034 0.427285 7.34994 100 101 94
-4.77081 -3.42497 3.85375 97 92 91
6.79347 2.95404 6.2167 94 92 46
7.57632 1.07357 1.93091 94 92 38
-4.09423 1.9431 6.37614 94 89 40
5.3303 3.62178 -7.56572 84 89 77
-4.6684 0.863276 1.25395 92 89 55
7.86921 0.425775 -3.04423 88 88 14
-5.22851 -6.18361 3.28919 98 95 92
6.95047 -5.60617 -5.43447 74 77 71
4.99997 -1.57368 -7.2145 89 94 88
-4.72239 -2.65497 0.777502 102 98 97
-1.01367 0.771681 -7.04981 81 86 81
7.1723 -7.37689 1.4155 83 85 84
3.41048 5.28851 -6.77671 84 89 78
2.02739 4.55388 -6.75153 86 89 85
3.05296 -7.42125 7.25218 16 13 15
-1.39727 -3.91916 7.30699 96 99 97
0.532623 7.61049 6.59331 110 104 56
5.18693 7.03942 0.372663 87 84 29
-1.83006 -2.2579 -7.21184 69 76 72
7.53406 0.980369 -4.50711 80 83 6
-1.93871 0.301378 6.96278 106 106 104
-3.71032 -0.00987625 -7.05971 84 90 84
1.97688 1.27709 -7.00864 86 87 87
0.602363 -0.145061 -7.14964 78 83 77
5.44093 2.80478 -7.507 84 88 81
3.37374 -6.46125 7.10991 13 11 10
3.61897 -1.43041 -7.12217 45 47 44
0.710928 1.48595 -7.00015 82 84 82
6.87367 -8.8025 -3.85395 68 77 73
-1.47589 3.01523 -6.91926 80 87 78
1.25579 7.72361 1.92753 109 101 61
-0.972025 6.92723 7.08878 92 92 47
7.82696 -3.45131 4.61109 88 93 89
-1.9447 5.35037 7.30507 96 92 43
7.20611 -1.97684 -3.54959 84 88 84
-1.36045 -6.57292 7.33048 53 56 55
0.73588 -1.75412 6.90169 34 30 32
-0.0812359 0.863764 -7.02187 89 83 89
-2.18852 5.25055 -3.08729 99 96 34
7.09248 -0.414674 -7.21595 79 81 70
-3.74188 -8.82129 7.55611 99 99 98
-5.41398 -6.45694 -1.78365 111 111 108
5.35885 6.11259 -4.97823 89 87 11
3.02613 -5.54818 -7.01744 19 18 16
-4.33402 0.348387 3.30589 91 89 75
6.54308 -8.55632 7.27368 87 79 85
-5.30409 -9.68816 -1.64465 91 93 90
-4.38985 1.59344 -6.76892 117 104 91
3.00446 1.13297 6.46296 7 4 6
-5.16684 -9.59571 -1.46752 103 100 98
0.948762 -7.25873 7.41728 82 88 85
7.08444 -3.98308 -4.56612 84 88 84
4.06824 5.19196 6.92351 82 83 77
-3.22223 3.32643 -1.80687 104 97 42
-1.09548 -8.91108 -7.4084 77 82 77
-4.35946 0.0630568 -4.48506 102 103 64
7.59061 0.779898 -0.962198 85 86 29
-3.0701 -8.32334 7.54531 102 101 99
-4.6545 1.30331 -2.92818 99 97 49
-2.92968 -8.35727 7.53942 100 101 99
-4.15643 -8.48922 7.53378 100 102 101
8.05615 0.00452662 1.38167 90 91 41
3.10116 1.55164 -7.01134 89 90 87
3.91197 -7.21872 7.30902 59 63 58
-2.14378 3.33328 7.77909 97 100 93
-3.30566 3.08841 3.19107 93 86 26
-2.16553 -3.10324 -7.23687 73 82 76
7.30607 -2.27659 -1.16079 89 91 85
7.2186 -6.16429 1.27022 82 89 85
5.46168 0.881247 -7.04824 89 95 87
-2.12199 5.40046 -7.11923 93 92 48
7.16654 0.878254 -7.55346 84 86 61
-4.5868 -1.81164 -3.98858 104 104 104
3.82065 -1.03776 6.90899 83 86 86
6.48004 -8.74729 3.44252 34 34 32
-3.99066 2.41383 -1.50093 103 98 37
-4.20142 2.01748 2.28481 98 91 34
6.80766 -2.71248 7.03661 92 86 91
4.25954 3.87781 6.74275 87 90 86
-5.23539 -6.72085 4.01146 95 91 90
2.73793 -6.99634 -7.37865 45 53 51
4.67307 1.18997 -7.00854 93 95 91
-5.24975 -9.25362 -0.119678 91 91 89
-4.74424 -3.30906 4.53731 98 91 92
1.41232 7.67421 -2.22645 100 90 57
-1.76173 5.68273 3.2089 90 87 32
