ply
format ascii 1.0
comment Created by Open3D
element vertex 1409
property double x
property double y
property double z
property uchar red
property uchar green
property uchar blue
end_header
-11.1151 43.138 -8.71973 72 62 13
2.47938 42.7663 -2.24511 80 70 4
9.34586 31.5545 -9.40053 50 29 4
-16.4358 8.52947 -1.07927 68 49 17
22.1306 -26.5087 11.9888 90 114 15
13.8193 11.1288 17.1178 53 58 37
11.9814 22.4837 -21.3807 74 72 24
-15.8975 -25.3572 -15.6087 52 71 36
7.05176 42.8212 -2.60503 77 71 6
35.7313 -26.1207 -6.7365 75 90 19
-18.2838 19.9207 13.1751 83 84 9
-17.5331 40.9788 -9.84735 74 70 16
33.3659 -26.4017 -22.4736 75 88 40
28.1841 -13.9726 3.31595 63 34 8
4.10336 20.4865 -23.5162 73 62 17
27.867 -12.0377 -14.2976 60 32 8
6.23091 -23.0499 12.7932 56 38 20
-16.5381 4.65224 -15.8454 71 46 22
-23.2499 -23.8365 6.65643 42 35 10
-19.315 36.7536 -10.1831 129 121 38
6.13945 44.678 -6.26176 82 99 92
35.2108 -25.2263 -20.212 65 81 24
-16.5347 2.82648 0.112164 65 40 13
34.9819 -7.03458 -20.0906 68 82 76
8.44389 33.0507 2.64122 80 81 3
-3.44252 33.086 3.74433 73 71 0
-16.2349 10.7336 -17.7143 68 58 22
-20.6305 24.5931 -18.7192 61 66 47
-19.7777 43.802 -8.23597 68 64 18
5.27266 -0.785423 13.2905 66 40 18
0.447453 -3.63456 13.2215 68 42 15
-16.4246 10.5429 -4.31763 70 56 22
-16.4519 9.21262 -2.24499 69 44 18
20.0563 -22.6458 -9.2477 44 34 20
27.7845 15.2638 -2.87435 80 72 13
34.4064 -26.0473 -11.0369 65 78 16
-24.0499 16.6385 21.6158 80 114 115
-23.9985 18.1138 16.3089 95 126 124
-18.6532 21.2346 12.2682 83 81 8
3.7588 -25.2654 12.516 61 55 30
-11.911 32.0729 -14.892 70 71 19
35.13 -15.9236 -21.3113 66 77 62
10.8918 24.0646 -19.9823 75 68 17
8.68328 -25.4882 11.0744 68 77 62
-26.0844 15.3579 23.1402 18 46 15
24.0257 -26.7251 -30.2482 52 70 44
12.6713 36.0201 -2.03496 85 69 12
-10.7334 30.6681 5.41653 79 75 4
-31.4287 -25.8867 -6.53055 69 87 76
-24.7406 16.4997 12.4163 71 86 89
-25.6523 1.00204 18.6844 53 78 82
26.024 0.753143 -18.5547 76 77 20
-25.3301 25.7552 15.7522 69 96 92
-24.2563 -13.6382 7.33776 45 56 51
-1.4632 12.7255 -29.9584 72 71 12
9.01479 40.6901 -12.6902 76 84 75
12.8613 22.674 9.37135 72 65 0
-16.4262 -14.0808 -22.8103 73 49 26
-14.6426 26.058 -21.7916 70 76 62
-15.1727 -24.3381 -17.4599 69 88 76
10.1809 44.5207 -6.09565 82 98 90
-16.3939 12.8348 1.59482 66 60 20
-24.0323 4.40333 13.3231 46 68 68
-4.02157 12.9429 -29.9184 71 65 6
27.1879 10.3684 0.102859 71 72 4
9.38013 33.4463 -8.43321 52 28 4
-24.2304 3.0414 34.6904 53 70 66
13.6274 21.7734 7.56965 77 74 30
3.74936 -26.3189 -25.6674 53 54 40
31.1848 -26.5585 12.8233 84 96 31
-16.8655 -25.4028 6.11357 49 57 31
-15.6141 30.3813 -15.7347 68 72 20
27.6474 -23.1151 0.611759 44 28 9
-2.274 24.8795 -20.2074 67 65 15
-30.1216 -25.9203 11.9388 53 86 32
-20.6794 38.2999 -9.67676 52 54 36
6.4156 17.6899 13.3788 74 61 0
-16.4221 7.21129 8.57015 69 45 21
27.6377 -9.87801 -11.0146 71 70 39
-16.4785 6.93124 -11.8008 71 45 18
-26.9882 -24.9924 -28.4649 22 55 18
-23.966 12.5041 21.9965 48 88 64
-31.1034 -26.991 13.4891 66 82 72
-9.0993 36.9344 1.98896 72 70 0
9.40263 14.2878 3.17367 60 38 17
3.15899 18.0602 13.3773 70 68 1
10.5179 36.3192 0.687405 79 74 1
33.3531 -14.8271 4.40534 45 8 2
-2.43134 1.98862 -27.4019 55 48 48
21.7499 14.5034 -9.41809 71 70 23
-24.9545 -22.5932 1.35289 87 104 87
-16.2361 18.2637 -9.58207 66 36 4
34.0709 -8.14749 -22.1087 66 74 71
7.56463 29.2946 -15.8096 76 72 22
7.1802 -1.77655 13.2095 63 44 19
-0.261517 25.5385 -19.5488 65 61 12
35.5089 -19.753 4.24676 81 98 90
-3.98292 38.997 -11.0765 71 69 11
-16.4448 6.28037 6.78026 64 36 12
-25.9871 -16.4745 15.3908 60 81 71
27.7998 -8.48315 -12.8098 73 49 18
17.5067 14.707 -2.45674 79 72 8
35.2764 -23.426 9.61821 84 76 2
6.5432 44.2808 -3.41406 81 74 9
8.88752 30.6689 1.05813 52 35 7
8.58804 44.5271 -6.00041 83 102 94
0.397335 33.6672 3.10191 71 70 0
-20.3611 15.8383 16.133 86 91 36
4.23466 14.3737 15.9039 68 57 1
-26.0488 19.4275 16.2476 54 78 85
16.4433 0.675789 6.16764 78 66 2
-7.35044 16.8368 -27.0033 70 62 8
-24.1641 12.588 31.8436 28 55 42
9.21326 -2.23644 -22.1797 71 42 22
-16.3273 -22.8969 -21.8509 57 41 21
-16.1662 15.509 -20.3232 44 26 9
9.25397 6.54697 -14.9415 67 42 25
-24.1042 10.6907 30.9163 55 87 88
-23.0517 -25.285 -8.80529 31 63 22
-13.1745 -24.2246 3.06991 44 50 20
9.39097 18.844 4.65714 74 40 11
34.0449 -25.77 -26.5034 37 64 15
28.5942 4.9066 -0.814191 37 21 2
30.0277 -25.0105 -20.7615 31 36 28
5.63994 -19.4258 12.9225 56 39 22
33.6108 13.0178 -2.32922 69 79 64
36.858 -25.8166 -29.6168 69 88 34
33.2902 -25.7966 9.12004 81 67 8
0.689072 15.2214 15.526 68 58 3
12.9011 -27.126 17.5422 52 70 48
6.57293 34.1013 2.25907 74 71 3
-16.4477 9.22039 -8.29416 69 46 12
9.28054 10.2727 -20.2643 68 55 34
31.7373 1.11557 5.75042 73 71 0
-9.68145 27.9647 -17.7908 66 62 16
9.2675 21.1365 5.87377 55 33 13
-7.36246 39.9651 -10.5416 68 66 13
9.46135 35.7896 -9.3407 45 24 9
21.8037 4.2112 -16.2781 73 62 18
25.0243 15.0509 -2.71759 79 79 11
20.1809 -26.5115 12.1151 92 115 35
22.8723 10.9226 -0.188213 74 75 11
9.3763 3.36042 9.99198 78 47 17
9.38724 16.3739 -2.39741 55 33 6
13.2492 -24.3937 -25.6492 49 54 33
9.38645 34.764 -2.81054 53 33 14
13.3328 15.7352 -8.5916 78 74 21
12.13 -24.767 -25.221 50 61 33
30.259 -26.6367 15.7738 87 104 24
12.5979 26.5521 -17.6099 71 61 24
-16.1406 -21.0215 10.1499 28 17 4
5.28252 21.1387 -22.9099 75 73 0
40.3401 -26.6998 5.99598 64 77 41
9.15411 -6.87637 -22.6448 68 42 21
-26.3079 13.4648 43.4567 39 64 66
24.8778 -12.2355 -8.83089 59 35 0
15.3851 -0.540993 6.91222 76 67 2
-26.2433 17.1264 36.936 21 35 20
-16.545 26.1949 8.65972 82 67 1
-26.0579 10.8051 33.4347 18 34 17
26.8229 -25.5772 -31.9671 27 38 19
7.07732 7.1249 -23.6445 74 85 79
27.8619 -9.47845 -14.3249 65 41 15
30.2233 8.70256 0.996056 68 64 4
-16.652 2.14158 -15.6896 68 42 17
15.3241 4.81215 3.48789 78 63 3
7.3026 25.359 7.9412 91 90 8
-16.507 3.79259 6.92023 65 38 15
-25.8423 -23.2661 15.7991 61 78 56
-24.0982 20.9979 21.2293 79 113 119
35.2342 -13.3283 -18.5822 72 67 44
4.07486 16.8133 -26.5758 73 60 15
-31.5363 -26.5723 -10.8032 71 87 79
32.0755 -25.923 -30.37 84 109 54
22.8028 12.0611 -0.859989 75 76 10
9.67609 4.60585 3.46266 82 64 10
-2.86407 -10.5611 11.3166 1 1 1
25.3715 -12.5769 -4.03551 25 6 2
19.9633 -28.366 17.5998 66 80 71
-14.7725 22.333 -24.7715 71 79 67
27.4956 12.4795 -10.6665 71 70 18
4.20517 19.9123 11.9542 73 64 0
-24.2627 14.3001 36.1033 27 62 29
-10.4489 21.7131 -23.1041 68 68 14
-8.21608 44.9372 -4.62392 70 84 75
-4.48773 2.11783 12.0716 67 75 67
-21.3654 -24.5275 7.78239 54 64 24
9.47491 12.9173 1.71141 71 62 21
-25.7405 -25.0226 -28.264 31 59 23
-26.3155 16.0326 42.9327 43 72 82
-23.8322 6.3936 14.7307 8 59 22
10.5942 2.76853 4.76196 83 72 11
33.3858 -19.8023 -21.9702 74 95 64
9.24181 27.8604 -10.0667 74 63 1
35.5369 -18.5988 9.85412 83 100 93
2.58332 -17.54 12.8945 54 42 25
25.6933 -17.3697 6.09632 69 48 27
9.47966 37.6095 -7.76521 49 32 18
-25.7809 2.76651 48.1964 47 70 71
-18.547 27.3427 -16.2377 115 107 17
11.2963 33.9509 1.93684 74 68 1
39.2826 -26.3542 -2.19159 71 87 6
21.3286 -24.9141 -7.07585 38 29 15
-24.381 10.1528 39.4318 63 89 88
9.36977 21.3544 2.36891 73 49 1
17.9042 -2.52985 -20.6421 76 69 25
-16.4566 7.15092 -5.06224 68 39 9
-24.0824 -12.6198 9.12814 72 93 83
-25.8279 -6.37795 19.2521 63 82 85
-19.4046 13.8539 17.4565 86 79 6
12.8553 41.5561 -9.35058 67 64 6
-14.7515 22.852 -3.70036 41 44 39
-17.4457 22.0549 -22.8691 72 68 1
-23.9781 -15.2445 10.7816 71 101 81
19.7971 -26.6503 16.3399 97 116 14
-16.6132 -1.4648 -22.2144 76 49 25
0.664543 19.6225 -24.4128 71 70 11
25.1089 -25.6333 -2.78444 39 45 7
-17.423 27.3564 -18.391 71 66 21
-24.1732 19.9119 24.7561 57 90 93
-10.7881 44.3735 -7.9591 69 63 16
11.8909 -26.6866 15.4411 76 100 19
-2.40461 42.4077 -1.66754 74 67 4
17.4758 1.26694 -18.1925 75 75 17
-16.3892 0.441032 9.08593 65 43 20
-23.9656 13.9697 17.9271 79 115 122
-24.912 28.9775 18.8521 64 82 76
-18.0905 -25.3211 -12.6638 55 76 21
-24.7504 6.74061 35.956 53 66 62
29.5097 6.4258 2.3084 78 76 3
28.3008 -7.68993 2.00537 72 44 15
37.5942 -25.8767 -21.5681 86 108 37
9.3954 14.7097 -13.6358 57 36 14
13.8806 35.2221 -10.9175 73 79 73
-17.2322 39.4305 1.14018 72 66 4
25.6774 -10.2361 -7.70617 42 15 0
9.28267 21.4209 -7.83194 74 43 7
-16.6032 23.6549 -19.3613 73 71 7
34.9994 -25.0316 -22.1965 67 83 23
13.7921 11.748 15.409 57 69 60
-31.3311 -27.3843 2.96937 58 85 61
10.2678 16.9315 -26.221 72 64 21
28.6779 6.42776 -4.01118 30 14 19
15.9452 -26.5738 13.6592 90 110 30
32.9939 -26.1196 -3.83526 95 109 27
-15.5831 44.3751 -1.77315 69 66 5
-5.40832 30.6935 -15.5771 73 65 20
7.40457 35.8347 -12.4709 78 74 0
-24.4326 8.18305 13.9608 42 56 46
-13.7802 -26.2892 16.1435 107 130 56
-15.9383 15.9302 -22.8936 46 33 17
-20.1079 13.9979 15.0515 91 77 0
35.2376 -17.6066 -17.1943 76 64 10
-18.3619 42.6708 -8.89394 68 64 17
19.7997 -2.02645 7.81857 70 67 1
-1.4627 21.8942 -22.6232 66 67 13
-14.142 24.851 9.85496 82 87 0
-7.12309 -3.50995 13.1206 71 47 19
-29.3332 -25.0288 -21.6238 20 60 16
26.2624 9.2032 -12.78 65 58 20
27.2734 -16.1706 -11.146 67 72 58
10.0869 34.6201 -9.01911 46 27 7
9.44302 8.95183 3.56448 74 50 12
26.037 -0.268936 -19.2306 77 69 24
1.04906 25.1085 8.53369 72 60 1
25.7551 -9.4925 -17.8446 68 70 57
9.37958 11.5211 -16.801 67 56 26
6.98882 29.8536 4.2949 78 72 11
-16.2696 9.34449 -19.6134 76 53 28
28.7239 2.91025 1.18618 53 53 36
31.058 -26.032 -12.5548 61 69 27
4.681 19.4083 -24.3842 71 66 16
8.83534 -0.429039 -23.4027 74 81 74
-1.85358 38.1789 -11.5106 70 66 12
25.4437 2.64019 4.86445 77 66 0
9.25313 16.8181 9.19781 65 59 13
-24.5749 12.2074 47.1159 60 84 89
-22.5358 -24.9633 7.77054 46 47 38
7.04214 -23.7624 -24.1929 66 76 75
27.3965 -23.1362 -13.3138 54 36 11
-2.55052 19.9532 12.3845 71 68 2
-25.953 -16.4073 8.50714 52 76 55
37.4817 -26.5454 9.5513 78 91 17
-9.84838 32.5878 -14.6263 70 71 16
9.07398 26.6627 -17.8757 71 63 12
25.0612 -1.61137 7.57181 75 64 0
-24.9741 26.4752 26.1164 65 75 70
9.39996 6.79464 4.27353 79 55 21
-26.7642 -26.9673 17.5027 69 85 74
40.383 -26.6267 -6.64461 54 75 40
30.2146 16.6723 -6.632 84 97 90
13.9706 37.1921 -10.1861 61 63 64
28.1351 -14.17 0.869797 66 36 8
-9.14478 45.0308 -6.68369 76 91 81
28.7982 -26.1378 -3.96503 113 128 57
-3.51421 0.385551 13.1932 75 52 26
9.3101 18.3804 7.9842 68 48 10
-12.7378 23.3924 10.3845 73 73 1
9.36211 21.1289 -10.5148 72 41 5
-15.3452 -16.3807 -17.542 78 92 81
5.53293 10.7183 -25.6381 24 19 11
-26.0552 -15.4386 13.1255 39 31 11
-7.42346 28.7462 -16.9458 64 56 17
-12.5923 44.3584 -2.00059 73 69 1
26.2759 -8.58849 5.94279 60 50 36
-16.4166 10.6482 3.10106 46 26 14
20.3743 -21.4964 5.37553 27 25 17
30.2409 -25.2828 -18.3829 22 21 13
13.842 26.3618 -16.0461 64 70 50
9.45758 15.1915 1.05653 53 35 14
-24.2367 -6.84663 16.6157 76 74 49
-16.2823 -25.0772 -22.9645 52 38 18
26.3221 17.0685 -7.21274 88 96 84
4.32035 38.0951 0.269791 74 64 0
-21.432 -25.9082 13.4998 82 113 49
35.1683 -9.20624 -15.9582 62 84 71
-24.5994 -21.5371 2.05718 74 95 77
-24.3446 23.9724 25.1427 52 85 77
-26.1179 13.0446 33.3897 13 38 15
29.4705 -0.855278 7.05659 74 72 1
32.9686 -24.1992 1.48136 44 39 41
-24.3991 -1.97933 14.7663 70 84 80
9.18579 22.3482 -3.9689 53 35 22
39.8221 -26.65 10.6429 80 95 20
-17.9145 13.6977 -29.9667 67 60 11
5.71627 40.9269 -1.44622 77 69 3
3.79363 44.5121 -5.54808 79 95 87
-16.1049 -19.787 9.26023 39 24 1
-26.2057 20.6439 26.718 19 45 21
19.7904 -23.785 5.17735 14 13 7
-16.9079 30.9896 -13.5798 33 24 10
26.1818 -12.89 -1.47652 27 2 0
-7.54558 44.55 -5.72734 85 101 93
9.54272 11.6286 -0.93662 65 56 21
-24.3344 14.4597 38.5538 55 83 82
33.3357 -15.3364 2.68169 56 52 0
-15.4303 41.6089 -9.5185 73 68 27
-16.3691 37.2246 2.30286 74 73 2
-25.9697 -11.0139 18.3363 63 81 79
9.42184 7.53057 8.21375 79 47 15
3.66258 21.5436 10.846 73 69 3
-16.382 -15.954 -19.7827 55 38 18
33.9259 -17.676 4.14912 64 5 1
36.1611 -26.346 -17.8838 103 103 48
-24.0585 16.0092 14.4247 43 74 67
-24.8609 19.9329 34.9497 65 79 72
13.9281 37.7663 -1.2867 76 99 85
12.4067 12.2531 16.8994 74 68 3
-17.1587 -25.3776 -9.94814 62 79 21
27.3165 -0.853333 -19.4274 78 72 27
-2.23615 39.9274 -10.5532 70 63 13
-1.44226 27.7662 -17.6632 67 62 14
5.29519 12.9479 16.8426 65 54 1
-12.5257 -25.9113 12.7523 69 76 37
27.7578 -2.21229 7.94748 68 64 0
-25.6791 2.39974 32.6137 25 34 14
-14.8324 19.0153 -25.4285 70 66 11
25.9491 -14.0391 -2.14182 22 2 0
31.0945 2.45395 -16.9146 74 69 4
-14.776 16.5703 -24.9686 98 84 14
19.3679 -8.1888 5.26282 67 40 17
-24.7546 -19.6477 3.31641 83 101 85
-13.7526 34.009 3.97626 74 71 1
35.2149 -13.7794 -16.1171 68 63 46
27.3853 -22.5436 -11.9576 77 75 15
3.67449 40.0303 -0.764733 74 72 2
20.1762 -26.5574 13.8531 91 114 21
10.2934 13.7636 15.9709 70 65 2
-25.9281 -21.3524 3.38448 49 68 26
-3.81192 19.3617 -24.7883 70 60 8
9.18385 -26.6964 -30.005 38 58 25
-26.1405 26.8132 18.5566 29 53 34
29.4249 11.3851 -0.506882 74 65 4
-23.9672 14.8406 12.5935 61 97 103
-24.3206 18.9543 31.9239 65 98 102
-13.2376 39.5806 -10.6493 74 71 14
-22.6566 -25.0812 -26.815 28 61 31
9.39206 36.4879 -4.44825 65 40 3
4.01903 43.478 -8.49585 70 60 12
-16.3317 -22.5604 -19.1286 56 38 18
-16.4226 45.3784 -2.32436 75 66 10
-0.149078 -11.169 12.2543 0 1 0
-15.4449 39.4074 1.90268 73 82 43
27.9849 -16.6118 0.192477 68 43 15
-1.11698 32.0609 4.08704 73 70 1
28.5312 2.09398 -10.7608 65 48 0
10.2163 -26.1152 -24.2392 34 31 25
22.1716 10.9317 -11.7965 72 71 16
-7.00727 36.6456 -12.4054 72 71 19
-31.421 -25.2459 -20.9 43 62 41
38.5831 -26.2415 -6.22357 65 78 7
-4.42342 42.8686 -1.77638 75 66 6
22.8967 -26.4139 -6.09601 67 70 34
9.0229 -13.1369 -23.2756 72 54 36
9.99055 30.7726 -15.0433 74 72 22
9.29677 21.1185 -6.50805 74 42 6
32.3847 -26.188 -2.21273 98 110 49
-9.69518 13.4627 -29.7802 68 65 8
3.12751 13.8712 16.3158 67 69 3
-25.0298 -25.5315 -29.586 18 47 19
2.61138 44.7406 -7.52363 69 62 35
-16.5977 3.83593 -18.5486 72 46 20
-16.5781 31.9257 -14.935 72 71 17
9.35098 10.4542 10.4401 54 38 23
23.1464 -20.5842 -2.86237 25 8 4
32.4149 9.65154 0.456436 69 71 6
-16.712 -1.28935 -17.2892 68 40 17
-15.8249 -26.5562 17.4988 55 74 54
-25.9861 -17.7673 15.164 63 79 69
-25.9697 -15.1909 10.0107 54 77 62
33.1229 16.4848 -4.90757 70 86 78
25.0404 13.8221 -9.82199 70 60 17
-24.5818 7.27542 47.6619 53 76 79
-26.0963 8.77013 47.6197 64 79 79
-18.2116 -25.3113 -19.1255 62 74 30
-4.91909 2.08311 -28.0215 56 42 31
-20.1004 -25.3918 -6.22502 45 72 22
32.6402 -26.7572 11.1282 83 90 9
-16.4619 6.4169 -1.57698 70 44 17
19.8244 10.7233 -11.9806 74 69 18
-20.734 18.1733 -24.6811 59 66 54
23.3759 -19.5492 5.84979 62 53 35
5.48008 -16.5678 13.0324 54 41 26
12.7209 -24.2699 -21.7486 42 54 31
-15.6203 24.0406 -8.86317 61 55 48
-20.3603 43.6076 -4.68377 41 34 18
-18.9421 -24.3636 1.89486 59 76 19
-16.6259 -2.51254 -19.5528 71 45 18
13.8886 33.2509 -12.0598 77 79 65
-16.0864 14.7186 -21.7158 57 36 21
-25.888 14.6286 15.4667 50 75 80
-23.7885 3.81024 16.4785 78 118 122
16.4107 6.14791 2.62739 76 62 0
29.5307 -26.4994 9.47941 99 115 77
35.9229 -26.632 7.74227 92 100 35
14.1866 32.4167 2.0826 62 50 29
-13.6532 -19.6312 -16.884 60 73 71
-12.381 22.275 -22.6617 67 71 18
-24.0964 14.2056 27.8181 33 64 43
33.5935 13.5102 -7.61855 62 65 31
35.1828 -24.5132 3.25144 80 71 0
27.8047 -3.55845 -16.3141 42 26 21
-16.0881 -18.5059 8.3895 40 26 10
-23.8743 -25.3433 -5.00571 49 80 21
-16.3918 -19.2754 -21.9541 55 40 21
-8.75337 43.6812 -8.42182 71 63 15
-30.5293 -25.2486 -11.3636 26 68 21
18.7442 17.2802 -7.10665 87 97 86
9.34846 33.5066 -10.5396 48 25 5
36.5931 -26.0751 -10.5584 63 77 9
15.7676 -23.1547 -22.6811 53 48 36
-19.385 39.1129 -10.8951 70 64 15
9.33022 0.912354 -18.4063 76 65 20
26.8224 -7.97058 -7.05655 11 3 0
28.8206 10.5054 -6.62057 56 41 0
-22.8679 -26.8519 17.5505 65 84 75
24.1273 -28.127 -31.7043 22 23 20
13.9911 16.5192 -26.1992 67 62 44
13.8523 29.5792 2.94017 84 98 77
-26.0529 21.9825 30.5976 69 85 82
-16.6533 1.21964 -18.9338 72 44 21
33.5508 11.9117 -1.78726 70 79 69
-16.439 8.63527 3.9303 61 44 10
16.8799 -16.4341 3.3548 14 1 3
-11.6733 -17.2674 -14.6558 41 23 0
12.8919 11.5012 -11.4761 85 82 22
-20.7119 41.5639 -8.45902 60 64 56
16.908 -10.5604 4.88961 67 40 15
-16.4734 6.50481 0.98571 66 37 12
2.52219 -23.1847 12.5778 54 42 25
-3.10924 36.2678 -12.5835 69 65 15
-16.4028 -16.8125 -22.4649 55 38 22
-25.6062 -25.0218 -24.3873 37 64 26
-7.06725 28.7455 6.39963 69 64 1
-15.979 25.1059 -21.9243 78 84 7
24.6554 10.7789 -11.8493 69 63 17
5.15665 26.7301 -18.204 69 60 22
9.31075 30.0488 -9.71045 49 26 5
14.0383 32.7117 -13.2997 77 77 66
5.20291 30.5339 4.19615 78 68 4
-2.89676 43.1084 -8.76057 71 61 14
26.1451 -11.7576 -2.11211 43 23 3
27.3183 -0.71006 6.99924 75 67 0
-15.4317 26.7592 -18.9689 68 62 28
-19.2455 -25.1802 -24.8354 34 65 29
8.93184 22.6059 -5.73498 62 55 45
-3.28662 -6.50881 12.3478 2 0 0
-5.56358 -5.58412 12.3039 3 1 4
0.0697289 -16.8052 10.6651 1 1 1
-25.683 8.41331 15.4 17 46 12
8.98777 1.47918 -23.1937 79 68 55
33.2755 5.90335 1.42018 72 83 75
-17.4015 34.7955 -13.2947 76 74 2
-20.7413 -25.158 -21.0896 45 72 31
-9.39557 12.6229 17.7747 76 76 2
9.22884 26.3257 -20.1721 86 93 65
-9.67496 39.7188 -10.6708 71 66 15
9.37894 19.4688 -9.95795 72 41 7
-15.6573 40.7551 0.344246 91 93 8
-24.2487 22.5141 16.8917 59 85 74
39.601 -26.2541 -8.56748 64 75 15
4.54455 24.1992 -20.3594 69 68 4
-26.071 7.24815 43.1004 38 63 62
8.1502 38.0483 2.56676 64 75 62
-8.24178 11.6757 -30.1807 58 63 49
3.0012 30.7247 4.32863 76 76 2
9.41043 19.6096 -12.1651 70 40 5
1.41235 0.486786 13.29 71 48 25
7.29327 -26.6499 14.647 79 102 24
-6.19761 38.0766 -11.5785 71 68 15
6.40198 -17.9325 -24.8958 49 34 16
20.3111 -0.324219 6.7934 74 73 1
-20.7025 39.732 -9.50912 57 68 56
-7.46376 35.3266 -13.1468 68 65 14
-25.8251 17.9503 13.4047 54 77 79
-14.5839 15.4811 16.1421 81 77 5
-10.7527 20.7744 12.2479 75 77 2
11.0872 -25.4407 -23.3501 46 55 24
-16.3709 7.59958 -18.7341 71 49 19
-26.0606 12.0571 28.2873 49 47 3
-8.03495 13.9556 16.8526 76 70 2
22.4146 -1.01206 7.21701 72 72 0
-25.8474 4.07782 28.421 48 72 77
-25.9874 10.9251 22.9984 47 75 83
-15.1965 44.5114 -7.79692 71 62 8
-6.78858 26.8679 -18.6847 67 57 15
-24.0665 18.7247 22.5485 52 83 65
3.98367 44.9392 -6.7578 80 97 90
25.5646 -26.1009 -19.5368 20 27 16
-24.406 4.15497 48.9174 39 61 56
9.39938 17.9513 -0.495317 75 39 3
39.8932 -26.2795 -19.0185 62 87 40
7.42053 4.21887 13.134 54 39 22
-16.0789 19.4577 -21.3572 40 18 0
11.6065 -25.4138 -27.1779 42 54 26
-5.09408 35.6008 -12.958 69 67 14
-24.0044 -10.2627 13.0979 73 107 100
-26.2437 17.5202 39.3412 42 73 81
9.40583 18.5447 -2.32075 69 36 2
-10.8571 -25.4629 -12.642 50 69 17
-19.9039 21.4361 9.79043 93 86 3
-14.8422 35.1744 3.2654 74 83 75
-23.6246 -25.2178 -12.3823 31 63 24
25.7006 4.41985 -16.0844 81 69 6
5.92188 40.3558 -10.2087 74 67 1
-16.1078 -12.842 10.7001 56 34 11
19.0318 -27.1211 17.5164 55 69 47
24.5518 -12.9133 5.99962 72 47 24
9.75465 40.6056 -1.65234 76 74 10
13.5678 0.24205 -18.7987 76 72 16
4.8962 22.1728 -22.07 74 76 1
-26.0203 4.59406 47.4067 18 50 31
27.6582 -17.8163 -12.3394 76 68 8
-11.4498 45.021 -4.44484 71 84 73
38.6783 -25.7939 -25.8216 73 85 27
17.2005 -23.1883 -24.4356 63 46 25
13.2259 41.2134 -2.16469 81 74 7
9.24234 22.535 -24.136 87 89 5
-16.4263 -3.05627 -3.33419 72 46 14
9.52853 14.9919 -2.9265 46 28 7
27.5128 -25.2154 0.37422 39 23 7
7.56461 36.8849 0.744914 74 72 1
-16.6261 2.14168 -12.9931 69 41 14
29.0583 13.3681 -1.69253 76 73 8
-13.2769 27.4364 -18.323 67 56 15
-25.9657 14.899 17.1609 49 75 81
-16.5777 26.1471 -17.4492 59 45 7
35.7267 -14.1685 3.32692 81 70 3
14.0539 8.24279 -13.2701 88 86 28
-18.8051 26.5084 8.65416 87 74 3
-19.674 27.7145 5.4982 89 82 11
24.7709 -25.7592 5.80352 58 48 21
35.312 -21.8551 -19.1196 67 83 78
-11.023 -25.7764 1.45308 97 117 65
28.4404 0.289761 -11.6616 48 28 17
33.2616 -23.3967 -18.1088 83 90 76
-16.4162 7.00151 -20.1916 75 47 22
-14.241 14.5989 -29.1124 68 63 10
-26.0819 6.38242 44.9872 36 63 67
-14.5412 26.6503 -5.81287 13 0 0
12.1765 4.65828 3.54019 81 69 4
-24.4706 28.1833 21.2986 67 91 88
8.45156 42.6992 -8.85214 73 64 18
9.37799 16.3586 1.56419 53 34 21
-29.7596 -25.0828 -19.3858 21 62 15
18.7726 -26.6024 14.3418 93 115 26
-26.1876 16.3778 34.3145 16 32 13
-24.9184 8.16075 35.9385 52 66 61
13.2318 13.6775 -10.0254 84 82 20
-21.9868 -25.1407 -20.9318 34 67 26
-24.6758 -26.1347 16.2872 74 109 56
36.0591 -25.5568 -30.7171 30 46 28
14.3974 1.299 5.76467 80 73 3
27.2444 -15.0734 -1.23075 63 72 64
25.724 12.0006 -11.0396 70 68 17
-25.5534 3.91563 14.7962 54 76 77
35.0662 -25.8834 3.93951 80 73 0
-26.1307 18.4995 19.4424 24 55 41
-25.3105 -3.07251 14.1237 87 109 108
13.7061 13.2648 -26.8357 67 46 1
17.0969 -26.5263 11.4119 90 116 27
7.34089 23.585 9.50563 94 91 5
-16.5412 4.03506 -13.8286 67 46 17
-24.4971 15.4827 43.616 32 57 47
23.7631 -25.289 -3.07286 21 22 2
-23.3451 -21.3569 2.47445 5 2 4
-3.04619 14.9275 15.9323 70 66 3
33.7533 -15.6075 8.47854 69 13 8
-5.45557 28.0867 -17.5308 64 54 15
-11.6251 39.9131 -10.5927 73 64 19
11.8167 21.5534 -22.2193 74 74 22
31.2586 13.2475 -10.0374 74 75 20
-19.4068 46.009 -2.97021 78 74 45
-19.0989 15.4852 -28.562 68 62 10
-31.2016 -26.4312 8.69985 60 77 61
9.31941 22.2289 -1.04233 71 38 3
7.73623 26.2543 -21.6155 78 79 40
34.9633 -11.8648 -12.6722 70 85 74
-23.8716 8.30133 20.2142 75 114 119
7.55498 38.5749 -11.1392 81 76 1
-8.22553 41.3509 -0.565071 74 70 2
-25.7572 11.3602 16.2412 25 50 37
-23.824 4.73994 20.8497 75 113 117
14.0202 17.9738 -24.3995 76 78 68
30.006 -26.0328 -10.5421 61 74 14
9.57798 22.435 9.81015 90 92 30
30.8831 9.24355 -12.642 76 65 5
-26.139 17.9241 27.2041 16 44 19
33.1862 -26.6622 14.6825 88 99 30
24.3197 12.6677 -1.25073 73 76 9
-25.7636 2.18371 21.7042 39 29 11
-16.4136 11.7053 -1.9364 48 32 14
-16.0595 20.9506 -11.8903 66 48 25
-19.8502 23.0443 8.43284 96 83 7
-2.10294 -8.01402 12.1241 0 1 1
-25.004 14.1942 47.9097 65 84 81
30.1761 -26.365 3.38387 69 76 33
33.2775 -25.0908 8.16605 73 63 9
28.9073 -26.0513 -8.47269 79 91 26
-16.4076 11.1168 -10.5179 59 51 22
9.37534 1.79493 9.24218 81 56 22
27.5315 -12.2609 -11.1476 75 73 49
-0.319263 3.96519 10.6347 25 21 15
-4.14012 31.0598 4.79198 76 68 2
-14.5188 16.3035 -27.7107 66 59 13
24.2461 -23.9063 -24.2496 56 55 20
23.4144 -2.20488 -20.5579 80 72 25
9.3399 22.8219 -12.1523 68 42 2
9.36462 22.5591 6.33293 58 35 17
8.99178 15.6972 -23.0124 41 25 6
5.73436 32.5138 3.20828 72 72 0
1.70102 36.8383 -12.193 71 69 16
12.6663 8.16033 1.14865 81 73 8
13.9929 41.7193 -3.77076 71 82 72
-26.1453 12.5891 35.9996 28 50 33
9.37801 -26.68 15.5856 68 97 15
1.69678 35.3901 2.02941 72 71 0
17.5994 -18.6074 -5.98982 46 37 18
-8.16969 23.6319 -21.4573 70 66 15
10.604 5.59277 2.84224 83 64 8
1.6027 16.2873 -27.1006 72 66 14
9.34435 12.455 -19.6077 73 62 27
35.2758 -23.5643 4.5401 77 69 2
24.3114 -21.6179 5.96696 62 54 36
34.2282 -15.5803 1.09331 52 59 60
25.1814 -13.8579 -3.60664 24 3 0
12.6775 37.0491 -2.62017 89 73 12
-23.9461 14.3874 14.3123 74 102 108
-16.2635 17.3778 -0.0838623 70 53 4
-25.7805 5.17907 34.7943 45 69 75
-7.67797 26.3414 8.24452 75 61 2
5.1134 16.1108 14.6319 71 58 3
25.1795 -11.8939 -18.4775 76 47 25
17.6069 7.68958 -13.6488 77 74 31
5.68165 -12.1689 13.1242 69 46 19
20.8415 -22.958 5.43346 60 45 25
6.85095 11.161 -24.7935 57 68 58
12.7411 25.7906 4.16624 92 65 13
35.8908 -26.399 2.23684 90 96 12
24.6685 -15.6121 -3.59782 20 3 1
-10.9704 11.5445 17.9244 77 83 58
-1.41781 16.5925 14.6757 69 67 0
31.9725 -26.5175 5.41502 56 64 36
9.36118 -2.32176 8.75116 75 47 15
-7.33091 31.6426 -15.1234 69 64 12
-23.984 12.268 16.8034 60 96 96
-24.1401 21.7602 12.9138 65 86 80
24.8209 6.51128 -14.7197 74 73 16
8.87835 -26.6903 13.688 91 110 31
35.25 -25.524 -15.9969 65 84 25
-23.8752 -1.1741 22.5828 73 108 110
-20.342 32.728 5.24584 77 75 11
33.2643 -15.2967 -19.0691 88 87 25
-2.81647 36.838 1.58 74 62 1
9.65162 8.83178 -12.94 47 25 14
28.674 5.46375 -7.62264 58 49 43
28.047 -15.6187 1.09048 62 35 5
-7.71085 12.7361 -30.1721 71 72 11
38.573 -26.3976 -28.62 59 84 47
7.76168 39.0279 -13.5296 71 78 62
-16.7351 29.8201 5.8528 81 80 35
31.9919 -25.7916 -28.3779 62 83 17
-8.67437 37.1514 -12.1126 69 67 11
9.3229 23.5755 -13.6157 53 28 3
13.8297 17.8573 11.6965 80 86 79
35.5053 -25.7441 -28.4921 82 107 41
0.627448 -26.1721 -29.9113 29 47 17
-26.0942 14.3448 22.3043 34 67 70
35.1602 -10.9258 -14.3619 61 86 77
3.19289 -2.71555 13.2719 67 41 17
30.6533 -25.1727 -21.7569 49 57 43
-6.68234 43.0649 -8.80099 71 65 12
11.1532 25.4223 7.48848 78 60 0
9.26362 24.097 3.12662 50 26 7
-25.6912 10.0362 14.9593 48 72 70
9.39951 15.7303 -17.9791 52 34 18
5.87362 -26.0057 -27.7956 58 64 20
-26.0336 17.2938 17.3861 48 73 77
36.8323 -26.4461 4.43951 92 95 8
14.7237 17.2825 -7.28376 82 92 56
-16.1647 17.4581 -16.9737 60 40 7
-24.5785 10.7148 46.6689 61 85 87
-23.8472 0.911911 23.76 77 107 111
-2.84447 25.6868 -19.5438 68 64 15
-26.1929 26.4467 23.7914 53 83 93
9.38163 20.0682 4.20501 75 45 2
-25.9868 -7.19159 17.8207 46 39 20
-17.0445 22.8304 11.0123 83 77 4
26.1739 -10.6079 -16.8906 81 89 71
3.74552 -25.7949 -28.3407 52 52 39
34.6886 -13.1845 5.65775 84 92 78
-12.511 28.6511 -17.2398 65 59 15
-15.088 13.0995 -27.991 90 75 9
-25.8686 4.38899 24.8946 51 74 76
-16.0817 20.8253 -2.00018 72 42 11
-25.339 -4.16669 20.5075 64 85 84
-16.2626 11.7418 -18.5987 47 34 17
-13.7061 -9.33569 -14.5646 53 32 5
11.361 -26.4322 -29.1472 37 53 12
9.44521 13.5879 -0.865202 65 43 15
28.692 6.67139 -8.35112 31 12 15
8.63015 17.4523 13.3995 74 71 2
-8.78564 22.6093 -22.3038 68 65 12
9.23629 25.9248 -11.4945 52 30 5
-13.0575 24.3153 9.73237 78 74 0
33.6673 -9.80105 -23.9178 71 85 80
-24.0316 17.6142 19.9555 79 111 108
-0.170559 42.8115 -2.07267 76 70 5
13.7786 16.1506 11.9735 74 80 78
32.1238 -26.0964 -20.3729 54 64 38
17.317 -27.9662 17.5289 61 75 62
-24.5427 8.95183 46.6957 60 86 93
-26.0917 13.5803 30.0756 17 38 19
9.31799 12.7675 10.1814 56 40 17
-15.7325 27.1974 -8.72733 72 75 60
1.53063 -18.0006 12.3928 59 59 51
25.2314 -15.1947 -10.5449 23 13 5
-16.191 20.6835 -17.7536 38 19 0
-20.0634 45.1305 -1.92056 78 70 6
-23.7851 1.59104 20.4182 73 110 114
-19.5998 31.8779 -12.8988 111 100 8
32.489 -3.6081 -18.1829 63 64 10
-16.416 1.11609 -23.1695 75 68 58
9.3671 22.121 1.23446 73 44 2
9.23001 26.8492 -12.2893 49 28 3
7.05031 5.13114 -24.5443 77 86 82
-5.44941 32.0588 4.43933 73 69 0
13.1891 41.8778 -5.49609 69 54 6
18.3093 4.96212 3.43713 76 67 2
-22.246 -24.9479 0.338154 45 58 22
25.4844 -26.1316 -6.34381 87 103 42
-18.7443 -25.245 -22.4466 40 68 30
-20.1019 -25.4663 -3.67744 55 78 27
13.2291 44.6417 -4.88726 88 90 73
7.51239 23.9638 -21.6802 93 92 1
-16.4812 6.70375 -9.76735 68 40 10
5.57836 1.65742 13.2819 64 40 16
18.7535 -20.6626 -9.77166 35 35 26
-12.7746 22.215 11.2275 76 76 1
-15.4522 39.2837 -13.4302 67 78 65
24.4218 -24.8382 -21.3333 32 33 15
-16.2189 17.9662 1.36391 68 38 2
35.2362 -16.7116 -19.262 64 36 20
-25.9189 5.708 24.0993 41 34 17
9.40956 16.3723 5.33824 53 33 22
-15.9873 -10.6204 5.76829 63 39 22
-16.4681 5.82385 -20.1265 73 46 20
36.3468 -26.6491 12.7895 71 95 23
-25.881 -8.85437 12.2504 55 78 75
20.677 -23.5933 -25.9251 56 43 24
33.2367 -25.4999 -20.6699 77 95 40
25.2741 -6.04766 6.068 73 47 18
25.5584 5.83862 2.7709 75 61 0
-26.0033 26.1614 16.6976 55 79 84
-17.6264 12.4594 18.2222 88 80 10
-14.3074 23.3861 -22.5047 93 94 18
-25.9149 -25.2286 -10.2145 28 65 19
-16.4131 -20.1897 -18.5991 53 38 18
-26.0088 10.09 30.8622 41 66 70
-18.463 18.5023 -25.9688 65 71 14
-25.931 7.66621 31.1627 45 70 77
-20.9016 -25.1233 -26.1919 36 64 29
-16.5828 -3.75372 -22.7513 72 47 26
26.6799 -9.28826 -3.86583 56 31 5
9.16805 26.4142 2.27139 48 23 7
-25.2729 -4.61844 23.0276 77 89 85
27.4615 -9.6924 -16.603 86 85 59
-24.8375 -9.64841 20.5619 72 86 85
-13.216 37.0221 -12.0573 77 75 17
6.39639 -27.7075 17.4553 55 69 60
22.084 -26.591 15.4741 92 111 21
-4.87312 19.4526 12.8777 71 64 0
9.17926 4.27234 4.77524 77 50 14
-24.0516 3.85581 33.5685 54 87 88
7.50241 1.70322 13.0056 62 58 48
-10.1756 26.1849 8.4512 75 65 0
-10.5189 23.4211 -21.6951 68 67 13
-26.0426 -16.7626 11.3837 46 38 18
-31.3461 -25.1987 -25.6443 48 75 55
35.2455 -15.0273 -17.3771 62 37 25
35.8555 -14.5391 9.22173 82 51 5
13.2016 25.4831 7.34114 70 51 0
-10.5219 6.48383 13.3386 75 49 22
7.28581 -5.70428 11.841 79 91 87
-25.7793 4.57015 19.0987 51 75 80
26.101 -18.5207 -10.9992 73 71 34
-19.4335 29.7888 4.41487 86 76 18
28.1015 -12.3722 -0.643351 77 69 13
32.2716 5.87472 -14.5857 69 66 2
9.3984 19.9673 1.87314 72 38 2
-19.895 19.0803 -25.5263 65 71 13
9.32904 6.73839 -19.7045 75 48 20
-24.2938 12.5064 37.3804 49 82 79
9.38236 20.3048 0.0362368 72 37 4
-10.5643 34.5748 3.44566 75 67 2
-0.952396 -5.80575 12.832 1 0 2
-16.3535 -17.791 -18.7376 51 36 16
9.43579 37.7814 -6.49736 55 35 3
-13.2926 33.6647 -13.9923 72 63 17
-17.6336 29.0549 -14.8483 41 22 10
-16.5447 -7.70451 -21.7644 73 51 26
33.4845 -7.57301 -20.9475 79 94 89
-14.1687 22.1965 12.9768 75 81 66
-6.78194 -1.05963 13.2042 74 46 18
9.11076 -21.8877 10.7825 52 36 19
40.4972 -26.8006 3.42512 70 89 68
-28.2483 -25.3262 -5.58856 30 67 20
-15.4721 -11.2041 -17.6244 87 98 86
-20.7583 37.7038 -10.9951 60 68 50
24.5734 -16.2862 -10.3468 31 21 0
-16.1 12.7253 -30.4966 69 71 11
22.9899 16.1712 -3.44446 80 77 10
33.8858 -17.3253 11.9503 82 60 1
11.2586 3.66048 4.16657 83 72 9
-25.6325 6.72571 14.9808 46 71 67
9.27374 24.0026 0.380955 70 36 6
9.37428 7.55099 -17.1413 71 48 23
9.37817 3.6068 7.22514 77 49 15
-20.6707 14.3985 16.8261 73 77 54
-10.6569 38.0281 1.45306 71 71 0
17.7895 -18.9773 -8.42699 44 37 20
-8.38905 -26.3249 14.9726 107 133 65
23.5804 8.12359 -13.4435 72 71 23
-1.76272 -28.2806 17.6856 72 101 88
-12.2774 15.3317 16.1312 78 69 1
7.29613 6.78398 13.1756 63 40 17
26.1542 -24.7332 -21.3417 18 31 12
-31.4348 -26.3922 -16.5816 72 86 80
-26.19 14.299 37.1899 17 41 22
-16.1049 31.2377 -8.75324 33 17 3
8.75607 12.7415 -23.1336 46 33 6
-11.0172 27.9547 -17.851 67 59 17
-24.3324 19.8905 30.8971 62 92 95
28.1075 -26.0448 -31.9699 44 60 41
28.8453 3.05019 4.70078 87 90 2
-26.3307 15.1082 45.1323 46 72 77
-10.8613 41.4047 -9.73667 72 61 20
-23.9802 0.896141 26.912 90 120 116
-25.8834 7.59169 20.1468 47 75 80
-8.19386 -26.7178 -30.018 50 74 55
-9.40406 32.5483 4.50158 74 74 0
12.3347 38.4329 -3.35742 84 69 14
-16.4867 6.05124 3.7428 66 38 14
19.6764 -25.5778 -28.6753 34 43 13
-8.37511 26.1107 -19.386 68 57 16
5.00884 -4.33077 13.2698 66 45 18
9.06792 26.4394 6.87634 77 70 10
-7.01138 16.7924 14.8357 75 69 2
-15.1463 -25.6587 -24.8368 56 73 67
-20.3908 23.505 10.8018 89 88 11
34.0144 -13.4344 7.58183 84 87 36
-15.7984 -25.5858 -2.08285 54 78 23
-13.031 -25.3904 -17.1224 37 52 18
10.0864 33.0684 -13.8135 71 71 11
11.1604 -25.295 -25.7042 49 70 31
32.099 -3.20718 -19.9595 75 73 31
-25.8286 4.785 32.674 15 34 10
24.2705 -24.0622 -23.1012 54 40 24
-16.0271 21.771 -0.758282 70 38 12
9.06154 28.9795 4.7554 69 60 17
9.402 13.4235 -12.6077 59 42 16
32.8441 -2.73588 6.36844 65 76 73
20.9425 11.5392 -11.4207 73 71 18
33.6433 -21.8185 13.1231 67 79 68
-19.3774 44.2704 -1.45312 74 66 9
8.85545 -2.83638 -23.4204 68 71 70
12.9981 33.1498 2.24839 73 65 2
-6.21457 14.2114 -29.072 69 63 8
29.7977 -25.7772 -28.3085 64 86 25
17.8776 -0.317986 6.78969 75 66 0
18.4062 -23.7757 -26.6317 51 43 20
-22.8026 -25.6163 9.42188 67 84 40
27.1269 -24.8283 -11.634 54 54 4
-17.7698 45.1201 -2.06507 75 70 10
-1.69017 -25.9675 -29.6638 28 47 19
35.2835 -25.2991 -18.2084 64 81 22
33.289 -25.1013 -22.8884 72 87 36
-16.2017 18.5698 -2.9741 70 42 4
-8.5221 44.9009 -2.63954 76 71 2
3.31768 36.078 1.5024 75 72 0
35.2316 -24.3779 5.65596 68 59 0
31.2226 7.49525 1.55118 74 79 3
-16.6168 11.6107 -29.1292 76 75 31
-1.32794 23.1276 -21.6266 66 68 13
9.40481 12.859 -14.8985 50 34 19
7.35695 5.28624 12.2119 79 90 80
12.7546 2.50126 -17.2792 76 67 13
-24.4624 8.79658 45.3957 29 56 33
-27.5888 -25.9339 10.1129 75 99 32
-16.2751 16.9894 -7.919 63 49 8
35.6029 -17.5789 5.92082 80 39 18
-8.22869 16.2521 15.2915 77 67 4
-20.2674 36.3447 3.12868 73 73 5
24.8679 -14.2046 -10.03 58 34 10
-7.26547 33.3882 3.8605 72 71 0
2.01554 -27.1612 17.5764 57 75 53
-26.1128 20.0986 17.9254 53 80 85
-24.3922 21.2877 29.6462 51 78 81
-26.0113 -14.3473 12.0159 44 39 23
-19.5773 25.89 -19.6298 71 69 19
35.2398 -18.5125 -16.4781 61 85 54
7.79034 34.1135 -14.0634 128 127 25
21.4932 -20.7621 5.55737 60 51 28
9.39031 14.0196 -10.7584 56 35 25
-0.556046 2.04006 12.0618 63 71 63
-17.6551 45.4268 -3.9577 64 79 68
12.412 16.9933 -4.04009 67 61 0
-24.2102 20.7834 26.0158 39 58 44
8.33671 24.6468 11.2341 67 79 70
-24.0536 19.7378 15.7343 89 123 129
-16.3126 15.1855 2.04339 49 29 15
-0.308861 34.1272 -13.6839 70 68 13
33.4799 -20.9087 7.54832 68 90 76
2.65831 14.3563 -28.6367 69 68 11
-26.0049 9.29354 25.8907 40 31 16
12.7126 40.1282 -7.36313 68 49 0
21.7435 -10.6366 5.58447 66 41 14
-1.55748 20.0388 -24.1439 68 68 13
0.470419 43.9379 -8.21949 71 66 16
28.3273 16.6073 -6.52575 87 100 93
-14.8125 -21.6555 -17.4152 67 90 82
35.1449 -9.00428 -18.774 64 60 1
-26.007 18.6097 15.3885 47 72 73
-25.6864 2.70574 20.4178 52 74 77
9.79865 35.02 -12.7048 85 84 6
-15.8251 16.1672 -27.9031 64 58 5
-24.749 -21.4677 16.6446 71 87 75
35.7699 -25.9622 -23.4009 109 129 45
-20.7594 21.4473 -23.1124 60 72 38
25.9368 14.3925 -2.31407 80 72 12
35.7303 -26.3348 -20.0955 101 128 47
-26.3349 -25.1553 -14.0606 31 63 20
-27.094 -25.2091 -12.1723 31 65 19
-23.9275 10.5313 18.7165 72 111 122
31.8416 -27.6951 17.4896 56 73 63
19.7363 0.728165 -18.5955 78 67 20
-16.3758 -6.97829 -17.8316 72 49 29
9.39825 14.5411 6.76304 62 39 22
-19.2682 28.4263 -17.4491 67 66 25
-19.2555 -24.8917 8.53342 30 48 17
-25.0694 5.30035 43.8291 85 119 111
-19.3074 30.9295 -15.3783 70 77 21
0.977091 30.2814 -15.6376 71 66 16
24.5883 16.4073 -5.81252 91 104 97
-16.6284 -3.29654 -18.0597 72 43 15
30.2365 15.9447 -8.22697 68 62 19
-7.35228 24.1912 9.71963 73 67 1
9.74518 20.1935 -23.3735 82 75 12
9.4063 16.6089 -13.2703 52 33 14
-25.4731 24.8634 14.9323 53 74 72
-20.6361 27.9396 -16.9863 68 75 57
-11.9197 25.1937 9.18198 77 71 1
33.547 10.7034 -10.2971 73 78 65
7.10474 21.1742 11.8277 82 77 5
-16.5142 5.31451 -18.4879 72 45 20
8.6315 22.8621 -7.71519 64 71 67
5.78095 -26.1613 -29.3411 41 49 19
1.76643 -11.1125 12.9428 62 49 29
15.0289 -25.0462 6.07203 66 80 18
-25.9106 4.17087 45.7827 43 63 65
24.279 -13.3701 -5.95351 31 15 6
9.18535 -4.94439 -22.4507 67 42 22
-15.9836 17.1094 -20.549 60 49 3
-19.6511 17.3712 -24.6553 91 85 13
-25.8584 -9.83577 11.2441 56 77 73
-3.54484 44.3024 -2.70237 78 69 5
-16.5891 -3.35865 -20.4735 72 50 31
-26.0459 -25.5733 10.2309 49 70 12
-1.68443 17.1942 -26.5027 67 65 11
-17.4228 -25.8047 9.63376 30 40 15
28.5829 -26.5342 12.5397 87 106 27
-17.8897 14.3719 17.0564 87 73 9
-26.0735 -23.4198 7.01859 40 35 6
-1.38789 37.3399 1.17344 72 67 0
-25.5977 -0.159805 25.2022 50 73 71
19.4073 15.5211 -8.75064 69 59 17
-10.1346 -25.7151 -2.03283 60 76 29
-26.1715 18.6462 35.2948 43 74 86
30.0356 -26.5131 11.2311 102 112 80
0.765583 -13.3981 12.4326 2 4 3
-23.9909 -25.9982 14.2839 95 123 47
-18.1852 15.4371 -26.1615 97 76 9
1.17855 24.0823 -20.6888 67 63 14
14.6426 6.18216 -14.7464 80 73 13
24.2855 16.6477 -7.84893 70 61 21
-25.8399 6.59572 19.5372 49 75 82
-16.4553 8.12416 2.89555 71 46 20
21.9005 -26.9648 -30.2569 44 65 39
-25.0445 -17.8698 4.43168 95 112 94
9.21861 37.0759 -12.5648 88 89 6
9.252 11.342 -21.4878 57 39 28
17.805 -22.8467 4.8987 74 84 69
30.4967 5.55077 -15.026 75 67 1
-10.4743 -25.5374 -9.46629 53 73 19
33.4819 -25.7442 -28.262 24 48 9
7.21059 -22.3215 11.4889 81 96 86
13.8282 23.424 7.52508 84 98 75
37.2112 -26.2239 -2.88231 68 83 5
30.8325 -26.0027 -13.834 53 59 24
-24.2744 15.8018 34.4984 36 65 42
9.45525 16.9113 -10.3476 54 41 15
-25.6796 -25.2663 -9.06999 33 70 23
30.5987 -25.9363 -0.593282 59 51 14
-16.1163 27.9745 -12.123 45 29 22
-18.6202 15.6326 13.7233 97 85 1
-3.40417 44.9922 -4.52292 75 88 84
0.465887 27.1943 -18.0727 66 59 12
-5.15089 17.0919 -26.7218 68 57 11
-25.9688 -18.8381 6.06252 53 75 40
-16.1259 35.2058 -7.7922 45 25 2
5.28026 -26.775 13.4822 93 104 44
-16.1598 20.0438 0.428944 69 37 2
29.7097 -26.5879 -30.2076 59 75 45
-26.0797 6.2818 46.9341 8 40 15
-12.9781 -25.3042 -28.3581 57 68 33
-26.1445 11.8983 37.9227 27 54 42
6.27325 25.1382 -19.4562 74 70 4
-29.3933 -25.4057 -2.5437 36 68 24
34.4162 -21.5311 -14.4808 88 107 89
-4.22925 25.3703 -19.8742 65 60 16
22.4308 -23.6191 -24.419 51 51 29
28.9489 7.36293 1.81269 87 90 4
12.8945 34.0185 -13.1979 71 66 7
-17.5927 12.7318 -30.5429 70 66 13
24.1353 -23.7098 -18.5285 53 37 25
37.4879 -26.1037 -9.80426 65 77 12
-12.6358 34.3543 3.70239 73 70 0
-7.43867 14.9541 16.1556 75 72 3
-6.70926 22.387 10.9349 76 73 3
-26.0721 6.68091 48.6178 58 79 85
-31.4008 -25.9487 -24.0336 74 88 80
-17.5079 41.9812 -0.279617 70 66 6
-16.7475 24.2215 10.0282 81 77 3
7.72522 24.4083 -6.23347 7 2 3
-11.3867 17.7493 -26.4087 70 60 14
30.3353 -26.5798 14.0027 84 100 30
-14.0814 24.5246 -6.79073 17 0 0
-16.5146 -9.05658 -22.7125 73 47 26
-1.51258 12.3239 17.5869 66 65 4
-24.3602 9.88173 41.554 50 82 93
35.3191 -23.4203 -19.2535 52 77 38
25.8588 16.6419 -5.06736 82 95 89
-26.1902 -26.4914 -29.6743 53 81 59
-19.8157 25.0577 7.27655 86 70 10
-1.97926 23.6644 9.76462 72 68 2
20.2962 16.3245 -8.15176 67 59 22
28.5068 -26.0717 -7.3187 102 113 51
-24.1426 11.8706 33.1975 20 41 29
-11.6938 43.7249 -1.69313 73 66 5
9.38338 14.6165 5.56655 61 39 22
9.35802 21.711 0.0788383 72 40 0
12.8245 28.3465 5.20064 62 48 4
28.4146 -26.139 -2.77572 108 124 53
12.7364 31.2015 3.30573 69 51 0
-24.2299 24.0106 20.2995 67 102 111
-8.95104 29.2475 -16.3419 66 68 27
23.8015 -7.31443 5.89994 67 42 21
-0.549007 29.2078 5.43542 63 55 13
17.5092 -20.6591 4.20467 80 97 83
5.44526 35.9626 1.38774 73 75 0
8.7616 28.222 5.65264 67 58 0
20.7093 -26.7253 -30.2696 40 61 32
28.2464 -3.90473 -9.67756 52 36 24
-13.9434 29.0792 -16.776 57 57 14
-25.0275 -25.2084 -12.7281 26 63 20
-16.0246 -14.9666 7.02092 59 36 5
27.8422 -18.8512 -0.269507 64 51 2
-16.3781 9.51755 -14.697 69 56 17
34.619 -13.2118 9.98889 74 81 71
9.34348 -2.74211 10.0432 74 49 18
13.2055 38.381 -0.615173 81 69 5
-26.2247 16.2374 36.0382 25 50 41
-29.776 -25.5133 1.23077 44 75 22
9.28824 12.5333 -20.9249 59 42 23
38.3153 -26.1843 -7.83345 69 81 10
17.7153 -25.7727 -29.0725 32 40 9
-6.58849 42.6585 -1.45417 73 74 1
-16.0796 19.6666 -13.8139 62 37 9
-24.2735 5.88663 13.3021 36 51 49
29.0651 3.09447 -16.539 78 72 5
-16.2801 15.0058 -17.0894 46 26 11
7.563 14.3512 11.7952 68 77 69
9.41657 12.7355 -16.4733 73 63 27
13.7992 21.5309 8.66891 83 93 73
-17.2162 -25.4945 -19.7165 67 76 24
-31.5142 -26.0835 -13.1677 62 76 67
7.17262 21.3065 -22.515 77 75 0
-20.9251 17.5984 14.2786 45 49 40
-2.1587 34.2973 -13.6452 69 65 11
-24.3322 18.6672 12.8953 78 125 128
-23.455 -25.177 -14.3896 44 70 26
7.69689 39.8753 -11.79 88 85 0
22.2448 -23.9483 -26.0427 45 57 34
-0.823669 36.8711 -12.2122 69 68 14
9.33281 24.3611 -20.1568 86 86 8
26.2595 -12.9552 4.82687 78 91 82
-16.5222 -3.23371 -8.30563 75 49 19
26.2429 -26.5029 11.1869 87 108 30
-12.3685 13.5101 17.3393 79 72 6
-24.1308 13.9963 29.7958 60 68 43
30.4772 0.370331 -18.2337 77 76 17
1.51936 24.2058 9.12402 74 70 4
8.26883 37.4078 -14.4556 67 77 70
-26.1533 24.7243 24.5366 49 80 88
-16.5907 3.19841 -19.7955 74 46 21
-6.16019 24.2775 -20.8499 69 63 12
-25.824 4.62181 49.6327 69 90 90
-23.9984 9.91684 27.6119 64 100 106
-15.1078 40.4189 -12.7553 65 77 66
-1.89726 15.3262 -28.0297 69 59 9
-18.1175 -26.1979 17.123 88 119 53
-20.6861 12.2322 16.8041 55 63 51
-3.86023 14.6893 -28.5961 69 62 10
-11.5119 -23.5796 -18.0492 22 23 19
24.6906 -18.622 -10.7052 74 63 25
-25.9815 -20.1919 14.7714 58 79 60
8.51521 30.1401 -4.4563 38 29 28
-16.2198 18.595 -6.87629 67 37 3
9.35469 -0.216274 10.0224 74 49 16
11.0772 24.0481 8.43555 78 71 0
-8.95865 34.0001 3.65352 71 69 0
19.996 -18.9721 5.17679 3 4 2
-12.9201 -25.7105 1.94936 72 87 46
5.29353 14.0196 16.1041 68 57 3
28.6337 4.2604 -3.06813 67 52 0
-2.13558 25.518 8.45291 69 63 0
19.3101 -23.1956 -23.4781 63 62 40
-12.0683 33.3655 -14.1743 69 72 16
-0.629471 36.0466 1.85374 72 67 0
9.24033 29.7059 -1.01447 49 25 5
-20.8925 -23.9806 6.90402 13 15 15
-26.037 13.0389 26.0933 22 46 18
-6.60243 18.1596 -25.8976 69 63 8
-26.0737 -22.9756 10.6777 49 60 26
-16.4487 8.25951 -2.87332 68 38 11
2.81059 2.01055 13.2482 69 51 28
6.9463 -0.455006 -24.6996 74 82 78
-6.61934 19.6466 12.8416 75 74 2
-16.4095 8.63563 -13.2934 70 41 17
-16.3319 44.7579 -7.52584 57 53 22
27.2436 -25.4497 -13.8988 42 27 2
-3.15814 24.8017 9.03747 74 68 3
-16.396 12.4021 -2.82911 45 27 17
-25.8242 22.2416 12.8871 58 80 81
-24.2043 22.4386 18.9148 43 68 60
32.7935 -26.4529 6.93904 68 57 4
22.6541 8.4222 1.20781 68 67 3
-6.20898 45.3573 -3.86307 83 85 57
-5.44918 28.8391 6.2058 67 63 1
-12.2572 43.0999 -8.74998 73 64 20
6.30377 32.7294 -14.2595 71 70 15
-25.8943 5.60352 30.2849 49 73 78
-20.4914 32.2256 -14.5162 70 81 41
34.4984 -14.0957 11.8613 57 70 57
-16.5383 3.28902 -21.9657 78 49 24
6.34422 -11.3217 -24.8687 63 42 17
-24.038 5.79848 32.4165 30 58 46
25.1795 -26.1594 -4.44937 97 107 44
5.88188 38.8495 -10.9888 76 70 0
11.2847 -26.6717 14.4868 82 104 21
3.49994 -26.6814 15.0028 89 106 26
-26.1656 19.7443 30.8145 44 78 89
33.2554 -21.142 -19.4084 77 94 87
-10.2655 -0.678909 13.2904 79 48 24
-26.0117 13.178 24.0628 27 57 51
15.9693 7.0017 2.02155 76 66 1
-16.4299 10.1921 4.53882 55 45 22
-15.4224 -8.22121 -17.5864 85 98 88
-17.4267 -25.9297 11.487 76 100 41
26.4042 -7.42691 5.68488 77 83 74
24.9125 -26.5579 7.99808 85 107 42
-26.2831 14.7301 41.626 15 33 15
4.98476 25.0819 -19.6227 71 66 5
34.2254 -22.5243 1.04399 56 59 55
12.7431 10.0621 -12.4566 80 65 25
28.5392 4.29455 4.55154 90 90 5
-26.0264 12.3457 20.8078 32 64 61
35.4137 -26.4832 5.86046 89 91 21
-12.8571 44.577 -7.79236 67 62 20
-24.8561 1.35001 15.0558 87 110 101
-23.9762 11.1203 23.6468 70 107 116
9.09205 -6.21755 11.3171 78 80 70
-4.40173 22.7785 -22.0263 67 70 11
-26.2259 26.103 20.7433 28 52 31
-16.5509 24.7224 -18.5412 56 53 7
26.1973 -10.3849 -4.06157 61 38 7
-26.2473 23.1474 28.3396 52 79 83
-19.9638 -23.7288 2.2533 28 40 16
1.67207 40.9929 -1.14017 75 79 5
7.94569 27.3603 -4.76088 2 2 1
-12.9518 20.5593 -24.1299 71 67 19
35.1526 -23.3346 1.30245 80 70 5
13.9213 36.3461 -0.506726 75 92 78
-7.76817 22.7944 10.717 74 72 1
9.19379 36.5043 -14.4601 87 94 14
6.35191 12.3798 17.1647 67 63 2
4.8866 -10.6211 13.1394 67 47 22
-31.348 -26.2987 -5.06972 70 88 79
-22.121 -25.5298 -0.633966 58 75 29
28.3679 0.304089 -14.0362 48 25 18
7.54659 3.11124 12.9727 57 48 31
27.8345 -25.9426 -29.8753 73 101 28
-26.1937 25.3237 21.9769 27 52 28
-16.6511 -3.19843 -15.6822 70 45 16
-16.3025 -23.9506 -20.9287 59 40 20
35.5133 -19.653 8.14065 83 100 93
-24.2757 17.8337 31.8272 69 93 106
-25.9292 13.5417 48.4549 68 85 82
-23.8189 5.22753 18.3255 78 114 123
12.4807 37.6447 -0.158691 75 71 5
24.4978 -26.1569 -7.87799 73 85 19
-16.3996 -18.717 -20.4961 55 37 19
2.30317 38.511 0.21035 75 69 2
-24.384 12.1669 42.8448 54 83 87
25.3868 15.4946 -8.65553 67 59 19
-8.95797 6.22435 13.2154 69 71 42
12.1022 32.1381 -14.2399 76 75 19
-5.13937 4.71066 10.6211 30 23 12
25.2754 -19.5698 -1.95671 22 2 0
-19.7058 21.8876 11.8744 86 88 15
9.3922 17.7419 -8.72134 75 45 3
23.3884 -26.5013 11.23 86 109 19
-9.65648 17.0675 -26.9029 69 64 8
-23.9879 14.426 16.1453 71 106 113
8.27666 28.7096 -8.67716 31 32 30
1.59162 26.2354 7.70374 73 60 1
6.79482 28.9265 5.13114 64 60 16
-26.14 17.9057 23.47 19 47 24
-12.0725 -25.6396 -3.12294 50 70 33
8.41772 29.5265 -6.2344 2 2 4
8.75785 35.3932 -15.1431 78 87 55
-1.10594 -6.89325 12.5967 1 1 2
23.7319 16.8524 -3.94141 85 78 12
6.7957 -11.704 13.1341 66 46 22
-18.4222 44.6803 -7.59325 62 61 14
9.30762 21.9982 -9.79436 68 39 4
-18.6437 31.1276 5.91285 85 79 7
-26.1094 23.5138 18.2494 45 75 74
9.32425 17.4243 -18.9158 69 58 10
-16.0192 -12.6224 6.54066 62 36 10
25.9738 -10.0086 -5.98669 32 8 3
-9.67581 44.4865 -7.86483 69 59 12
18.2243 3.23318 -16.9011 78 68 17
-27.6779 -25.0347 -20.475 28 64 17
-25.8663 6.5559 33.4741 13 30 8
8.8838 -17.6272 -23.4865 59 55 47
-25.5415 13.7182 11.939 50 75 75
7.56185 0.0742302 12.7554 76 84 73
-12.5643 38.9251 0.951584 77 73 5
9.30283 1.11685 10.2788 76 57 37
-16.1792 19.4215 -1.01481 70 42 4
9.29208 23.8585 -14.8872 49 26 0
-16.2787 16.8611 2.19777 58 38 11
-17.2243 -25.7866 8.01459 52 64 31
-24.2632 17.0342 32.6514 36 52 33
17.6535 -13.5897 4.22708 1 0 0
-20.7683 34.1382 3.3962 72 82 73
7.83984 23.8272 -23.8519 70 75 75
-15.328 -25.0645 2.2998 60 79 30
-12.2688 42.3621 -0.919256 71 69 0
21.0135 17.2344 -7.10748 89 99 87
4.70855 -5.89944 13.2353 66 45 18
-5.28546 17.4343 14.3156 75 63 4
17.169 -8.0545 4.9481 70 42 16
28.6495 6.07608 3.4922 89 94 0
-7.78589 38.7188 -11.2357 70 66 13
-11.8208 39.7655 0.48761 73 68 1
33.0138 0.15337 -16.3536 66 72 45
-16.2852 17.187 -1.7392 68 54 6
-24.5511 -5.88723 12.552 57 70 61
-19.3533 18.8078 11.5614 95 92 5
33.2851 3.89954 -14.9458 72 73 55
-16.1952 13.3036 -19.89 63 54 27
8.13967 26.6751 -8.79601 9 6 7
-21.3076 -25.2589 -12.2097 65 81 23
-24.0951 17.9688 24.1413 48 80 59
33.467 -21.3319 5.37088 72 76 58
-20.8859 28.3771 6.29941 73 81 67
39.2291 -26.3963 1.58194 71 83 9
-23.8676 6.74031 16.7083 68 108 115
27.2175 -27.7175 -30.5079 92 101 93
-16.1989 16.2941 -18.3311 44 27 12
-24.0004 13.0212 24.2537 61 96 72
-8.60226 5.07534 13.0762 73 76 48
-7.08788 -26.2286 12.9226 78 107 53
-23.977 5.03119 31.4608 44 67 64
-25.9669 -12.6236 17.8223 61 81 79
9.04251 36.1731 3.52772 64 74 67
-16.4646 6.39518 -2.8591 68 37 8
35.1978 -23.4988 12.5591 87 81 10
9.41203 15.5375 -11.5598 51 35 11
6.25831 20.6633 -23.1853 80 75 1
5.2582 26.1157 7.48817 75 64 8
0.295738 35.163 -13.1197 69 71 12
-24.8363 -12.3901 19.3703 73 86 82
-23.8934 6.16556 24.4046 65 60 49
-13.6091 30.0993 -15.8422 72 70 19
-6.6085 22.3495 -22.451 66 67 11
-10.2184 1.21301 13.357 79 49 25
14.0801 -26.2744 7.12276 74 99 33
4.68686 -26.0069 -27.3782 63 65 46
17.438 -24.8068 -28.1721 35 43 15
-16.3366 13.9025 0.487413 59 37 19
9.40366 8.53064 8.71016 80 61 22
7.35349 -3.34689 11.7984 76 91 84
-26.1104 15.8982 28.4862 9 46 15
6.92682 -3.99722 -24.8482 75 83 77
-26.1921 15.11 36.1965 34 63 57
9.16409 27.4821 -1.52544 75 59 14
33.2316 -17.1211 -19.9071 75 45 38
21.594 -22.3759 -3.1931 18 13 8
1.46408 26.5539 -18.5746 67 57 13
27.8592 -13.5578 -12.9319 75 49 18
-11.6065 -25.5416 -8.47085 52 73 22
32.4585 7.78313 1.43745 76 80 10
-24.6106 19.4073 38.4256 37 44 41
-2.76525 21.8173 -22.7608 68 70 16
-1.3492 44.6779 -5.04245 74 89 82
40.3607 -27.6467 0.313685 66 82 73
-20.8472 24.9884 8.0024 73 81 72
34.6964 -22.1219 -22.7934 72 86 79
-26.2112 27.4435 22.3884 50 83 89
-12.4253 -25.6565 -1.72929 51 75 34
-0.993637 -10.4842 12.0063 0 1 1
-14.668 -2.75018 11.5401 80 94 86
16.797 -2.33894 7.99892 78 65 0
-25.9096 -12.0997 10.7389 54 77 70
25.7339 -26.5489 6.75107 91 100 35
22.3618 16.5722 -5.37846 82 95 86
8.55501 38.3827 -13.972 67 78 70
19.6875 1.9071 -17.8307 79 66 18
18.4467 9.58404 -12.7426 79 73 18
16.6632 -23.9141 -26.5194 41 48 23
3.15539 -13.3053 13.0459 68 48 24
-18.0605 15.7942 -28.2637 67 57 14
-17.3109 12.7269 -28.4815 88 77 12
-26.1484 22.2902 18.2367 29 46 32
18.6751 -22.1092 4.87548 72 86 70
28.8763 -26.4683 6.93621 75 92 30
27.6065 -21.1993 -12.1077 78 76 9
-26.0305 -20.9424 6.18508 51 72 32
9.33582 22.1093 -15.895 47 26 2
35.4097 -20.9708 10.3995 84 83 38
9.18716 -4.55419 -21.0087 67 44 26
35.7799 -14.9691 11.4078 82 45 16
-16.2608 34.0724 4.17605 79 72 3
-23.8298 3.37488 21.1566 78 115 118
26.5178 -24.681 -1.08915 60 73 65
13.3489 26.745 6.41531 69 47 5
-16.462 8.13102 -4.40663 67 38 11
19.8037 -1.0666 -19.7914 76 64 21
-9.25496 17.43 14.5276 75 72 0
-22.1885 -25.2074 -15.1888 49 72 26
-22.2734 -25.4259 -3.32632 63 84 17
-25.3037 -6.75536 11.8526 93 110 100
24.68 14.7027 -9.24301 70 61 18
18.2071 -6.63612 5.09355 72 47 20
-23.2788 -25.6393 8.39698 55 56 30
22.9172 -25.5612 -27.4398 35 40 16
34.364 -26.6586 14.5469 83 101 34
-24.276 16.504 36.212 33 53 41
-8.95791 42.1531 -9.31638 70 61 13
8.15323 26.0893 10.0465 71 81 66
-13.7525 31.758 -15.0462 72 71 19
-17.7142 29.5464 -16.1478 72 78 30
-15.208 22.7293 12.8115 67 78 67
-4.51417 37.4017 -11.9477 70 64 5
-14.109 13.6592 -29.8123 68 64 9
-16.5015 4.65903 2.35489 66 39 13
