ply
format ascii 1.0
comment Created by Open3D
element vertex 1405
property double x
property double y
property double z
property uchar red
property uchar green
property uchar blue
end_header
4.74741 -25.741 12.5536 59 53 24
-14.2508 -20.4369 12.5766 55 50 37
-18.4077 17.5165 12.4007 90 84 0
14.1307 -0.531403 6.8942 77 69 1
4.23066 22.4615 10.1319 77 63 4
-6.69372 45.4459 -3.5915 83 80 25
8.208 -16.3176 11.1154 76 86 77
11.7252 20.2607 11.1527 76 73 6
0.494986 24.8654 8.74959 72 62 2
-7.31686 -23.8785 -8.9744 28 34 10
-11.5058 20.8016 12.2458 76 79 2
24.4747 -17.018 6.02586 70 52 29
-25.8677 4.09712 23.156 43 29 11
0.480495 5.11378 11.463 0 0 0
-16.175 19.7381 3.75362 72 45 10
-16.641 -2.96412 -15.929 69 44 15
-12.7584 -14.4411 -14.8281 39 23 3
-11.9051 -18.6649 12.9609 60 39 17
-14.105 23.3498 -8.27526 16 3 1
-25.7797 4.16976 21.8814 50 72 77
-2.43473 44.9404 -7.16261 79 83 68
-23.9758 13.0369 18.3457 84 120 121
33.425 -22.2674 8.33848 79 62 5
-20.5275 15.8947 -26.0347 85 86 19
36.691 -25.8242 -24.4455 77 98 33
-29.1802 -25.2658 -9.52341 70 110 58
-16.2751 -4.11947 6.98154 65 39 11
-11.1962 25.1967 9.1629 75 73 1
34.507 -13.149 -12.2193 74 90 78
12.7302 21.7143 -21.9627 77 65 18
-10.0926 35.0974 -13.2349 73 68 18
-25.7546 16.0431 12.7408 25 50 39
-25.5702 19.0268 12.4754 58 80 83
-19.7246 19.3502 13.6406 84 88 10
-26.32 12.97 45.0343 22 43 29
5.649 17.5294 13.5872 70 66 0
-23.1999 -25.4318 -3.0837 66 85 27
-20.5006 25.5756 6.87087 87 71 16
-12.0252 -14.6496 -13.6355 43 28 4
-12.5162 23.493 10.319 72 69 0
-3.25202 30.3839 4.96869 75 77 3
38.2289 -26.6551 13.2917 79 95 20
-20.0918 19.0045 -23.2037 72 65 11
3.39262 -8.87818 -24.9888 64 41 20
19.712 7.88902 1.44526 76 75 10
-17.9436 14.4886 14.4629 94 72 1
-26.0284 11.1417 28.9333 46 70 75
1.61381 -24.6945 12.3508 55 41 25
-24.3326 27.6717 19.1839 68 101 101
31.2734 3.44526 4.27131 70 69 4
-25.9689 -22.9989 14.0479 58 78 47
-16.3017 15.2131 0.614265 48 30 17
-22.2557 -25.3222 9.02477 35 46 14
-7.58661 34.4941 -13.5978 70 68 18
29.4682 -26.4634 5.42936 73 89 36
9.32896 27.6303 -16.9473 64 67 15
-13.7974 -20.8188 12.8734 58 43 24
-12.7131 -25.5037 -8.01677 45 66 21
-9.30745 -21.4424 -0.248198 8 9 2
8.12271 31.5934 3.51732 75 70 0
-12.5521 -25.3962 -17.2646 38 52 22
-24.1792 14.423 31.5158 29 61 38
-16.0705 34.0001 -0.783546 48 28 13
-17.4276 37.4553 -10.0853 18 18 16
20.3128 -25.3307 -28.3188 32 41 13
-16.3531 -25.5075 -4.72868 56 75 29
-13.2727 44.6763 -4.76337 69 81 73
-13.1054 -0.824863 13.2423 85 60 35
-19.6549 17.5293 14.8921 85 88 9
33.2585 -25.3255 7.05566 76 65 9
-26.2321 10.5691 42.8382 16 42 12
-26.1767 16.9954 33.1896 16 35 18
-25.973 -17.5161 7.55872 56 75 50
2.83499 3.21199 13.2007 69 51 29
19.2884 2.63377 4.95046 75 74 1
13.2089 12.4932 -29.6284 65 60 24
-11.6149 -21.6481 12.8681 55 38 16
35.5559 -26.3506 -15.9862 78 102 22
-16.5364 1.54208 1.72149 68 42 13
32.8771 -25.755 -27.898 31 58 8
-19.3133 43.7533 -1.13601 75 63 9
-13.3646 40.5229 0.14064 73 70 8
-5.94501 6.42984 10.866 34 24 10
-10.5516 -25.3882 -28.5193 50 56 41
-13.7522 37.0408 2.12309 84 82 4
-16.0905 -4.20489 10.4443 61 36 14
18.0761 -23.2262 -24.9361 63 44 28
-24.0443 -15.8704 9.81689 72 97 81
33.6165 -25.9608 -29.8647 47 76 22
-16.0776 20.9329 9.67337 72 68 1
-26.1706 20.479 31.1952 58 80 81
-24.0179 -13.5293 13.447 62 47 24
-1.41265 40.897 -0.868706 73 65 3
-25.6528 7.58197 15.2208 23 54 26
20.8706 -2.72112 8.21859 69 59 0
15.4665 4.42693 3.75417 76 65 2
-26.1368 11.9532 37.4185 18 40 20
-16.0385 21.1604 -9.16975 66 38 9
2.83767 30.77 -15.3804 67 71 16
28.4031 -26.5302 4.42378 77 93 22
12.5559 17.3705 -6.92167 75 83 82
-16.181 19.3384 -25.1915 69 70 9
15.8279 9.30932 0.674717 77 76 5
-7.95694 -20.3852 -6.89791 22 23 5
-0.0039978 28.7132 5.94852 67 63 1
-24.1849 15.8041 31.2249 30 60 35
12.4714 22.6703 -21.159 70 62 21
-24.532 11.7507 46.5844 62 90 96
-24.0735 19.4576 14.6813 88 122 125
15.2076 9.59692 0.517826 75 68 3
-24.4603 8.73414 44.3117 28 55 33
-13.1774 -9.09724 -5.96162 14 13 5
11.471 44.6216 -7.42741 74 66 25
-26.1632 22.2641 28.311 45 71 78
-17.86 45.0618 -6.7406 81 93 84
-2.18328 23.1769 -21.6169 65 67 16
-25.9366 7.77322 32.2217 19 38 25
-16.0778 36.9429 -3.69775 35 12 1
15.242 5.26535 3.19821 78 63 3
13.9198 8.21658 1.15935 80 75 4
-19.3042 28.1655 5.19334 88 86 9
7.12335 19.8952 11.6846 82 79 9
-12.0914 32.8545 4.55098 75 77 1
-19.9277 14.8696 -29.0723 66 57 14
-21.4616 -25.2121 -16.0654 45 71 24
-18.095 43.6122 -1.13663 70 66 8
13.9015 20.1163 -21.2671 63 67 42
-16.3047 15.6369 -10.1791 51 31 17
-17.7816 29.3339 -16.4277 63 70 28
-11.4967 24.4346 -20.879 68 62 17
-10.0836 -19.6964 12.8972 55 39 18
14.3576 -20.6438 2.79419 3 0 1
-14.0043 21.5292 11.9561 82 86 0
-26.1289 28.6371 19.6396 52 73 80
-8.70442 -15.1804 12.8814 76 53 33
1.41051 30.3215 -15.6032 72 70 15
-12.4968 32.2939 4.89988 76 72 1
23.6464 -24.7195 -21.4811 43 40 17
8.29868 29.2454 -15.7544 75 67 26
9.21749 18.4195 -24.9871 70 66 17
-1.71563 -5.3725 12.8949 2 0 2
-14.2089 17.579 14.6532 76 69 0
-6.276 28.3088 -17.3551 62 53 15
-12.411 8.12601 13.3826 80 51 27
33.4385 -24.9309 -23.5408 61 78 46
-5.43079 20.8901 11.8981 70 68 0
-14.3617 -22.2694 -17.4826 36 41 35
25.3513 -24.3174 -25.711 48 47 22
-16.3181 -2.58577 9.01336 69 45 20
12.6029 8.36612 1.0613 82 70 6
12.4607 -26.0463 -28.4036 34 47 13
12.2899 -26.5517 9.30344 91 113 41
-9.71424 -20.7331 -0.122303 1 0 0
-25.6737 -0.18 18.8921 53 76 83
17.1977 -23.1314 -24.1134 67 57 38
22.0641 17.0626 -4.44229 90 89 44
-3.45777 22.001 11.0185 71 75 4
-19.201 26.6566 6.13676 84 69 8
3.54768 -26.7475 17.1227 83 103 18
-15.4145 -26.0886 12.2301 86 104 85
-18.6041 27.5522 -16.0609 111 109 14
-19.6678 22.0809 9.2996 91 87 2
11.2359 -26.5834 -30.0224 32 50 16
-12.8412 -25.4043 -16.2138 45 59 25
31.9033 -25.4529 -24.7391 57 67 32
-13.4112 -18.8637 12.9748 62 41 22
32.7427 -26.1172 -3.86272 68 82 2
-26.0138 25.5554 17.2302 55 81 85
14.4056 8.35154 1.11591 78 78 1
30.0255 -26.5725 13.7001 86 102 27
-12.6941 -10.6394 -3.859 29 12 7
37.0793 -26.659 14.3639 86 93 38
-31.425 -25.6514 -22.4046 70 87 78
-5.24709 -25.6988 9.82397 49 64 26
-31.0491 -25.4341 -0.256996 33 60 22
-25.988 10.0438 24.8209 48 73 83
-27.88 -25.2508 -8.64172 34 69 22
9.19006 -16.9052 3.49878 42 30 4
-9.49399 13.1034 -30.0236 68 68 5
-22.5127 -25.4317 -2.70181 58 83 15
-16.1125 12.6966 -21.0552 68 56 27
0.3617 13.5818 16.6675 65 56 2
-23.9899 -16.305 11.3754 60 56 33
33.7932 -17.6213 5.15775 64 5 7
38.4413 -25.889 -19.4844 81 105 38
-16.2255 12.5861 -19.3293 49 38 18
-15.9768 40.7059 -7.54375 26 12 7
22.2707 -24.4794 -21.4925 53 55 25
-26.8579 -26.0907 14.5061 73 98 37
3.31936 1.27615 13.2866 69 45 21
-16.3869 -20.4308 -21.0639 56 39 20
-16.5232 -5.04911 -18.1743 72 43 20
11.9155 12.3431 -1.1279 77 68 4
-17.4201 28.6618 -15.1739 42 21 10
4.1283 34.4821 2.32882 75 71 0
-24.4885 21.9038 29.7786 67 92 96
8.24066 42.4111 -9.02303 71 62 17
9.33146 -9.91474 6.64861 70 39 12
-26.2179 8.30527 46.4565 48 73 76
-25.8485 7.84892 35.4475 45 71 77
18.2722 10.6937 -0.0398903 73 74 7
-18.4427 -24.8069 7.1129 36 45 22
-9.20197 -18.227 -5.22672 19 21 7
-24.0866 19.839 21.7848 76 110 111
-31.1084 -25.0582 -18.9582 27 64 13
-15.8603 39.1725 -6.87859 30 10 10
-11.6393 29.6853 -16.0201 72 71 23
20.2794 -0.815762 7.0946 71 74 0
-13.5513 -7.95274 -6.67823 36 18 6
-11.7373 -13.4383 -4.14706 28 14 6
32.1656 0.378914 6.20161 75 75 3
-16.4127 6.69808 -21.7512 78 50 26
15.3531 4.83892 3.46881 78 63 3
-12.7177 -23.4774 3.14035 49 36 10
39.6727 -26.2792 -10.1747 55 65 2
34.6211 -24.3949 13.249 72 86 76
-16.4502 7.34343 -0.0964355 67 41 12
-26.2262 17.9264 36.7814 43 73 80
-11.5807 -23.4394 2.53664 18 28 10
9.46264 35.026 3.59495 86 97 63
-16.2582 17.4428 -5.98873 65 40 0
32.0094 -26.6106 8.47059 57 71 21
-9.85426 -25.3314 -28.4724 47 54 32
12.653 -20.7955 2.17947 11 13 6
12.0758 36.8831 0.294041 74 77 4
-8.51389 41.8801 -9.47624 71 64 14
35.7854 -13.4454 5.63285 71 73 38
26.3182 -26.0378 -29.9837 68 88 37
-20.1733 38.1216 -0.376232 81 69 0
-24.2805 18.254 31.3014 60 92 100
17.597 -26.4795 9.46091 85 110 28
-28.0058 -25.0134 -23.2485 27 62 19
-14.1843 23.8536 -5.16503 15 2 2
39.2436 -26.6434 11.6669 78 93 17
-3.28844 -24.6543 -28.2442 23 36 17
-15.3617 22.6344 -4.55625 44 37 26
-9.42507 33.0245 -14.3998 70 66 16
15.6255 -23.0924 -21.8257 74 80 67
-7.71433 17.6708 -26.3257 66 60 8
-20.8504 29.1074 5.02157 54 58 41
-11.7677 -3.32875 13.1997 79 49 23
-14.5372 16.9961 15.0788 80 71 2
33.0206 8.76433 -12.4075 77 74 3
34.8952 -15.3222 12.6727 67 73 64
-21.5826 -25.2246 -14.768 61 80 22
3.66862 0.232105 13.3113 68 42 19
-21.2445 -25.5298 -0.569199 57 74 29
-16.6306 -2.43745 -19.4894 70 45 18
-17.2245 33.49 4.61634 75 76 1
-24.7531 -25.0239 -25.959 34 62 24
-25.7477 -5.77485 19.0922 60 79 79
-12.6688 -14.2655 3.39821 55 42 14
1.59271 29.6372 -15.8245 71 71 18
6.07482 15.7024 14.8824 72 66 2
12.4456 7.03487 1.97131 79 68 6
8.04838 33.2035 -13.884 79 79 28
-9.70336 40.3853 0.0632057 67 63 0
34.6107 -13.9232 11.6407 56 70 66
16.7954 -1.2364 7.35998 77 66 1
8.24935 14.6024 15.5132 71 62 1
8.52547 23.3311 12.2225 65 76 63
-14.7922 -9.21162 -17.1759 20 17 14
10.4117 -26.0568 -23.2459 44 55 30
7.60773 22.5281 -24.1697 87 94 16
-21.4829 -25.1557 -21.5056 38 69 28
-24.3401 12.7952 39.7696 28 59 39
-26.1913 17.0369 34.3464 14 33 20
-26.2366 22.9418 29.4714 55 78 82
-24.0605 21.1975 15.6329 105 133 142
-26.0389 19.642 15.8693 55 80 83
-7.96864 -23.5677 -1.11556 13 14 7
33.5596 -21.28 12.964 95 93 70
34.0582 -26.0771 -7.62327 60 74 2
5.05012 42.2155 -9.19674 72 71 10
4.77809 -1.72057 13.3126 66 39 16
-4.13587 13.5686 -29.472 72 64 8
27.5413 -24.4384 -24.2128 44 42 25
-24.7586 5.9119 35.8699 50 64 59
1.06511 -7.44705 12.9147 0 0 1
-9.93316 26.8025 8.0097 73 63 0
9.38093 37.4775 2.90299 62 71 63
6.80323 20.4076 11.3266 84 84 3
6.14787 3.41192 13.2544 63 38 17
-20.4276 12.8537 -28.6935 84 72 11
-24.2794 -25.2988 -8.0599 55 89 40
-14.2307 10.7768 -25.0036 45 35 33
27.6926 -20.3511 4.22953 46 42 24
-20.2021 29.2292 6.70822 81 72 1
-25.5397 -4.73948 19.6161 59 78 73
-24.371 14.0127 40.8808 57 87 94
-12.0981 41.2472 -0.331619 75 64 1
36.9733 -26.49 7.4972 89 99 24
6.11662 25.1243 8.08533 82 74 5
15.95 -10.2671 4.73262 71 40 19
-29.9589 -25.2784 -5.89692 26 64 19
-15.666 41.397 -9.65011 74 69 27
19.2262 -26.6192 14.5476 91 115 21
-20.6581 35.8773 1.12047 59 58 27
15.9461 -20.4388 3.45224 47 50 39
-1.80336 34.9989 -13.2336 70 64 10
2.61429 11.557 17.7412 67 70 8
-23.96 9.75187 16.7685 9 65 29
-24.4781 -7.94038 11.0218 54 67 60
-14.2311 22.9651 -4.59791 17 7 7
-20.3392 44.8289 -6.32591 78 86 81
6.65808 26.4987 -18.2801 70 63 21
33.6437 -19.1865 7.1896 72 85 76
24.1518 -24.4883 -21.9078 35 32 12
-14.4832 -26.4115 17.2291 89 112 60
15.9893 17.0296 -4.6808 91 89 53
38.9923 -26.724 15.2577 72 86 38
-7.48469 43.5733 -1.91283 71 67 0
-27.4503 -25.3183 -5.22645 29 68 19
-24.024 14.6714 24.3979 65 95 77
-23.9607 12.0523 22.7115 70 107 109
-26.241 24.2593 22.5615 37 65 58
-28.5911 -26.0179 12.7638 51 89 33
16.2139 8.95665 0.891315 75 68 4
32.6642 -26.5353 8.30611 66 57 12
9.98246 13.5068 -29.0631 71 65 12
-16.4648 7.15319 -8.73791 69 41 14
-25.6612 0.445858 25.8579 54 73 73
-11.213 32.4964 -14.6668 71 68 18
4.67014 31.3907 3.88758 74 70 0
-24.0112 -9.85748 13.2888 80 105 102
-20.6289 21.6686 -21.7303 56 65 55
-1.20963 25.9612 -19.2392 65 61 13
10.0747 13.9802 -28.6866 71 65 11
18.9338 7.16877 1.93391 75 71 0
-26.1428 17.3474 26.972 15 41 19
17.5483 8.95052 0.933067 75 64 6
-16.3995 10.7346 0.908684 43 33 8
-16.1044 32.5374 -6.38721 50 32 0
27.9521 -26.4755 6.07674 83 101 29
-14.3225 -13.5443 -16.8113 61 72 66
-25.7472 3.10104 32.0717 19 35 15
7.82209 24.6948 -23.1405 67 77 65
6.23281 17.4268 13.6057 72 59 0
27.9936 16.4126 -3.62973 86 73 11
11.8013 -25.8085 -27.9119 34 44 18
0.609058 20.7702 -23.4569 71 71 15
-15.4795 40.936 -11.9499 81 87 18
-16.512 11.9942 -28.8581 73 66 17
-3.83488 -25.2733 -28.7649 21 35 12
-26.0161 16.3571 18.0841 50 76 81
-16.5336 4.65975 5.49255 62 37 10
16.5749 -24.9622 6.29405 55 75 21
-26.3157 21.6553 29.2537 39 73 83
-20.5536 44.5365 -5.83068 72 88 78
-16.295 15.8977 5.77479 48 31 16
-20.9112 21.7693 10.8248 62 72 57
-14.9787 -5.72454 -17.2081 24 16 9
-26.2433 24.5975 27.5394 49 80 86
13.041 17.1533 -4.70471 91 86 48
-4.91495 26.1223 8.22138 72 61 0
9.36108 15.5186 -27.4646 71 64 16
-14.0669 -7.3946 2.85836 13 7 4
34.3831 -16.1823 12.9546 68 77 68
5.17783 -23.2765 12.7564 54 41 22
11.7629 15.3641 14.7024 73 67 2
4.27398 35.4577 1.76235 72 69 1
-24.5207 23.3769 29.0277 67 92 103
-12.2357 -22.9584 -17.7953 25 26 21
16.6187 4.92559 3.44115 78 64 2
22.288 6.66328 2.30405 71 67 0
5.64622 37.9797 0.206924 73 74 0
-1.5705 44.5437 -5.77629 87 103 95
-26.205 21.4358 26.9283 22 49 23
-4.87056 27.2019 -18.3233 70 57 16
-21.212 -25.1482 -23.2033 41 68 29
-19.3383 27.7799 5.42846 85 78 4
-15.0411 19.685 -24.8628 75 75 8
-16.1021 33.2229 -10.7329 29 9 1
-16.2869 16.5146 3.94898 53 33 14
19.2368 3.75914 4.22877 75 72 0
-2.16802 -23.5374 -26.5063 33 41 24
-25.5915 -4.36899 18.1799 46 34 18
-8.9411 -6.08797 13.0353 76 53 29
29.8372 9.55203 0.533154 71 72 3
33.5505 -20.6662 3.738 57 71 67
-15.9844 23.1683 6.86473 49 39 17
-6.0735 -26.1916 11.5079 101 126 71
-16.4456 -11.6356 -21.2814 76 55 31
-17.828 -25.5867 0.651772 64 81 21
-16.4149 -12.6925 -20.5068 71 45 18
-16.1344 32.802 -4.99402 57 34 0
-26.074 6.86049 48.1379 47 73 78
-24.3524 -11.9056 19.4257 78 101 98
-25.3977 1.91616 34.034 54 75 75
-8.67407 21.4939 11.6537 74 74 3
11.8517 34.0075 1.8799 76 69 0
-12.4166 45.1118 -4.32186 70 82 74
-10.8916 -14.6795 -9.40185 27 20 9
-7.89491 -21.8078 -10.565 30 33 13
31.6288 -26.6337 15.099 80 98 32
-16.2274 11.8849 10.0176 46 26 13
-17.1124 -25.5002 -19.7126 66 74 23
13.2117 -26.0389 -28.8794 36 47 16
3.65032 44.7472 -4.87209 80 92 85
25.009 -26.4996 8.74487 88 109 27
35.5172 -25.7463 -27.9975 80 104 38
4.27748 25.2221 -19.5287 71 63 11
-24.3196 -8.84217 19.902 78 103 104
4.34168 18.7358 12.7987 71 60 0
-25.063 -19.1283 3.59992 96 117 97
-28.3789 -25.949 10.7364 52 85 31
-16.4729 -5.6279 -17.951 71 45 22
-20.2397 35.3384 3.7483 74 66 10
-25.219 16.194 11.2296 55 66 60
25.7998 5.22176 3.15309 77 64 0
6.2211 14.6633 15.6168 69 62 2
-15.9857 26.2176 -8.9397 48 33 22
23.1545 -3.14924 8.40631 73 71 0
-20.6989 29.5185 6.2505 81 76 45
-11.906 40.1958 -10.4533 71 64 15
-13.6113 -9.85746 -14.5641 52 31 5
-25.4765 -23.327 0.71376 99 124 102
-16.1004 18.3765 -15.9231 61 36 9
18.1534 3.03729 4.67866 74 68 1
5.35908 21.8558 10.4527 75 71 1
-16.1149 -19.5921 9.60367 36 23 3
-2.31474 -15.3823 10.3933 1 1 1
-16.4923 7.73157 -7.55845 70 39 12
-14.5472 18.3 -26.031 69 59 13
26.463 -18.5615 5.00758 85 90 81
-16.5794 -3.48379 -22.9161 73 47 27
-21.1162 -25.2215 -15.9951 52 73 22
-16.4662 -2.52868 -6.14265 75 47 18
-13.5603 -9.44595 3.79442 21 10 7
33.3558 -23.1739 6.20699 75 61 10
-16.2157 12.7656 10.2476 58 50 20
4.07805 -26.6655 16.8634 85 106 22
-6.03413 34.9722 -13.326 68 69 14
22.6496 -24.6101 -21.4146 51 51 23
-25.8156 20.0039 33.9348 84 100 93
14.8893 8.48393 1.07075 79 65 5
-7.66133 -1.58742 13.2275 75 45 18
-26.0978 9.45637 40.5981 38 64 65
-16.382 12.3967 3.21503 45 26 14
1.38559 -6.91013 12.9932 19 11 9
-16.8862 19.909 -24.7326 72 70 7
11.865 5.01524 3.29605 82 68 7
18.951 -17.3047 4.49992 2 2 1
-7.17315 -17.0083 10.3113 4 1 0
30.3442 -26.0318 -30.5634 72 93 54
-24.364 13.6467 38.9243 24 60 34
-25.8628 -7.47232 12.8533 56 78 77
-13.0668 17.5301 14.6368 80 71 1
22.6211 -13.5308 5.71696 72 50 22
-6.45297 44.1739 -2.36825 74 68 3
-27.3888 -25.5527 1.34444 51 80 27
-24.1102 -24.1654 8.8251 58 45 15
-6.91167 29.5403 5.52752 63 64 24
-5.63888 41.4709 -9.72145 72 68 16
-25.4639 3.53661 14.0511 57 78 77
-23.8433 2.81681 21.8904 68 56 43
-14.3802 40.6374 1.50691 66 74 61
-20.0107 16.7078 13.1143 95 91 1
27.8647 -1.78173 7.66396 71 64 0
-24.1227 -11.1295 9.25885 43 83 73
1.35413 -19.8459 -24.8424 60 62 57
-16.8336 -25.5892 -0.616756 64 80 25
-4.94061 -24.1084 -27.6431 25 38 18
-11.377 -7.51749 13.0773 79 49 22
26.6094 -26.4879 7.31195 85 101 40
-16.1782 19.1861 -1.27377 66 37 3
1.46313 -23.3952 -24.7958 61 67 59
-16.6127 1.58206 -21.8615 77 50 25
-15.9494 18.7118 13.9189 83 81 0
-5.28936 -16.9432 9.7692 2 2 1
-28.2253 -25.0022 -27.8514 29 58 27
11.6957 16.9092 -5.91254 30 38 36
-19.3974 31.7963 -12.9596 119 101 10
-16.1439 -20.4299 10.0713 31 20 4
20.333 7.60389 1.60455 75 76 6
17.2688 -24.3114 -27.4343 41 47 21
4.81379 34.2819 2.35705 74 63 1
1.97108 -22.5788 12.5584 52 37 22
12.7672 22.0027 9.83833 73 64 1
-16.3041 26.7063 -16.9764 66 46 10
1.61635 13.6479 -29.1991 71 70 14
14.0365 9.93771 0.321407 77 74 7
-7.3772 -23.3368 9.78458 35 44 23
1.59174 2.81907 12.1212 51 51 44
-19.5859 22.4539 11.4807 87 89 14
6.7125 21.5871 10.4812 81 75 3
26.379 17.0615 -7.09606 85 98 89
-2.47374 44.8318 -3.179 81 75 6
35.5439 -26.0581 -10.2343 62 76 8
13.35 16.8558 -5.51544 86 99 87
-25.8057 2.75064 24.8856 51 74 77
-16.1852 17.199 -17.7 62 52 5
-11.6957 -16.0045 -13.925 46 28 2
-16.348 13.8976 -2.74072 62 41 18
11.9898 22.2183 -21.6049 69 75 22
19.4019 7.31719 1.82575 72 70 2
-1.43628 43.667 -8.42548 66 61 7
-2.97458 44.768 -7.54453 61 55 27
-4.59281 44.5848 -5.87889 82 97 90
-24.0777 6.60459 33.3284 28 50 34
-24.1 8.50953 32.6256 30 58 46
-9.84008 -21.3986 12.83 54 39 15
21.0399 7.17243 1.94426 73 65 0
-11.3546 -25.8107 -29.8508 30 49 20
-7.57157 25.5427 8.76752 73 62 1
-2.97683 -7.97878 11.9165 1 1 1
-11.1102 -11.6678 13.0133 78 51 19
14.2761 -26.6533 15.6125 83 104 20
1.44138 20.2848 -23.8252 70 69 15
-15.9469 -19.9353 5.98903 47 31 12
0.446058 25.9509 -19.1713 67 59 14
-16.6425 0.111408 -20.6048 74 45 23
-7.11021 41.0902 -9.93188 71 71 18
-23.8029 -2.6849 17.3655 78 113 112
-16.2403 -25.3894 -11.0028 54 75 20
-24.0003 17.5685 14.7462 75 108 110
26.7307 3.72448 4.80121 99 91 1
-23.7952 0.89534 16.0348 78 125 127
-10.239 -8.73216 13.0747 76 49 21
-16.3024 -14.8364 -17.8718 69 48 27
-25.947 8.08448 31.8767 28 49 45
-22.5318 -25.5142 -0.660538 62 80 21
12.5588 33.1207 2.30119 73 69 0
-16.456 5.89766 -3.5192 69 37 9
22.9921 16.4732 -5.71835 87 103 96
-25.1507 -12.2542 8.1316 88 104 95
13.6482 -22.0601 3.19693 47 57 23
28.5154 -26.4557 7.37728 76 95 37
-9.4497 44.6916 -7.67566 68 58 16
-13.2327 18.0941 -26.1714 69 61 10
21.7987 2.36117 5.11829 74 72 0
6.16212 21.5775 10.5516 79 75 1
33.2503 -25.0514 6.42104 80 61 7
-8.29877 -23.5276 -14.4113 29 33 4
-16.2411 18.3962 2.26779 71 42 5
-26.1402 17.8764 27.1045 16 44 19
22.4335 -23.919 -25.903 45 55 28
-5.88597 -26.16 10.709 89 109 67
-14.7053 -8.05261 11.2059 87 98 87
-11.7084 39.2066 -10.9635 72 65 19
-16.4387 3.02581 -5.09875 80 39 10
-3.89131 1.80813 -26.0008 51 36 31
-20.8757 23.4975 9.56901 65 78 71
-15.4877 23.2139 -8.51347 72 80 75
22.5529 -23.6517 -24.5106 54 52 27
-25.913 9.05442 35.5341 43 70 74
-20.1642 33.2617 2.60534 84 74 0
-8.93044 -23.8516 12.6793 56 39 18
-26.1953 20.5656 21.9765 31 51 46
22.9032 -28.2212 17.3711 54 77 66
0.757994 2.3028 11.4574 59 70 63
-12.0821 42.7621 -8.93755 71 63 16
38.6323 -26.3239 0.136375 71 86 0
-25.9379 9.41154 21.2581 47 74 81
-25.7048 -0.0185356 16.2688 54 80 77
-19.2321 37.1613 2.5863 74 66 0
-2.33637 -7.80132 12.1271 0 1 1
-16.4843 3.2972 -0.604477 67 37 12
-9.89299 31.4875 -15.2076 69 70 17
-5.76764 -20.8282 9.49624 6 6 5
-20.5528 25.4245 -19.7906 71 76 32
-12.3268 30.2111 5.54815 80 83 27
-26.0424 24.0911 16.246 58 82 86
8.20376 26.2537 7.11574 77 79 50
-18.9728 16.2804 -27.8971 64 57 12
-10.5907 44.0532 -1.95823 73 66 1
-24.1398 13.8415 31.1053 30 59 41
-19.2665 -25.4584 -29.4579 24 45 18
8.5579 -26.579 -24.1947 45 52 44
-7.62867 31.5863 -15.1562 70 73 16
-16.8318 24.5241 -20.7368 74 70 4
-14.8731 37.3426 2.90985 62 75 67
13.8386 44.6102 -7.03933 76 82 71
-16.8376 -25.4966 -4.94363 55 79 23
-15.955 -13.6935 5.84182 66 41 22
-24.3319 18.1555 34.0996 72 105 112
37.2832 -26.0288 -13.0946 73 91 21
23.634 -26.5555 14.0551 88 109 19
-18.4492 -23.851 3.51659 7 12 7
20.0302 7.07961 2.01758 73 72 0
-0.166937 24.773 -20.1675 67 64 13
-18.0256 38.2032 -9.47741 8 4 3
-4.62326 18.1068 -25.8842 67 61 10
-6.16445 -25.6371 -29.1392 29 46 14
-16.4589 5.86453 -19.6152 73 46 21
-13.5872 -8.5138 1.45681 22 12 2
11.6674 -24.996 -24.8354 49 61 33
11.9419 13.0448 -1.56623 75 66 5
15.6242 17.3269 -6.98167 86 94 87
-20.296 27.9931 -17.7196 68 70 28
13.6301 -18.723 1.787 10 12 7
11.1891 -26.028 -28.2153 34 48 16
-4.93332 6.38096 -25.1599 69 43 24
8.13691 29.222 4.53896 77 77 18
-15.9849 20.7599 12.5367 73 66 1
-12.2484 -16.1375 2.80197 53 41 10
-4.8051 -23.187 9.37854 34 43 21
-20.7683 22.3183 -22.0433 55 71 55
-8.90306 -18.8738 -9.84416 26 30 12
-18.9385 21.3445 -21.2767 103 92 6
18.5918 5.16351 3.29452 75 67 1
13.1858 14.6167 -28.0177 68 65 33
-26.1592 22.9702 20.9832 48 75 79
6.29821 12.1883 17.2982 67 63 1
18.4875 9.28268 0.751514 72 74 7
-4.59365 -9.16582 11.1047 3 1 1
-16.1863 24.9493 -15.0941 40 17 1
8.6221 18.7268 -24.7194 72 71 23
-4.63815 -26.1882 10.9404 90 108 47
14.3067 8.83353 0.907417 76 75 5
-9.61457 38.0953 1.36711 73 67 1
39.5746 -26.3321 -4.27618 65 83 4
-24.2941 14.6652 37.0596 34 63 47
19.1728 1.4118 5.71858 74 74 0
-26.0225 -21.9596 13.1648 56 77 48
12.4864 20.7648 -20.2974 89 86 13
26.5731 10.1328 0.216515 72 65 5
-15.0079 -17.6365 -23.6596 82 97 92
-24.3111 22.5615 27.8753 38 66 45
-14.8075 42.2798 -9.16248 72 68 20
-14.4024 15.4295 -25.622 61 55 28
-31.5304 -25.6667 -10.0634 54 75 59
-19.6039 12.4264 16.1627 88 73 8
-9.60646 -20.6048 -14.5921 31 30 4
-1.78696 -9.69397 11.8668 0 1 1
29.5592 -3.68073 8.38994 65 63 12
-19.8471 20.3337 -21.9206 70 56 16
9.18069 -21.0725 9.6864 48 33 4
-19.7657 -25.2856 -11.5932 62 79 10
-23.9181 6.88399 24.093 57 57 47
-16.3369 13.2368 -0.398308 48 36 11
-17.8596 28.5067 4.87351 83 77 6
-15.0027 30.1313 -4.93367 74 82 82
-20.7669 31.2986 4.98909 72 86 75
-3.53601 -11.6357 10.8525 1 1 1
-11.298 17.5304 14.5496 76 67 0
24.7261 -27.8975 -30.6773 71 88 75
-24.1883 22.8363 22.5429 66 89 87
-11.7213 -12.8687 -7.29819 39 16 7
-16.3111 15.2864 3.60664 48 30 15
-9.31081 42.9494 -8.87121 70 60 12
12.099 -26.6785 15.1232 79 105 17
-25.7347 1.14923 26.1862 55 75 76
-25.74 1.65719 24.3487 52 74 77
-25.9977 -25.1954 4.62214 36 37 2
23.1644 8.42257 1.1973 71 71 3
-25.3893 -25.3901 -3.18018 66 87 52
-25.875 -11.2719 10.6711 54 77 72
-19.2545 -25.3347 -9.30544 56 72 18
-14.1373 -27.1973 17.4359 58 73 63
-3.18897 29.0597 -16.28 66 65 28
-25.9014 27.0582 15.7956 57 78 79
-13.5787 -20.8694 -17.1186 33 40 33
-17.5617 22.7621 -22.2792 70 67 1
12.0869 12.6449 -1.29297 75 68 3
-23.8953 -2.01117 22.3694 79 108 112
-20.4101 41.8839 -0.0633392 77 74 42
-16.6693 -2.3012 -16.614 72 49 28
12.8885 12.3995 16.7785 75 66 5
12.1644 29.6813 -15.4114 75 73 24
-26.0523 6.44167 44.163 36 65 64
-24.0079 3.95465 32.5221 28 54 40
-14.9787 30.5197 5.72957 81 82 4
-24.085 18.4669 22.0473 87 119 98
24.063 -24.1646 -25.888 45 50 21
-26.0058 5.40929 44.908 36 66 65
7.48757 23.1685 11.821 85 83 37
-24.1314 11.4934 33.0472 25 46 34
13.1773 44.7805 -7.04524 87 88 72
-16.2605 17.0111 -9.03734 61 48 8
-12.7607 4.31924 13.3624 80 54 30
-16.4189 5.38083 9.32102 68 41 19
14.497 7.06784 1.97823 78 73 4
-25.9422 9.48249 21.9738 46 74 82
-6.69193 -28.012 17.6478 57 79 65
-6.35097 17.6347 14.2306 75 68 3
33.3419 -24.3937 3.94886 72 61 18
27.5911 16.6702 -3.82841 81 75 12
29.4686 -0.440437 6.80202 74 72 0
17.335 -23.0505 -23.2348 74 76 56
-8.92603 40.356 -10.3262 68 64 14
-27.4322 -25.929 9.37573 81 99 35
-13.0016 -14.7111 13.0096 78 50 21
-6.3779 -25.8695 -29.821 22 47 12
-26.2014 14.018 33.5127 24 51 37
-12.639 -11.9511 1.53264 60 60 24
-8.80683 -9.38794 12.9652 74 52 24
-2.86638 23.33 -21.5045 66 65 14
39.9495 -26.6163 8.10567 76 90 13
23.4792 13.8039 -1.94166 75 72 8
-18.6812 22.9525 11.0884 85 84 9
-16.1694 37.628 -11.5993 76 70 2
-8.06657 -21.0812 -4.03635 22 25 9
26.2032 -26.5324 12.9944 89 107 37
-16.4019 -16.6171 -21.5109 57 40 21
-16.3559 11.271 -14.4159 66 58 30
-16.3345 10.6291 9.02493 45 30 12
-15.9541 39.5098 -6.28841 34 13 8
12.86 -26.1529 -28.9037 36 48 15
-5.17111 -10.0247 10.7592 2 1 1
-18.9954 -25.3414 -9.99243 55 76 16
-8.39429 19.2146 -25.0848 66 63 8
-16.1067 -12.286 8.26194 63 41 16
-26.2039 11.171 41.0088 22 50 31
-16.092 21.2235 -0.361748 71 39 4
-15.4755 -24.5814 3.12324 66 88 38
-27.0313 -25.4386 -1.07248 41 70 31
-30.9255 -25.0725 -17.5212 27 66 15
-19.7989 24.9381 -18.1362 110 100 12
-26.2384 24.9785 21.1102 34 61 46
17.6297 -12.4871 4.53218 4 0 0
16.9662 -0.819103 7.0859 77 69 1
-16.4647 7.97865 2.50461 67 41 16
-16.0515 17.7636 -18.1606 61 38 19
-24.0033 6.57697 31.6891 36 63 59
-25.918 5.77322 28.0033 49 73 78
-26.1326 11.2211 40.25 18 40 19
-31.2326 -26.2349 8.53283 54 75 54
-16.643 1.79892 -14.8102 66 40 14
2.35045 33.3212 -14.0624 72 68 16
-13.9133 24.6283 9.72309 83 87 3
-16.4861 -8.30583 -19.7048 69 43 19
-9.02666 18.5475 13.7291 75 73 1
-5.82599 -9.49104 10.7524 1 1 1
-16.3327 14.9026 -7.52961 53 31 18
-30.0438 -25.9291 11.5349 51 85 34
-12.3169 -21.4939 -17.13 30 31 26
21.1412 -16.5028 5.4694 66 42 19
11.7431 12.0386 -0.964699 78 65 6
-17.2194 30.6136 -13.8017 26 22 5
24.2896 -0.0670471 6.61589 71 70 0
-16.8691 28.8598 6.78072 76 71 0
-16.04 26.3134 -2.10234 50 32 17
-6.31277 33.5168 -14.1397 70 70 17
-19.0824 -25.5612 -0.55835 57 76 26
-10.0516 -21.0669 -15.7441 32 28 5
-25.8263 4.16674 29.8522 50 73 79
-24.3474 10.2535 15.6696 49 58 57
-26.7315 -27.6177 17.6182 85 100 89
-1.69951 -10.6537 11.7197 0 1 1
-12.5074 39.8759 -10.5637 73 63 22
-25.888 -19.5273 3.99166 48 68 34
-31.2149 -26.3043 11.3481 53 74 53
-16.3811 11.648 -5.0992 51 39 14
7.12803 -17.1739 12.2047 78 90 82
-26.1013 12.1183 32.312 16 34 18
-20.0625 35.9419 -10.5523 108 99 16
-2.17016 26.3382 7.88924 70 59 0
-6.84901 20.3734 -24.078 69 69 12
-18.6926 14.4565 -29.4069 67 62 12
-5.69332 34.8908 -13.3746 69 65 12
-18.5704 -25.5013 -3.14508 62 81 21
-14.4921 23.6083 -4.08366 22 4 0
-16.4779 -2.98332 -7.19773 78 56 27
-16.1031 -19.5548 8.9629 39 24 3
-12.4589 -15.6025 3.22738 56 42 16
-8.44428 -21.0752 10.7991 44 53 38
-13.3565 -23.3499 -17.8405 32 33 27
-28.8137 -25.9769 11.4353 95 125 73
-25.2394 1.09054 15.0495 75 89 85
-12.9427 -9.72187 -6.33962 16 14 6
33.5593 -20.0613 8.847 76 87 82
-16.683 0.834564 -16.6554 72 45 20
-3.84553 27.5515 -17.9491 65 56 16
-14.5647 0.0359344 11.6599 77 86 79
-23.7987 1.9335 20.9227 69 81 77
-26.0553 10.1297 29.9546 44 72 76
-16.3564 13.2955 -11.4748 55 41 14
19.1065 9.00923 0.916935 71 70 12
15.7321 -23.1389 -22.4683 53 48 36
-16.1059 31.7194 -2.50723 42 19 2
28.9092 16.9706 -7.18268 86 97 89
-16.4382 9.23935 1.11501 67 50 13
-16.4452 9.63839 -11.1788 70 70 25
20.2739 -23.4108 -23.0871 54 58 26
-26.1792 19.4397 30.4867 46 78 88
-7.50324 28.7196 6.44234 70 70 2
33.5606 -15.7892 5.39138 58 6 5
-19.0013 40.0634 -8.25288 14 4 15
12.3452 12.3602 16.8255 72 68 6
-26.0396 -22.0794 6.10906 50 66 27
-29.6953 -25.8989 13.8721 66 99 47
-9.30199 42.3287 -1.05741 72 65 1
-26.1157 20.8262 17.5493 54 80 85
-0.693718 -26.0547 -29.7856 28 47 18
1.78664 -1.13559 13.2985 72 49 25
-13.9889 -26.3269 16.9589 95 124 42
3.25549 40.4507 -0.976433 74 71 3
24.362 14.0902 -2.11921 78 73 11
-19.9126 28.6035 4.98431 91 82 11
-0.633062 -26.4816 13.3098 76 95 30
1.39803 -22.0286 -24.7245 61 69 61
5.09388 17.2472 13.816 73 66 2
-24.3629 25.668 21.6778 75 110 101
-29.4905 -25.6044 3.37663 51 80 23
0.603432 22.0016 -22.4488 69 68 12
-20.3603 22.0402 9.31959 98 88 5
-12.1397 -25.6939 -0.462404 47 70 24
-9.32775 -18.9693 12.8568 54 38 15
13.1889 17.2144 -6.66096 81 91 87
7.60446 37.6126 0.613312 73 62 0
13.86 29.7329 3.86264 64 44 5
-16.3918 20.9703 -23.7433 72 68 0
-15.6019 -26.2512 16.3141 89 119 44
-16.0909 20.7258 -2.03502 71 41 10
-19.4309 26.2826 8.84259 87 73 8
-26.2299 24.5633 23.3473 26 52 29
-24.6004 13.5145 47.8719 57 80 84
-14.7102 16.9704 -27.1632 68 60 13
2.98225 -0.642769 13.2956 66 44 18
33.297 -15.4112 3.15443 61 45 0
8.65126 14.5868 15.4981 70 63 1
-26.2251 16.7216 36.1997 16 35 17
-20.5571 -25.161 -20.6483 45 69 28
14.3796 7.43675 1.66493 76 71 5
1.51003 26.4873 7.51889 74 59 1
-25.8343 6.71097 18.4862 48 75 80
-16.2316 13.4427 -27.7822 91 82 7
6.75009 0.18824 13.2864 65 39 19
-15.9905 18.334 -26.0652 64 59 9
-13.4966 -11.2041 13.0155 86 63 38
-16.5247 4.19391 4.34006 66 37 12
34.746 -24.8627 -13.1018 91 107 80
25.4764 -8.95812 6.11258 66 46 20
7.38224 0.623112 13.1425 62 45 27
-16.6711 18.5765 -23.6232 91 85 8
7.12196 -17.8937 12.8777 58 52 38
-5.8333 19.3809 -24.8727 68 62 16
-17.269 45.8453 -3.30059 79 78 51
19.8669 7.45004 1.70731 74 71 8
23.5883 -25.6178 -27.5034 36 42 19
-8.66848 4.02489 -25.1619 69 42 24
-12.1537 -17.2132 12.9857 60 41 20
-13.2174 23.6159 10.2142 74 75 1
3.7927 18.9477 12.685 71 69 2
32.7038 8.30944 -12.7035 75 74 4
18.0005 5.47562 3.09599 74 63 0
33.4511 -22.1753 10.0154 79 62 5
24.4659 10.7851 -0.122002 71 74 7
0.0593376 20.0664 -24.0543 68 69 9
20.5851 -28.421 17.4235 65 82 69
-31.4704 -26.868 -19.092 75 87 80
-4.62651 2.56108 11.3574 72 77 66
-15.7039 21.2229 -24.871 85 89 34
-0.390848 22.217 -22.3143 67 68 13
-7.75233 43.8348 -8.30945 70 60 12
23.9391 -18.8991 5.90998 72 52 29
-14.2419 16.848 -27.2652 68 58 12
-16.3783 -16.0181 -20.4141 55 38 19
-14.6656 -20.9093 11.2945 72 85 76
-26.0337 10.3859 38.1942 63 77 74
0.741468 19.5142 -24.5005 70 70 9
6.27841 15.2611 15.1708 70 64 2
-28.7489 -25.2914 -7.01204 22 64 20
-16.0624 39.6664 -8.19462 26 11 8
11.0562 -25.3634 -24.6842 45 57 30
-24.2325 15.996 33.3165 30 60 34
-15.4952 19.4541 -25.0851 74 69 12
-24.1644 17.7958 26.4785 35 67 48
-26.0048 -19.5405 8.24675 55 72 41
-15.5024 22.5223 -6.25758 63 73 65
-24.0634 13.4568 13.5268 85 119 130
-23.9805 9.579 26.6236 69 88 90
-0.26239 2.92701 11.2125 46 37 28
-1.96101 3.21265 10.6866 30 23 14
16.0242 -23.2863 -24.1485 37 38 23
-30.8068 -25.0787 -18.6532 32 66 13
30.7537 -25.7189 -31.0516 32 42 23
27.989 -12.7073 4.28512 78 75 63
-7.57003 44.7502 -7.59927 62 53 21
-5.68385 14.8627 -28.5444 70 62 8
-15.8816 -11.4666 5.60405 70 61 53
-16.6155 -2.18119 -10.6037 72 46 18
-16.1912 -3.76852 9.91294 61 36 12
-25.6846 -7.38276 11.4005 63 79 73
-18.5174 20.8023 -21.9165 125 116 10
-25.9339 6.50575 30.3197 47 71 77
-2.4819 23.7063 9.76083 70 71 1
-25.7557 5.81512 35.4578 42 69 74
-15.9999 38.8336 1.29373 86 78 7
3.68806 -0.53809 13.2969 67 43 22
-25.8751 7.23705 20.1865 48 75 80
-24.2363 18.1664 29.5343 29 62 41
-19.1563 1.3413 -4.74286 71 79 73
-24.1216 16.0804 27.3674 32 68 39
-9.68882 -21.754 12.8239 53 37 15
-8.40656 -2.85577 13.1912 79 55 29
-19.929 42.1015 -6.70504 48 39 4
-7.74046 -23.6041 -11.05 30 36 10
-8.59049 42.9759 -8.84736 70 61 10
-12.7716 30.4664 -15.7041 68 71 19
-16.4559 9.27029 -6.90191 69 46 16
-15.0171 41.5651 -0.00579834 73 83 68
-24.0424 -19.6715 8.50262 69 94 56
10.5628 -26.6153 8.65407 112 133 51
15.6984 16.8063 -6.01879 91 104 96
-16.9715 -24.7931 4.96434 15 18 4
-24.4592 8.06857 45.0362 31 55 39
19.8851 -26.4717 10.1676 88 113 29
-0.53867 40.5332 -10.2113 69 69 15
-26.1898 21.407 30.7977 64 79 78
17.6347 -11.6039 4.77269 1 0 0
-15.9805 24.6652 -1.75978 58 37 11
33.8641 -16.311 7.56932 66 10 3
-0.991194 -22.7051 9.76991 3 4 3
27.8356 -18.8245 4.23694 50 41 26
25.2054 -27.8277 -30.755 73 93 77
15.5556 -20.0685 3.1352 21 20 10
-12.1103 -24.0216 -18.0727 25 27 22
-26.1356 17.6669 26.2735 17 43 20
14.4329 41.5677 -7.30719 37 24 24
25.1571 -18.0074 6.0771 76 55 32
-24.255 -24.4026 14.4497 70 97 55
-16.2707 17.3845 -8.46177 66 43 1
-26.2119 24.5607 20.4759 42 70 72
21.7324 7.38258 1.77501 68 73 7
11.4302 -25.6686 -27.6689 38 49 22
-24.3618 28.6325 17.885 65 102 106
14.9758 7.15536 1.89007 78 65 3
14.1145 -10.0841 4.51459 68 41 13
-25.5409 -16.5044 5.1017 81 99 86
-1.63207 -11.3217 11.6086 1 2 1
-26.146 21.0181 28.1956 44 74 83
11.7516 -27.8428 17.574 56 70 62
0.23847 21.9749 -22.4639 68 69 10
-22.9597 -25.7621 10.0092 84 105 53
-26.0544 -19.8314 12.5001 56 77 52
15.6266 0.724594 6.11527 78 72 4
5.6301 24.1896 8.80743 76 70 4
-9.48983 25.319 -20.1014 68 64 17
9.0223 16.3556 14.2024 72 66 2
-2.90133 -23.9853 9.48758 6 12 0
12.4404 22.1574 -21.6272 72 66 26
-7.51144 34.8354 3.0789 75 74 2
-17.0717 25.9835 6.58797 86 72 5
-16.023 -20.6461 6.98391 43 27 6
27.2845 -25.3325 -26.8958 48 51 19
-26.1453 20.1634 20.2459 48 78 82
1.50295 44.1405 -8.10198 66 58 15
33.6629 -19.8935 12.7977 83 76 26
16.1315 -14.1157 3.42535 42 44 39
4.56267 19.8743 11.9582 75 62 0
-5.9064 28.3352 -17.2946 65 56 19
17.6359 12.5539 -1.17583 75 74 7
-16.687 39.5596 -8.73928 37 33 12
35.1724 -26.0687 -10.8033 63 76 3
2.94121 36.5926 -12.3183 71 69 13
-12.6877 11.8999 -25.3976 55 49 38
0.80435 28.7969 5.81236 68 64 2
-9.13328 13.8906 -29.4113 68 66 5
-25.7376 1.97372 21.5591 39 28 10
-24.4096 5.65723 44.6595 53 80 91
-26.825 -25.065 -20.4076 35 69 25
-16.1431 32.2816 -9.91398 36 12 3
24.3387 -22.5596 5.95753 61 54 37
-24.2547 -0.700615 15.4605 68 85 76
-2.20653 19.2819 -24.7924 66 64 12
-1.45198 -14.7485 10.8477 0 0 0
-24.0686 14.1196 22.7946 57 84 61
-16.2744 16.2932 -11.1686 47 28 13
-25.1259 16.477 45.0889 66 80 74
-12.5015 -15.0707 3.21048 56 42 12
-28.219 -25.3264 -5.42606 29 66 19
20.5379 -26.4804 10.0265 86 110 25
1.7365 23.5727 -21.0826 68 66 11
-15.6953 39.481 -7.60711 27 8 4
-7.43803 -26.1985 11.165 84 113 67
-16.0192 29.6122 -1.08646 43 20 4
-16.1321 19.8871 -4.70862 69 40 9
-16.0839 26.3984 -0.606506 62 44 5
-18.7646 1.11625 -2.9346 69 80 70
-1.11474 -26.072 9.9188 21 29 7
-13.4177 27.6713 7.4773 80 63 1
-15.6458 41.0513 -5.90937 34 13 2
-1.46638 17.3032 -26.4093 67 64 10
-26.0292 27.2541 17.6011 42 65 58
-13.8701 -8.91468 -14.9042 56 33 7
-15.734 24.4438 6.03272 46 24 17
-16.1714 18.6443 8.01337 61 40 10
1.46904 6.15576 12.6657 0 0 1
34.3392 -17.5908 13.0433 69 84 74
-12.0819 -13.4886 13.0148 77 50 20
-20.7401 19.1479 -23.8348 57 63 57
20.8646 12.4065 -1.06119 74 73 8
35.0878 -10.4379 -13.3657 57 80 69
-7.28649 -24.7941 -3.74318 32 39 12
-17.8765 -25.4678 -5.15152 61 82 20
37.1622 -26.2238 -16.0199 90 113 32
-16.364 12.0608 4.23023 44 30 12
-1.03888 -7.41226 12.5117 0 0 1
-2.77832 -1.10143 13.2161 69 43 17
2.63871 34.1136 2.66283 74 70 0
26.2494 -25.878 -29.3021 80 90 43
-25.7201 1.3282 27.672 53 74 76
-0.932302 -16.5304 10.4798 0 0 0
38.4221 -26.4227 2.25359 70 81 5
13.8642 7.1325 1.92548 79 71 4
35.8722 -26.0962 -8.08601 67 78 8
33.3121 -24.2101 -23.4709 80 99 56
22.9774 6.87406 2.13374 74 72 2
-31.2892 -27.2145 7.01936 57 77 59
-30.1912 -25.5311 2.15017 44 76 24
-30.0307 -26.1279 15.6753 39 67 39
-8.83708 20.5629 -24.0006 70 66 12
37.5079 -25.7534 -26.3481 72 90 33
-17.1596 -25.4847 -20.9954 63 76 38
-19.5119 25.3379 -17.8346 117 98 21
6.80764 3.84494 13.2651 60 38 17
-16.5474 24.3067 -20.937 76 71 0
1.17435 -18.7998 10.8294 7 6 5
16.6313 10.1069 0.259277 76 69 5
-24.4563 19.566 36.2208 73 83 79
-16.9838 1.97089 -9.83841 60 41 30
-24.504 3.32085 48.2837 58 80 82
-16.1702 5.55735 10.8065 57 42 26
18.3274 -12.0422 4.79349 1 0 0
-12.0492 -12.0972 -9.4287 40 17 6
-13.3018 -8.66756 -7.08112 16 14 4
-7.62904 -24.1547 -1.50273 12 13 6
13.8067 19.7656 -23.5381 75 70 25
-25.9007 4.47859 23.6419 38 33 17
5.74184 4.01913 13.2529 64 41 15
-1.23094 18.3037 -25.5693 67 70 15
37.7864 -26.6648 14.4919 80 96 20
-4.5636 35.2049 2.64983 72 69 0
-26.7151 -26.1536 16.8582 73 102 37
-25.4974 -24.576 15.7488 71 86 79
-16.1262 20.2363 -8.5706 65 36 3
-5.44874 -25.1459 -28.6273 21 37 15
-1.61383 20.1737 12.1881 71 72 2
-7.35701 -25.0742 -1.9724 16 16 6
-6.39412 34.1014 3.40541 74 67 1
-31.4486 -27.145 -19.9978 66 83 71
-17.4762 28.177 -17.6825 67 64 19
-25.6396 20.0681 12.5034 61 79 77
-14.3064 -18.1961 5.55197 68 82 73
-24.009 14.706 19.7202 88 122 131
-16.4703 7.23436 -12.1981 69 40 13
-18.1128 31.5512 5.72207 80 74 1
-23.8451 6.90559 18.2091 73 113 120
-31.3007 -27.5437 9.0327 59 81 59
-19.1637 23.6796 10.616 87 87 11
-15.1893 15.8315 15.9431 84 77 7
-16.5154 3.55146 7.12397 62 36 11
-25.1589 -1.73952 14.8751 61 78 75
-12.7329 1.53953 13.3328 79 53 28
-25.9358 -19.4685 4.71843 51 69 30
-16.2963 8.32399 -16.4779 76 52 28
0.901222 -28.4609 17.7903 66 77 69
-6.36636 37.3366 -12.0196 69 70 13
-8.22896 -20.2423 -10.163 28 31 11
-13.402 -25.4745 -9.19134 52 71 26
7.74601 40.0698 -11.4241 87 84 0
-6.75934 45.2257 -4.19418 75 87 77
15.2089 -26.5375 11.8137 91 114 31
29.9066 7.97269 1.2874 79 77 9
-25.5576 22.2382 30.4258 71 87 82
-26.1776 15.1587 34.5053 14 45 16
0.664558 -21.7395 10.4338 0 2 2
-16.3107 -14.2794 -23.2243 72 57 48
33.4241 -22.2121 8.85227 79 61 6
9.51072 -26.3628 -24.8365 95 122 96
-16.1915 25.078 7.21302 84 66 7
12.2738 -9.46785 4.20055 72 43 10
-24.2829 25.2032 16.3931 65 107 105
-21.8404 -25.123 -28.9615 23 56 21
-8.62917 30.1416 5.34232 79 84 24
-25.4986 2.14793 15.7173 56 79 80
6.08511 27.1189 -17.7993 69 64 24
-24.5346 11.1213 46.2817 62 89 95
27.4565 -25.8966 -29.1784 71 100 27
-16.3778 37.0257 -9.9011 43 44 42
-26.1976 17.0978 34.9517 17 34 17
-8.56837 12.5555 17.7875 75 74 2
-20.745 31.7047 -14.3095 70 78 61
9.71558 16.6184 -26.5403 73 64 24
-20.7349 14.4414 -28.8641 66 71 58
-6.11137 -1.4945 13.1378 72 45 19
16.0103 10.3662 0.0832291 75 72 3
-8.73086 26.041 8.49562 73 60 0
-16.5425 -5.77544 -23.0151 73 49 25
-25.7997 3.91396 30.2274 49 71 77
-13.8373 29.2043 -16.5748 62 59 22
18.4962 -24.0528 -27.1751 42 49 23
-23.9458 -26.1287 16.076 96 122 70
-12.7236 -25.4564 -10.5035 41 66 20
-25.9036 5.7289 26.7697 47 72 77
-0.802891 40.2241 -0.52652 73 71 3
6.43579 44.5792 -6.08717 84 101 95
-16.6881 -0.670059 -15.1066 65 42 15
-13.4494 -8.83466 0.0850449 16 9 3
-8.36938 -23.4827 -0.470518 19 14 6
-16.5921 45.8676 -3.19188 77 78 43
2.32956 33.7462 2.89132 72 62 0
-5.36522 -27.0154 17.5986 56 71 60
-14.3522 -6.67826 4.38815 3 3 0
17.8688 9.5575 0.587646 76 68 7
-16.5193 5.23803 4.01117 66 37 14
10.3949 25.0703 7.70177 73 64 0
-11.2087 -4.25484 13.1621 77 49 26
-3.89872 21.9707 -22.6579 69 73 15
-25.2205 -26.4976 -29.6906 55 80 59
7.14303 15.0949 15.2491 67 63 1
-4.9219 13.1109 -29.8406 70 64 6
2.05293 25.5255 8.16552 73 59 2
-25.9303 -16.6739 16.3509 63 82 73
-5.41712 17.7143 14.1269 74 62 2
-7.84776 42.5612 -1.30235 71 72 2
-26.1628 23.9641 18.2186 53 79 83
13.4827 31.8934 -14.2771 77 70 25
-13.4817 -8.09962 -7.44062 23 13 6
-25.9998 -12.6986 16.0104 59 80 76
-24.9115 -23.2433 0.933342 90 106 91
-25.844 5.99985 33.6578 15 26 10
-24.0499 -16.4669 9.36506 73 98 76
-4.37679 21.7586 -22.8571 66 68 16
-4.1016 25.6337 -19.6557 66 58 15
-12.9252 37.7774 -11.663 76 76 16
-24.1672 11.0693 33.7173 27 45 34
4.89987 -16.4232 13.06 54 42 26
1.68643 24.6684 8.79407 71 63 1
-11.015 -26.2101 15.8874 89 112 44
-26.0457 13.4114 21.6907 43 71 70
1.01621 -17.9637 10.7542 10 9 9
-25.9799 9.58543 34.3447 44 68 70
-10.4741 20.0853 -24.4601 69 65 15
5.90521 28.2534 5.83798 71 63 3
-14.1902 24.129 11.7607 67 76 58
6.57903 11.9559 17.4184 63 61 0
-19.6462 20.7083 -21.6149 73 58 24
-16.0169 37.8176 -3.46213 36 13 3
15.9662 17.243 -6.72633 87 101 91
-16.0249 21.7566 -0.819834 70 38 12
-26.2123 24.2165 24.4518 29 56 41
-20.8383 18.7459 12.4577 60 71 63
7.8809 40.6965 -10.5276 78 77 16
-24.2449 23.8356 21.9749 67 101 108
-12.4836 -12.1555 0.731749 22 12 6
-25.3872 18.0334 41.9004 73 84 79
-19.5967 33.6729 -11.8532 111 90 0
-3.9038 4.50001 10.5162 25 22 12
-10.9103 -16.5399 -0.971527 13 15 6
-18.7694 -26.0209 13.2962 80 106 43
-16.6228 23.968 10.1869 83 80 3
-23.98 -23.2501 1.00943 10 12 1
36.7646 -25.7969 -25.436 85 104 32
-14.8332 -7.33398 -24.7136 76 62 46
17.9911 13.0661 -1.48472 75 77 5
-6.92746 36.0098 2.3717 72 71 1
-13.6283 -8.22054 -1.68682 12 9 4
-16.8991 35.7465 -12.7373 78 73 2
23.7438 -26.4079 -29.9592 41 59 21
7.27366 24.8619 8.40049 89 90 5
-26.183 12.3251 38.9118 17 45 20
-24.0662 11.6492 27.1795 63 52 43
-24.192 -12.2579 18.0275 81 106 101
-1.63029 22.5098 -22.1269 68 67 15
37.1275 -25.7864 -25.6048 81 99 30
2.11909 -25.876 -27.7542 57 62 44
-24.265 10.6643 34.5565 55 84 93
14.2205 -25.7484 6.47162 66 89 23
-15.981 38.5104 -3.42513 36 15 3
-14.4788 -14.6386 12.1333 63 72 63
-6.09425 -26.3836 15.554 92 124 57
-12.8411 -11.1043 1.34695 21 0 1
12.7751 12.1619 -0.998135 77 71 4
-22.5518 -25.0862 0.145882 48 62 20
-23.9936 3.58866 32.2997 32 58 44
-16.4932 0.817627 -0.773697 63 44 12
-7.47029 39.9721 0.154491 73 78 2
-5.17137 39.1183 -11.0244 72 66 11
-16.4081 -19.1918 -22.5409 58 42 27
14.537 -25.6431 -27.3046 33 41 22
25.9991 3.71569 4.13888 79 71 0
-26.0145 9.51635 30.3755 46 70 81
-30.0329 -25.2338 -11.5857 59 105 48
20.9155 17.0631 -4.30318 90 85 27
-23.8758 6.74941 15.7176 55 98 93
32.9159 -23.9599 2.13322 60 57 30
-16.4472 2.64243 8.61184 64 43 20
-11.3261 -26.2601 16.4758 85 110 43
-16.6704 -0.503189 -13.1861 71 43 17
25.1681 -24.4651 -26.1521 43 47 19
23.0993 -14.0833 5.79961 69 46 23
-25.9924 9.08509 25.5893 39 30 14
-26.1582 23.426 26.3117 51 81 88
34.6225 -25.7761 -26.8108 78 101 36
26.7927 6.00495 2.97552 100 91 7
-12.4974 -25.4347 -10.9353 32 61 22
8.77979 39.6558 1.83987 61 80 69
-28.697 -25.1024 -16.6074 34 66 16
-16.0962 36.9241 -8.12773 27 8 2
-25.8304 5.02029 30.8323 43 66 70
1.64888 0.422882 13.2806 73 50 26
-7.08082 31.0787 -15.4193 71 61 21
33.4058 -22.6238 3.97444 69 57 17
-13.7296 -25.5694 -5.30573 51 73 10
-21.5707 -25.418 -4.39853 56 81 25
15.1755 11.3015 -0.455372 77 73 5
-18.954 26.993 5.88781 84 70 6
19.0213 -26.4458 9.14046 83 106 25
-31.1281 -25.7853 6.46392 37 60 26
-16.0469 12.5565 -22.0153 66 66 55
-16.6064 -5.78162 -22.157 73 47 24
-12.623 -16.1128 3.67127 53 39 12
-8.96834 -18.9478 -10.5374 25 29 6
-19.2871 36.1207 0.812008 81 61 0
-19.9142 -25.1488 -23.3912 37 66 32
33.126 -25.8006 -25.6108 61 77 17
-6.16263 36.2943 -12.5959 74 71 13
24.0082 -26.5787 6.71091 85 99 40
-0.309078 44.5527 -5.79092 84 98 91
-4.03877 -26.3024 12.9178 89 112 44
-7.01834 -0.469849 13.2306 72 45 20
-20.6689 18.5916 11.9539 69 75 36
-26.2661 26.1221 25.2344 52 79 88
-16.4723 5.78826 7.32423 66 37 14
-0.0562267 25.2586 -19.7729 69 63 14
-11.2275 33.6676 -14.0617 72 67 18
30.8219 13.0212 -1.49813 74 74 8
-2.92787 0.0556793 13.2197 71 45 20
-8.61751 -25.4256 -17.8957 40 57 14
-24.0977 21.3267 15.1131 93 122 125
-5.0513 37.7318 -11.7745 70 66 13
24.9175 -26.4846 11.0028 84 108 21
-16.2143 22.6693 -13.7036 63 32 4
-20.6741 17.9418 -24.3762 65 67 27
-16.2104 22.2162 11.3508 83 81 4
-10.5193 1.11687 13.3535 78 50 24
32.8415 -26.1211 -0.229927 51 59 15
18.7936 -26.604 14.2308 92 115 27
-14.5625 -3.74518 11.7453 76 88 82
-15.8769 35.1069 -13.5104 78 78 1
12.5882 34.9931 -12.7043 72 67 1
2.48777 -20.4483 12.7139 53 39 24
-3.02643 -6.60347 12.3602 2 1 1
-19.2848 17.0941 -24.8547 93 88 8
-26.1429 -25.1877 -12.7812 44 74 28
-24.4849 14.9753 42.6491 30 51 33
15.7556 -11.5634 4.45307 39 46 37
-11.307 -25.1416 -18.3579 23 32 19
-2.67861 34.3834 2.95687 73 69 0
4.655 37.2447 -11.8843 73 71 4
-0.750021 16.332 -27.1879 68 61 12
4.73441 35.4358 1.72608 76 68 4
-14.3728 -24.6385 4.29403 13 16 9
-2.83225 40.451 -10.2622 72 60 13
1.05447 -9.81637 -24.7608 73 70 58
39.5422 -26.3547 -3.42776 62 79 0
-6.39509 11.2717 16.2256 98 84 12
-22.7329 -25.1563 -17.9099 32 66 21
-5.62554 40.0589 -10.4925 70 66 14
15.2274 -0.864395 7.11386 78 67 3
-16.3932 -19.7655 -20.9533 55 38 20
-0.896666 -5.06522 12.9944 19 4 2
-12.4479 -11.6342 -1.79356 27 8 4
-16.6239 -0.024334 -11.6146 74 47 26
-15.9647 20.8306 -24.3368 83 85 0
13.4144 36.9397 -9.33622 82 59 2
4.44617 30.8601 4.14432 74 76 0
-16.2164 18.9388 1.71601 70 41 4
-16.2108 26.8738 -11.6549 41 17 5
20.8313 -26.6165 15.6491 93 114 28
-10.558 -24.9037 12.7056 55 39 13
6.37013 40.1217 -10.3165 78 68 2
-12.6382 -12.0033 -13.0052 39 25 6
31.9506 -26.1473 -3.23362 65 79 12
-8.1369 17.8631 14.162 77 67 3
-3.69951 1.88996 -27.2669 64 49 46
-1.45661 -26.4258 13.4493 80 101 33
-16.6634 0.671673 -14.3661 69 39 15
-16.6091 2.64412 -12.904 69 40 15
22.3554 7.1333 1.95723 71 69 0
-16.4571 7.73726 6.14089 65 38 12
-1.46699 27.915 -17.5145 64 62 13
-11.3452 -18.4083 -14.9178 43 26 0
34.0089 -26.0942 -5.69981 58 74 4
-12.6466 -10.9549 -11.2379 38 18 6
-25.5963 -3.71737 15.786 54 81 89
-14.5826 16.1984 -27.7987 66 60 14
-31.1632 -26.8236 -26.6212 70 84 75
20.429 4.94324 3.47109 74 70 1
-16.5149 1.49676 -0.474007 68 41 12
33.9745 -16.6301 12.8698 84 81 53
-8.41522 -21.8713 -1.6328 17 22 8
-26.0273 10.9208 27.8658 44 70 74
19.7286 9.48068 0.657543 71 70 10
-7.46336 -24.8925 -1.22765 10 14 1
2.97729 -25.2803 12.4781 60 54 32
-21.5139 -25.8704 12.9378 84 111 47
-18.1094 38.0515 -0.424231 87 84 7
-25.7711 3.9429 19.943 51 73 81
-13.3125 42.7453 -8.92589 72 70 12
-18.6382 33.2816 2.55498 82 77 2
33.4529 -21.4124 6.24894 71 73 48
5.88945 19.2129 -24.4939 72 65 14
28.3612 -24.7517 -24.7331 42 44 16
5.83453 16.9964 13.9689 72 64 2
25.6326 -25.4999 5.84126 61 45 27
-24.5382 22.0244 30.4087 112 134 135
12.5453 18.8147 -24.516 75 65 20
24.7429 -25.0254 -21.0338 17 34 20
29.2949 -26.161 -2.69097 70 80 25
-25.9061 -8.12068 13.1335 54 77 77
-9.99356 -17.1632 -11.3493 42 24 2
2.50935 -26.2904 12.3402 53 43 25
31.3172 -26.5968 11.6341 84 95 22
-23.9533 15.9435 16.546 79 114 117
-26.1938 12.6781 38.8745 13 40 12
33.0653 -26.2603 3.23309 75 70 16
4.62411 16.2933 14.5345 69 58 2
24.3418 -25.4432 -20.5522 33 34 17
-16.0163 38.6751 -4.17456 32 9 2
18.3375 9.72742 0.50119 72 76 6
-5.62253 -1.3465 13.1228 73 45 18
1.63915 24.4442 -20.354 68 62 13
21.5487 4.52147 3.72432 74 66 0
-24.9921 6.58015 13.6332 111 133 123
-0.471521 29.8732 4.85611 77 74 4
-24.3143 19.1632 31.079 60 90 95
-26.1533 18.3089 18.8195 36 63 60
1.02516 -6.12462 13.0009 4 0 3
25.2806 13.9695 -2.01762 78 74 11
1.80476 33.4628 -14.0141 68 61 15
-30.4428 -25.0681 -18.6281 29 66 15
-7.84882 -21.1385 10.3146 30 40 18
18.9133 -25.6605 5.60933 36 42 21
-20.0063 -24.1473 6.94331 19 22 14
12.4084 -21.2934 2.29559 40 48 18
-12.4645 36.2011 2.57142 69 76 0
35.623 -26.2643 -0.667854 66 78 9
8.19186 24.1213 -23.671 69 76 67
-22.8145 -25.178 -16.3397 50 73 30
-26.0611 -20.4218 9.61535 43 33 12
-8.56861 -18.0911 11.6931 75 86 75
-20.6505 42.8931 -8.38779 66 67 38
34.9548 -26.2312 -0.715794 66 78 13
-16.4107 -1.72549 -3.38355 72 46 19
-7.11697 11.4071 16.1447 98 83 3
15.7699 10.1136 0.221939 74 74 4
21.9351 -17.1841 5.62857 70 49 27
33.2397 7.98378 1.34797 77 78 20
9.20918 15.1173 15.0883 70 66 0
-26.3748 -26.0023 12.8692 67 90 25
34.4232 -26.0679 -12.8774 75 89 27
7.39091 -3.43233 11.7298 78 93 85
-31.2545 -26.8692 10.9442 58 78 61
-16.384 -2.48282 7.14499 65 36 11
30.0216 -25.7758 -28.6336 64 83 29
8.39474 26.527 8.0612 82 89 70
13.4396 -24.6968 -26.5473 42 48 24
33.0176 -25.6146 0.572266 55 58 26
-16.5104 5.24018 1.68278 68 38 11
27.9821 1.2893 6.12914 69 74 56
-16.3119 13.9696 -14.5221 61 39 19
-15.2965 24.7045 -8.79982 78 85 76
-25.9549 7.4708 28.7705 48 72 79
-14.2021 35.8529 3.12438 100 100 31
-16.7124 28.5727 -15.2694 34 28 1
-19.7338 38.66 -9.07087 97 80 0
29.1833 9.38879 0.625305 72 68 3
-8.21032 31.4668 -15.2118 71 69 15
-10.8954 22.4631 11.0472 74 75 0
-13.3949 -12.0892 4.36698 20 11 11
-25.431 -4.73433 20.5732 65 86 87
-16.2686 16.9483 -12.7619 52 41 5
-7.89425 22.936 10.6231 73 70 0
-26.1115 22.2686 15.8787 49 69 66
-3.9774 -18.7556 9.51426 5 3 1
-8.48136 -25.4858 -11.1368 44 63 18
34.089 -8.52831 -22.8836 64 75 73
18.5417 6.25456 2.57261 76 63 1
-14.5521 -7.29714 -16.4499 63 67 66
2.38548 30.5065 4.45577 75 65 3
-16.6469 31.7177 3.34996 71 66 0
12.4863 15.5117 14.5781 73 60 3
-13.1469 15.5244 -28.2971 69 58 12
-24.0224 -9.36164 13.6754 78 104 99
13.8404 20.9052 -22.5422 74 75 37
-11.3792 -25.6337 -25.1872 53 39 25
-24.0118 -14.0654 11.8677 74 104 87
-26.6012 -26.0308 15.8056 71 99 39
-26.3329 -25.3601 -4.90858 52 82 45
-16.481 -3.97952 -6.54925 76 51 23
-30.7656 -25.0024 -26.8328 33 64 34
-9.67898 14.7123 -28.8039 67 68 15
-29.9403 -25.9182 10.8513 47 77 31
-14.2435 -7.14254 5.00018 10 9 9
12.5506 9.81889 0.361343 76 69 7
-4.95463 -26.3842 15.0217 87 110 42
-2.72132 -7.50722 12.1226 0 1 1
-10.6692 -16.8948 -1.32811 17 19 5
1.33821 -5.58935 13.0856 19 9 3
-0.178726 -20.56 10.1275 3 0 0
-11.378 -11.0819 13.0212 78 48 22
-12.2976 24.9726 -20.4284 68 60 16
-16.4482 6.53851 8.63636 68 46 21
-24.8878 -17.2644 4.83114 92 108 93
13.2217 21.3411 -22.283 70 69 28
11.6037 -26.7372 16.7407 72 92 16
-16.2874 8.7005 -16.9321 75 54 34
-19.0659 45.7954 -3.48302 68 77 66
-15.9915 41.4112 -4.73792 45 28 4
-15.9994 29.0362 -2.4602 47 30 11
-15.1653 22.1221 -24.9322 73 76 67
