ply
format ascii 1.0
comment Created by Open3D
element vertex 1402
property double x
property double y
property double z
property uchar red
property uchar green
property uchar blue
end_header
-19.7127 -13.641 -7.13311 85 102 101
-22.8754 -9.02994 2.11927 26 29 33
-0.00954437 19.5608 11.9024 81 78 52
25.1597 17.0009 7.48664 30 34 38
35.7876 -14.9966 -5.41413 84 96 98
-15.9146 -3.8728 11.0053 27 31 33
-14.1811 -15.2668 9.71614 42 46 50
0.43811 -20.5701 7.95899 50 53 42
32.4784 2.21425 -1.31818 2 0 3
-23.8762 -12.8925 8.34692 48 54 58
28.7861 2.78463 -9.6403 25 29 32
-7.97413 18.5002 -7.1053 63 81 88
-43.5906 -17.1746 -2.47519 73 83 87
-3.13426 25.2611 4.77482 49 53 57
10.5482 5.18388 9.70194 42 47 51
13.7879 4.8626 -9.91738 51 58 61
4.65456 1.95561 9.8635 52 57 60
-8.1645 16.8386 8.10444 43 47 43
37.8631 -1.69637 0.215145 12 16 22
-13.0516 -1.94547 11.3379 26 30 33
8.9752 30.2008 -3.7554 71 78 89
-26.8919 13.6746 -1.16762 56 63 66
17.4149 10.423 -9.05182 6 12 18
9.85336 10.9705 12.509 47 51 55
30.2558 14.2606 3.53264 40 44 47
25.759 -8.56157 -7.52151 160 169 104
-16.6213 16.7183 -2.98447 65 74 78
-43.8642 11.3505 -1.09605 44 51 55
36.0895 -5.85136 3.77745 10 14 21
-0.0599256 2.25133 -6.63416 57 57 70
10.8925 23.4415 4.86753 31 39 41
30.8265 -7.27079 6.86845 58 59 46
7.6074 14.4638 8.69699 21 23 26
32.1145 12.2084 3.61479 32 35 40
8.66632 -0.992113 10.943 73 73 49
9.80935 14.1075 -5.20908 11 12 22
-15.4858 -11.2921 8.48262 39 43 48
10.8764 14.7836 1.53994 3 0 3
-9.1087 -12.1109 10.6583 38 40 30
-39.3036 12.1003 -0.434618 78 86 91
-37.0036 12.9676 0.548912 49 56 60
40.0822 -10.0499 2.94456 2 0 7
-36.7465 12.2178 4.16782 45 50 53
39.3322 -4.34068 3.34731 45 50 53
22.9146 -1.31509 -11.3034 78 84 91
6.81641 15.7391 7.34671 16 10 19
18.0882 10.4371 -5.62463 3 0 3
-2.07315 25.886 3.08059 42 46 50
16.2385 4.67907 10.6732 64 67 43
-8.39992 -22.6017 9.08653 30 33 37
-2.0928 3.49872 -7.47314 11 7 14
44.6756 -9.48417 1.55472 33 38 40
17.34 20.5572 5.3942 32 37 37
23.7982 5.07551 10.4034 37 43 45
-20.432 6.47345 8.24588 39 44 47
-16.9111 -13.7223 8.87606 32 37 39
37.0208 -15.6806 -6.11136 74 86 90
10.7382 16.7757 -2.14479 41 50 51
13.6364 3.24384 -10.4039 168 170 85
-30.8526 11.6371 8.30738 45 52 55
14.7749 26.538 1.56457 32 33 35
14.3255 26.7347 -0.912817 16 17 18
-19.8889 -15.5628 8.60321 44 47 27
-37.1909 -13.5848 -2.84602 19 24 25
-38.9959 -13.6227 5.56291 35 34 39
-41.474 -17.8319 0.353661 48 59 66
32.7279 -7.45477 5.75445 24 28 32
20.3072 18.5319 -8.81221 69 72 65
14.2065 26.1991 -2.44694 21 22 29
22.1669 10.1117 -7.78333 29 41 41
32.3203 0.526535 -5.09825 67 75 85
16.2317 4.72807 -10.305 54 66 70
25.2888 14.0681 9.83956 45 50 53
-19.5672 1.5959 2.30759 19 19 21
-44.2896 -9.75119 1.75551 40 43 43
17.6178 9.99567 -10.0977 15 15 21
-11.8864 -21.9107 8.46262 17 19 24
-16.6483 8.98715 11.405 46 52 56
-15.8825 17.3762 3.58303 41 49 51
4.39228 20.9464 7.97962 16 17 25
-21.4716 14.1286 -3.19915 64 70 71
40.6588 -12.5339 2.14846 28 34 37
15.6982 -5.97706 -11.3318 176 176 93
38.1601 -8.37854 3.97841 8 8 11
10.8943 17.7145 0.567804 57 60 55
-30.3521 -9.49976 6.66854 43 46 50
-36.6364 -14.4442 -6.04236 94 105 100
-11.4406 2.08065 10.342 30 29 38
4.53905 20.793 7.2196 5 6 12
-16.882 -5.625 13.8049 51 56 50
11.8104 -3.14266 -11.2439 125 128 91
-23.4389 3.2687 5.77515 28 31 34
-17.0688 13.2555 9.82971 38 43 47
-4.64929 24.0121 7.43216 50 61 62
-20.6644 -6.89159 8.95025 46 48 53
21.4916 10.1022 -7.43576 22 37 37
13.4861 4.68571 10.2265 48 54 55
13.9433 3.67193 -10.3306 137 147 80
29.0833 12.9052 -8.68439 67 74 82
17.7695 20.8719 3.22006 49 51 54
11.1607 29.2891 -3.52285 33 29 42
19.3719 19.5526 6.46935 44 47 50
11.3579 11.52 -6.01679 17 10 24
44.959 -14.6997 2.54618 41 45 50
32.7916 8.39902 4.76523 40 44 48
-19.2315 7.32133 7.94818 27 30 33
38.8673 -18.525 -5.21886 83 91 94
6.27888 5.50017 7.72404 23 26 29
-40.8126 10.358 -4.74741 111 121 68
-38.276 -22.7766 3.36858 33 38 39
11.6917 11.7281 -5.36678 3 8 25
-37.1514 -12.6068 -2.83877 18 26 23
-17.5893 -14.736 -8.16646 62 79 79
-38.7659 -3.57181 -1.24788 8 12 22
-38.4216 11.8755 -3.44112 54 60 61
39.7979 -7.09151 3.02216 1 1 2
-26.1258 7.57549 -8.84882 55 64 82
-40.4281 -22.9603 2.7051 42 42 44
10.9038 -22.3927 -8.02618 93 100 98
-3.35568 16.2539 9.25067 48 49 56
14.7597 26.3024 1.19915 29 33 34
14.5278 26.9513 2.31331 28 29 35
11.3773 30.3259 3.19568 27 32 38
-16.4426 -3.88541 -9.01773 41 48 45
22.2197 9.12791 -9.46441 18 30 29
-38.8757 -17.2726 3.11983 14 22 25
-32.8075 -10.5582 6.67435 38 38 44
-10.0111 -11.7087 13.9234 58 58 43
-18.9235 12.7653 -8.20738 88 103 106
-24.3746 9.76217 8.16546 34 38 42
13.923 4.68813 -10.0181 63 74 78
17.6319 20.8065 -3.0484 41 50 55
16.8781 20.2489 6.52191 37 41 44
7.61985 10.3734 -12.3918 85 87 98
-14.8004 -2.78214 -9.6362 36 46 40
43.812 -6.58019 -0.171062 34 41 46
9.52871 21.1033 4.66335 28 33 36
-7.64144 20.1396 -6.95037 75 85 88
11.9295 20.923 -1.24317 17 14 25
26.3838 13.4299 9.79717 39 44 50
11.6573 11.2382 -7.07799 19 24 29
9.94281 17.1222 2.07099 0 1 5
26.4512 -7.90623 6.45321 46 50 46
5.06261 11.865 -12.1946 66 76 87
17.0416 -15.5919 -6.3277 61 68 75
-38.2129 -14.6979 6.73069 38 45 48
-5.5454 3.02339 13.4003 47 52 54
-18.6329 -5.71147 -8.23968 35 40 39
13.6049 25.0435 -3.02162 39 33 45
-4.87673 23.1754 8.31483 56 61 66
-43.3167 9.5826 -4.80321 174 182 75
-44.9545 6.73485 5.16125 37 47 49
31.585 10.5083 -6.50041 100 93 82
12.2124 25.8912 5.35378 19 23 26
-2.51438 4.06255 -8.77314 6 7 12
10.2199 13.6449 -5.3513 16 11 25
44.7827 -9.2114 1.32897 35 42 43
-32.0023 -14.5092 -6.10696 179 183 86
10.2861 27.0083 -5.07664 111 114 107
-17.2829 -4.42694 -1.98645 25 31 32
8.66278 9.45171 -12.466 75 86 94
-30.7581 12.1423 6.64695 38 45 48
31.9237 -5.75047 5.6823 21 24 27
4.73174 20.1821 -6.18713 6 1 16
-22.1828 -7.68294 4.94223 0 0 0
-33.9818 -7.58215 5.82566 19 22 28
15.3966 -0.538033 11.3016 66 67 36
9.7486 29.8896 -3.8488 69 74 84
-13.4635 -8.86979 -13.5607 216 207 121
44.8774 -8.85564 1.16707 38 43 45
19.4911 17.2051 -9.61286 104 122 108
31.2331 -8.63693 6.5347 39 38 42
27.9501 -4.56461 -7.51873 139 145 128
4.3689 22.8275 6.52401 5 4 14
21.6991 10.0424 -7.70151 30 35 37
-14.6766 8.36134 -10.8847 83 95 81
-32.3712 -7.11592 2.15547 39 38 45
21.1498 19.8029 -2.84727 43 50 50
-30.0271 2.39141 1.89715 23 26 22
-12.3615 18.5258 6.6408 51 51 56
-23.0154 -4.70287 4.0126 5 3 2
44.2032 -15.3302 3.21243 42 47 49
-24.4225 -6.6164 4.00388 33 40 37
33.4242 -19.4577 -6.23874 103 116 121
-15.1946 -24.0326 8.07322 52 57 61
-36.3271 11.7848 -5.03596 55 68 70
34.9785 -2.38689 3.36826 39 45 48
-20.1463 15.187 4.57613 41 47 50
34.1361 8.644 -3.13355 85 82 85
-7.76181 23.0901 3.92349 47 52 56
-22.6771 11.0061 -3.11665 31 39 41
-34.4364 11.6095 7.7506 41 45 49
-35.2768 -9.61469 6.6909 56 62 65
-8.62716 22.6686 3.0978 46 50 55
-1.24908 26.2683 1.97385 46 50 54
-29.7228 -14.5367 -6.79572 167 167 92
-40.4002 7.03292 7.13855 21 23 28
-17.9629 16.0783 4.86969 38 44 47
9.45163 29.2964 5.56658 32 38 42
27.3194 -1.57781 6.47781 46 50 52
-37.2071 8.96448 -5.62117 168 174 66
-30.4767 -6.88517 3.45428 13 25 33
22.2132 -3.32295 -10.7334 40 42 47
18.7201 19.2888 8.04012 37 41 45
37.8059 -3.92401 -3.44829 87 96 108
4.26411 23.7747 -5.36993 60 60 53
34.6959 1.42794 -3.4712 45 52 57
-25.9295 -8.08418 -0.0794449 10 10 13
8.16769 -3.82735 11.2503 78 76 49
-34.688 12.0131 -4.85215 52 60 62
-37.4772 11.9599 6.61506 50 55 58
15.5179 10.6934 -8.44147 21 22 24
27.4972 -9.91431 -6.74981 48 49 34
-24.3096 7.73983 10.1349 48 53 58
11.5371 1.02605 -10.6961 52 63 55
31.4512 -18.7224 -6.19903 98 114 120
-6.44091 -14.6375 -9.13815 157 150 60
-16.9004 -20.3902 8.45047 42 47 50
-10.9336 -4.06309 14.4699 73 78 45
-8.87369 22.535 2.81652 43 48 52
-4.30528 24.4245 6.66481 51 57 60
5.46165 24.3566 -5.49516 58 65 64
45.0422 -10.0408 -0.833025 62 66 73
-9.42212 -11.7889 12.3954 58 57 36
1.36044 23.0458 10.3621 46 53 57
-26.6048 -22.9352 0.86274 18 30 28
-17.8386 -13.7857 -7.66242 54 77 70
-10.6881 -22.159 8.90511 2 2 3
-15.1776 -9.97319 13.2935 55 56 37
7.97882 14.0676 8.61204 13 11 16
2.03873 9.91954 -8.24582 29 40 37
-20.5195 -9.0178 5.90889 20 24 26
29.0429 14.4688 -5.86452 44 49 56
6.00431 16.4095 -8.03379 15 12 22
-10.6866 0.113525 9.65644 17 19 20
30.7798 -1.16717 6.16251 31 34 37
29.3877 3.27581 -9.12357 16 20 25
14.3678 13.777 -4.16467 39 50 56
4.69665 21.766 6.20221 3 0 1
-3.47351 24.1716 -7.74741 99 104 111
-39.2012 -14.3717 4.6973 0 1 1
20.644 -8.43228 8.24755 19 22 29
25.9163 16.8607 5.72577 42 45 48
44.2576 -19.3865 -0.629177 52 59 67
-7.1155 0.0572128 13.6931 43 50 53
3.89482 17.4478 -10.7979 50 54 56
-10.6172 -11.4295 -13.1468 112 108 64
21.912 19.7082 -0.831989 29 34 37
13.0502 25.906 4.65755 24 28 32
-22.8976 -6.08918 4.6065 0 0 0
-41.1821 -16.2027 3.44699 5 8 14
19.689 0.233131 -11.2573 62 70 72
-1.60349 25.0234 8.58113 57 64 68
-11.1734 -24.6612 9.24177 41 45 44
-21.2858 2.58249 6.17144 45 49 54
-10.717 12.0114 -6.57065 28 34 39
-16.6407 6.79063 10.8162 45 51 54
-36.4525 12.0226 -4.21329 46 55 57
-22.241 12.4451 4.87868 44 47 49
7.17935 15.2932 -6.58225 21 29 31
-13.0413 -2.15144 11.843 25 30 31
-12.8923 -0.815954 6.5584 7 11 15
12.9325 29.165 2.12838 24 29 32
15.711 10.7016 -8.73328 23 30 32
4.18676 29.933 3.16212 54 61 65
-19.9386 0.482899 2.21075 26 31 34
18.9107 16.3773 -9.64937 84 101 93
-16.3157 -4.16479 11.1774 32 37 38
-30.7816 13.7549 2.09685 42 50 52
25.9142 15.7886 8.94208 37 46 48
-2.20281 24.2592 9.43097 58 64 70
21.4237 -5.21409 -10.2462 28 31 39
42.6341 -6.93265 -2.86868 84 95 97
31.4882 6.89094 6.55062 37 42 44
-20.7576 10.1812 8.56969 41 43 48
-46.5908 7.46428 -0.912323 69 70 70
-42.632 -16.5781 3.89815 45 50 53
-17.6311 3.43082 6.42773 40 44 48
-4.91659 5.72194 11.6802 38 43 47
11.5977 15.0516 0.990736 33 38 40
-18.1133 14.5511 -6.94091 54 65 66
-12.0813 1.02894 6.10844 28 33 32
11.4659 27.8518 5.49704 18 19 23
-6.54014 23.0579 6.97618 49 54 57
11.6951 3.08601 10.4424 57 62 63
22.9433 8.55 10.4684 64 67 72
-39.2628 -3.76649 -1.28775 13 16 23
-10.9283 12.1943 -6.36914 48 57 62
-10.2657 -22.7612 9.2636 36 38 40
-18.856 15.8711 -3.63067 56 65 67
-20.8956 -5.51884 8.21441 40 45 49
25.5045 9.7337 9.52371 30 35 38
-22.9519 -7.7931 4.62955 0 0 0
-34.4597 -21.6065 0.95871 38 39 42
14.077 5.26955 -9.83559 65 72 77
-21.2077 -9.18055 7.82307 22 26 27
6.43815 10.3223 -12.3325 80 90 97
-5.92018 13.124 -7.06187 25 37 42
21.8821 -5.31113 -7.87726 6 5 13
37.9966 -18.055 -6.28372 89 104 107
0.861832 26.7685 -1.85477 71 80 84
27.496 1.5771 -6.31276 1 2 10
21.9546 10.1897 -7.52594 19 31 31
-37.9369 -18.0121 3.91154 0 0 7
-11.3622 -14.4898 8.28388 19 20 24
2.73081 26.1132 -4.49926 86 87 100
30.0787 5.25563 -9.28062 43 52 55
-24.9095 -6.13147 2.52895 14 18 25
-1.22838 10.9933 7.52764 44 51 54
-0.407509 22.4266 -10.1367 119 126 107
-10.436 7.11774 12.7719 75 72 50
-7.21748 22.1488 7.41238 48 50 55
-2.16891 25.0267 8.07982 50 54 59
12.2346 21.9609 2.83367 21 28 30
44.9466 -18.8146 0.576513 33 36 41
-36.9081 -3.40963 3.91981 44 48 49
6.86314 18.207 5.19433 4 2 7
-21.5276 -6.33911 6.57824 29 34 38
-7.09969 23.5948 -0.939818 45 50 54
31.8938 9.1735 -6.6501 26 25 31
-18.7035 -18.8899 -7.40199 46 53 55
-33.2903 12.1045 6.92025 43 47 51
-3.34924 22.3985 -9.03697 75 85 95
8.87321 16.1388 -4.1635 34 34 35
-40.9767 10.9463 -3.97622 67 75 56
-46.115 7.44881 0.171127 22 23 28
-19.945 -11.5501 8.66696 59 60 43
-36.2559 -8.23629 3.52586 42 44 49
22.4387 10.3888 -7.39881 23 35 34
-10.8116 -12.6778 -12.8699 67 66 40
-22.4103 11.6769 5.04467 30 35 36
29.9193 -1.52721 -6.8272 113 122 134
-8.82578 -16.223 9.72668 43 47 49
7.76297 26.8302 -5.53267 67 74 74
-24.0696 10.5573 2.52335 34 37 42
-16.0399 -15.4439 -8.41103 63 72 79
-40.5568 -4.96543 2.96892 24 29 34
-15.5489 6.89532 -10.4762 67 76 79
4.21613 27.8157 -4.40963 79 91 96
-6.7334 14.5941 8.18983 64 69 45
-22.6748 12.4696 -1.30887 40 46 48
37.7092 1.42383 1.30618 30 34 38
14.4572 0.221352 -11.1262 131 134 88
14.1944 13.0414 -4.30938 62 68 72
-9.53477 15.2314 -6.60266 39 39 53
9.57317 28.6388 -4.83186 27 35 41
28.9009 6.95025 -9.15238 56 64 67
26.0587 -10.9848 -7.32376 148 153 92
-26.3402 11.167 -6.13452 33 37 39
-23.9317 -5.20986 4.33427 0 0 0
-45.5229 7.28992 5.02395 47 56 58
-38.103 -17.0366 5.51752 35 37 42
-42.4755 -17.1326 0.191288 52 58 63
23.555 -5.37496 -7.05477 0 1 2
-32.2868 -18.7953 9.01432 70 68 43
11.8246 11.9976 -5.17109 9 10 29
-44.3898 -18.6638 0.0274963 61 65 70
14.3332 27.087 -0.309402 23 22 30
-17.0509 -0.257744 6.1186 23 21 22
10.0927 12.0671 -7.63758 17 10 19
-19.5647 -16.7122 -7.57666 52 58 60
-28.9561 -24.2334 1.67688 13 17 19
-17.1635 15.5422 -5.56427 42 59 60
-15.6048 -26.5584 7.59255 49 54 57
24.0269 17.3936 8.4943 41 45 48
-21.41 6.29915 -7.1363 43 54 58
31.4146 6.58529 6.32774 33 36 39
-27.634 11.9609 -5.08072 46 55 55
-11.7064 -23.2071 8.96894 1 0 0
31.3961 11.2049 6.54077 32 36 34
22.8559 10.0683 -8.10708 46 55 60
19.9984 16.9327 9.83912 47 52 59
-30.7203 -10.893 8.11217 23 29 32
25.2566 2.41361 -11.5977 92 110 118
-9.88342 -13.4254 -9.00988 35 43 47
-25.5529 11.239 4.48372 28 32 36
43.4927 -14.9608 -3.42577 97 112 121
11.1343 -4.0959 -11.2539 134 141 97
-22.3667 13.3284 -0.393231 42 45 50
30.8728 2.21866 -0.941383 2 2 3
-22.6512 -6.36626 4.71104 0 0 0
-13.1187 3.02014 9.35736 26 30 30
-20.4961 -11.1629 8.77813 67 68 35
-25.4622 -3.69253 3.64165 2 2 0
-44.4219 7.34715 6.29324 55 60 62
6.39845 16.8498 6.27811 7 9 16
-36.7798 -16.0634 -4.07475 45 50 51
-1.05392 0.690193 11.611 55 58 34
-33.3601 -11.7168 -4.73056 139 141 55
24.4374 4.81492 10.5182 44 49 53
37.1639 -3.00507 3.33026 38 42 46
12.159 -18.8164 -5.96391 11 16 27
-21.0292 -2.92037 4.99461 30 33 36
-10.6232 -7.58371 10.8401 31 34 34
-4.04423 13.485 -7.42682 67 70 78
-22.6483 -9.43367 7.76133 26 33 33
3.78096 25.2869 6.09958 40 44 49
14.4617 12.703 -4.436 80 98 101
17.2061 9.52098 -11.6168 39 50 55
3.10843 15.9977 12.3574 49 55 61
-16.1537 5.62445 10.0415 39 42 46
25.1332 17.9762 -1.01008 32 35 40
-22.9125 -4.27556 3.62233 8 9 10
-42.1754 -6.96212 -1.59719 37 34 40
-6.98745 23.1921 -5.08086 61 67 73
15.9022 2.38896 -10.8963 186 178 83
-8.66276 7.8776 -11.061 56 68 71
21.4091 6.40976 10.266 46 52 55
-43.7675 -13.2797 3.80884 55 59 63
-30.7727 11.7381 -6.2081 61 71 74
-7.42365 16.2943 -7.31125 111 119 67
15.4562 9.60653 -12.459 47 56 56
26.872 0.929909 7.41815 26 29 32
-8.5062 13.013 7.73799 43 46 47
16.6805 3.85514 -10.6034 173 173 93
-29.5299 7.07484 9.62357 54 59 63
-20.2901 -9.99576 8.63138 42 47 47
27.4159 1.44147 -5.61973 4 0 8
1.58064 24.9687 -5.3416 27 36 40
24 -2.14316 -8.3548 19 13 19
18.728 20.4169 -4.34129 53 59 62
-42.7236 7.82816 7.2527 60 64 66
-41.5368 9.93846 7.26169 56 61 62
17.6939 0.169907 11.0024 68 68 36
-22.3399 12.1808 -4.06164 58 65 70
-23.2978 -7.77039 4.29308 29 30 40
21.431 18.0073 -8.95527 90 95 101
-5.80932 23.4433 7.13342 53 57 62
44.7859 -13.3348 2.98773 42 48 54
-14.1235 -11.4097 8.50993 26 31 33
-6.21172 4.4832 13.1638 49 55 58
-19.0262 7.05715 7.79463 31 33 37
-29.1657 13.0987 -1.91187 58 67 71
-18.2475 7.0762 9.30394 40 44 48
12.5538 10.4003 -11.0764 39 42 47
30.2658 7.41143 -8.41778 54 63 70
22.4187 10.2703 -7.61257 32 44 44
-19.8692 7.8412 7.83178 24 24 27
-11.2268 17.2076 7.44921 46 52 55
23.7229 -2.28286 9.67435 45 50 52
-19.2148 14.8835 7.01154 37 42 47
34.1333 -10.1566 5.19366 31 36 39
-38.8995 8.99731 7.69697 76 79 52
-24.6767 -9.80502 4.50217 10 11 23
-24.744 10.6763 -2.8698 45 36 41
15.8844 9.6823 12.6036 60 62 68
18.249 19.9057 6.45901 41 45 48
-29.7256 12.2359 5.69755 36 42 46
-21.9059 -7.94475 5.01938 0 0 0
-20.3978 -9.00776 6.37192 15 20 23
-17.5424 16.4468 -1.15791 46 52 56
32.4922 12.3138 -0.508331 10 12 15
-9.43233 7.68871 -11.4289 113 122 62
-34.7396 -9.2673 -3.67176 47 63 62
-12.5554 20.0592 -1.79549 54 60 63
-15.8756 -9.37746 13.9067 57 58 40
21.3176 -6.29294 -9.02036 8 7 13
43.4682 -7.31863 2.37426 39 43 47
-31.4335 12.1196 -4.29173 50 55 59
-37.9795 12.0535 5.18414 51 56 59
5.35484 30.2736 -2.5518 73 81 88
-25.3407 10.4516 7.94313 24 28 32
6.46878 17.592 5.88904 0 0 5
45.2928 -9.57615 -0.0513229 42 45 47
43.4375 -8.2852 -2.82214 68 74 81
29.0931 15.1675 3.78362 35 39 43
-43.8971 -10.4329 -1.99155 50 59 61
-0.867226 20.2002 -10.6834 89 97 83
-2.69263 24.0356 -8.4063 88 99 108
-35.1358 12.5801 3.53385 46 52 55
-40.4593 -22.4126 3.37114 46 49 52
-25.2393 10.8148 -4.79432 29 36 37
0.154114 24.7032 9.15851 46 52 56
-9.25114 9.10971 -10.1898 32 44 49
6.46889 15.6391 -8.07525 14 19 22
-35.0633 -20.226 3.14404 4 8 9
17.8744 -17.6602 -4.36133 18 21 28
6.56542 12.4679 -12.0164 80 92 99
-36.1557 -9.06789 6.7414 43 50 52
32.9375 -5.56077 4.01803 21 24 26
-0.820221 12.5287 7.93397 45 51 54
35.1231 1.82611 -2.45128 26 26 31
-27.0896 14.2622 1.14722 42 45 48
-22.5129 12.8243 -1.64049 41 48 50
-20.0156 0.890743 5.16063 28 32 35
-46.6344 8.1226 2.74902 45 52 54
37.656 1.51019 -1.17812 28 30 33
27.6096 -13.7361 -7.23442 143 156 102
23.3107 15.6474 -9.59011 98 111 114
-1.02121 25.7551 6.45143 48 53 58
-22.9812 -6.55584 4.66943 0 0 0
-12.3269 10.0364 -10.5091 103 110 69
19.3199 -4.31688 11.1974 72 74 46
-10.8672 6.62209 -11.7534 110 113 68
-25.7686 -5.4891 3.30548 4 3 11
-10.8931 -24.4585 9.35074 35 37 37
-26.5796 11.3519 8.77137 34 38 41
-33.3353 9.94176 9.13924 48 54 59
35.294 -1.20164 0.782598 9 8 17
8.46327 -22.98 -7.89477 86 100 97
-24.2274 -8.75166 -4.2169 29 38 37
33.91 9.98389 1.75542 23 27 30
14.3945 10.4279 -10.286 30 35 41
31.3419 13.6405 1.3186 22 26 28
-30.3355 -24.793 3.71366 37 42 46
0.341103 26.0415 -3.05315 35 40 44
-26.907 14.1257 0.245525 55 61 65
3.25882 23.1715 -5.1552 2 1 4
12.3124 30.0576 1.51873 23 27 31
22.7771 -3.80432 -7.97848 8 9 12
-10.1067 9.2695 -10.5043 51 60 63
16.0345 8.93774 13.4612 57 61 70
24.2669 9.00261 10.5385 50 56 59
0.830238 16.3828 11.9824 42 47 52
33.6977 -19.5152 4.92303 44 50 53
-19.9025 13.5981 8.07613 40 44 50
30.5682 -17.0715 -5.4317 50 59 66
-11.2514 -0.432005 11.3789 27 30 35
-7.21797 22.6304 6.90112 47 54 57
39.1262 -22.8152 0.971016 7 6 13
17.753 8.31934 -10.6476 32 36 39
29.6644 3.28538 -3.35334 14 14 18
38.3311 -23.0314 1.87463 5 0 14
-12.0774 14.088 7.36902 38 42 46
-10.3875 14.818 7.69042 84 81 40
-17.8523 15.622 6.53866 34 40 45
-15.7043 -9.74651 10.7264 38 42 46
9.75417 29.7254 5.11218 27 29 33
30.2037 2.32996 1.81398 6 5 15
-5.25874 24.4971 -1.69501 57 65 68
6.98487 14.4131 -9.6329 10 12 20
43.8229 -16.1412 3.23562 40 46 49
22.672 10.4235 -7.43967 34 41 43
-37.7248 -13.4335 6.7142 52 57 60
-11.6768 16.5882 7.40016 42 51 54
-27.832 13.8728 2.61108 46 52 55
-13.8852 -2.29737 -8.24387 38 45 44
-32.3316 12.165 -3.28164 42 48 51
6.60659 15.5707 -7.62036 20 22 25
20.4955 7.12568 -10.1383 102 112 118
-11.1448 21.0391 2.62102 53 57 61
20.762 -7.99585 8.52914 23 24 27
-1.77425 2.93786 -8.98478 18 17 21
-44.2334 11.4163 0.717155 46 51 53
12.8651 14.9893 -3.56045 91 92 93
4.89576 28.9008 -3.93877 86 92 103
45.3226 -17.593 -0.113712 58 66 72
-37.3467 9.98079 7.79392 60 63 55
5.697 11.7375 12.9257 42 47 51
-6.80066 -20.9618 7.94135 30 36 40
34.6743 -12.3433 5.29403 22 25 27
45.509 -10.3924 -0.0498581 45 46 50
14.5908 -4.34192 -11.0433 92 101 74
31.8881 12.8556 -1.94263 21 19 26
-1.21127 -24.3561 -7.66099 66 85 73
10.7388 16.9694 1.12133 58 60 59
-13.7842 3.90229 10.5321 32 36 45
21.479 19.9589 2.06062 36 39 44
16.4258 20.3159 3.38819 17 30 30
-1.03664 25.666 6.89933 49 54 57
31.7663 -7.30616 -7.387 92 101 106
-18.8847 7.86281 9.47338 43 47 51
5.99806 25.6608 -5.51506 24 34 31
-24.1058 -10.0428 0.581741 7 10 10
10.824 10.3387 -12.0204 53 66 72
-26.8117 12.3224 -3.17236 61 74 75
-14.2458 -15.6986 9.82494 40 44 47
-36.0166 -18.9943 5.30351 30 34 37
11.9465 13.0358 4.74211 15 19 24
-15.4177 14.387 8.65068 44 47 51
-19.8515 -16.0446 -7.09022 43 49 53
-23.8699 3.53373 5.5227 13 13 15
23.3475 10.4213 -7.78224 14 33 32
29.3038 -7.99077 -7.24936 147 155 78
10.0824 30.0633 -3.52219 68 74 81
-42.4012 9.60171 7.30266 48 55 60
-19.3541 -17.352 -7.36047 50 57 58
-35.3003 4.49065 4.93957 1 0 0
-0.166702 20.5942 11.7407 74 78 58
-43.02 -13.9871 -0.95013 28 31 34
25.9068 5.77591 -11.1355 56 62 68
16.5633 10.305 11.3519 56 61 62
39.7233 -19.0367 -3.99017 20 26 30
-15.1539 -4.87112 -13.0413 171 176 79
-17.013 16.6903 -0.744644 55 60 63
-40.3642 -7.68736 4.03629 41 45 51
11.3445 27.5251 5.76304 28 28 33
10.2732 27.4801 -5.07247 113 109 108
13.0513 27.4889 4.14196 21 32 34
-20.9951 11.694 -6.92523 79 92 96
-35.2039 -2.5804 3.73313 32 38 44
-36.2404 -11.8571 6.75632 30 36 40
44.8674 -19.0073 0.251566 32 36 39
8.17236 22.0764 -4.87242 47 61 69
5.89137 29.3844 -3.96008 86 94 99
33.599 1.94517 2.7144 34 40 43
17.9989 -0.855644 -10.8763 82 93 93
36.2297 -12.501 -6.00843 102 117 117
-9.34182 -3.19465 14.6558 54 58 50
7.84205 12.1223 -11.737 69 73 81
10.2667 5.55463 9.45567 37 41 43
27.4613 7.78966 -10.1943 87 98 106
2.76783 22.6056 9.50627 33 37 40
8.73966 14.9697 -5.2143 16 14 25
-42.1053 -21.4668 1.70052 41 49 52
-26.8895 -13.3446 8.36048 44 50 48
41.2297 -8.51385 -3.7585 18 8 36
11.0085 28.5906 -4.20453 27 29 42
25.7509 -0.817875 7.03328 34 42 40
-25.5589 -9.90307 5.77031 23 27 30
-3.36849 24.6688 7.58399 56 62 65
-24.1051 -10.8323 8.84082 46 50 50
-20.4546 -10.6829 8.75024 61 64 41
43.4191 -8.61816 -3.02886 70 74 76
-31.0119 -24.2939 2.00899 35 37 41
21.7298 19.7349 2.50514 31 34 38
25.7239 -1.13367 -7.30678 18 20 26
4.91058 -23.4999 7.99574 61 61 44
18.1267 -4.00829 11.2895 62 65 34
-14.8711 -1.45185 5.73151 7 13 23
-15.2109 -3.28724 9.88832 17 23 26
30.0805 -16.6555 -5.67329 29 34 39
-10.3298 -23.5233 -8.94254 78 87 94
33.2852 10.704 -2.9339 26 31 36
-6.81444 19.4085 8.4496 45 49 53
-0.733261 26.0566 4.70856 42 47 51
28.5376 5.1405 -10.676 88 98 97
43.3002 -12.3683 -3.27102 80 84 94
-3.78207 25.1334 3.79269 50 54 58
-23.3325 -11.2496 8.83366 67 69 49
-15.1879 18.0389 2.64824 44 49 52
-12.5203 15.3499 -6.12279 44 61 70
-23.0968 -9.43523 -0.359291 52 53 55
42.4893 -20.5172 3.15726 46 51 54
28.3944 14.7465 -6.66017 35 44 48
-34.9598 -19.8474 3.97142 13 9 10
-29.931 6.70346 8.90739 49 54 56
8.9837 13.1483 -7.16891 31 34 46
17.5354 10.6573 -5.47604 17 11 17
-3.455 23.1809 -8.60127 81 90 99
27.1437 15.6124 -7.31704 23 31 32
-4.31179 24.4893 -5.5554 58 64 69
-16.6653 16.9895 0.436197 52 57 60
39.4107 -8.66338 -4.17545 3 5 8
-6.21232 23.4856 -5.62318 78 84 92
-37.188 -2.49683 2.22977 23 29 40
-33.3317 13.3853 -0.123599 55 62 66
4.48949 24.5215 -5.3745 55 58 55
25.7722 11.7529 9.51158 33 37 39
-26.1185 8.50143 -8.74933 68 76 82
-17.0007 6.28459 9.89072 39 42 46
4.68084 19.3984 -8.21901 8 4 16
27.7707 12.957 9.50612 48 54 56
-15.0596 16.6225 -4.81847 106 116 122
29.9864 1.47802 -4.0541 19 19 30
-31.0553 13.0274 3.47707 41 48 51
28.4224 11.9113 -9.34421 81 87 94
-30.0725 -18.0343 9.09528 72 75 44
-46.1642 7.80623 4.86274 55 62 65
-36.0365 12.208 4.9389 41 44 48
7.07694 -0.793045 -10.4997 172 170 82
-5.58991 23.8526 -5.5517 65 66 74
-34.8428 4.45208 5.08807 1 1 1
28.9919 4.70741 10.3864 60 63 67
17.6879 10.3922 -6.78571 12 4 11
8.58865 -5.77879 -11.1333 145 148 93
-27.3953 -23.4237 0.918365 20 23 26
32.4616 0.0393867 5.15144 38 43 47
2.12251 -3.5787 10.8434 74 73 46
30.9181 -3.68758 5.47516 22 18 25
2.14714 28.5907 -1.13886 62 68 71
-27.1217 13.1626 4.0016 47 53 56
-23.561 2.96074 4.65627 9 8 11
-39.1643 12.5926 1.57229 42 46 50
24.8739 12.7386 9.58929 11 13 17
-3.34093 -21.8813 8.00165 51 57 59
-10.8232 -0.423851 -11.3372 46 53 57
9.49255 30.6595 -3.07398 77 79 90
29.9451 -16.6421 -5.87767 49 56 59
27.8246 -10.6253 -7.31021 254 255 184
19.132 -0.51737 11.141 65 65 41
-30.6972 5.0822 7.73001 0 0 3
32.0425 -6.20149 5.62442 20 19 25
5.5056 29.6434 4.58957 40 46 50
-26.1458 -22.728 3.64909 34 39 42
19.5811 3.49352 10.8402 47 51 45
-3.53751 22.1878 9.91391 51 58 62
15.9537 10.8836 5.73578 21 23 27
-12.3635 -12.2341 13.6241 52 54 36
-19.7837 8.09911 8.36294 28 31 34
-16.0848 -3.58765 -6.65857 31 40 38
33.9295 -24.1475 3.38941 20 20 23
5.87101 31.4807 0.650356 59 65 68
-12.0586 -12.4264 14.1378 44 43 33
31.8415 2.31061 -0.789322 2 2 2
29.1563 -7.53817 -7.14985 138 136 86
20.7328 -3.96618 -11.2417 78 82 86
30.2448 2.31633 1.29164 6 4 14
28.6874 9.51295 9.82282 31 36 39
-44.1846 10.4008 5.92324 53 57 62
-24.6711 9.19387 10.033 42 47 51
-33.5276 -23.6001 2.24017 31 30 35
6.67946 16.0449 6.52677 6 8 13
9.42602 14.3487 3.54034 9 8 16
32.3135 11.7105 -3.79561 31 30 37
-13.3675 -1.48181 -8.28731 29 38 36
3.73619 -21.1582 -7.70253 151 160 64
-43.9136 -17.7824 2.05727 34 39 42
11.8245 11.1787 -6.6669 19 22 30
-19.7463 -14.5632 8.80518 73 71 40
7.84707 14.8977 3.77582 12 7 14
-17.4584 -8.36276 10.0507 36 40 44
-5.99709 7.33419 -8.18983 19 21 27
-32.5584 3.62096 3.95074 9 9 7
25.0629 -1.10511 -8.25582 10 23 22
30.2287 2.37072 -0.644833 6 2 5
-9.93959 3.02242 -11.8014 70 80 86
-39.1591 -14.8339 4.63956 0 2 0
27.4692 13.6211 -9.28278 82 94 101
25.9481 -7.39101 -7.12512 112 109 67
4.93231 -23.8084 7.98688 44 49 43
-11.3844 12.5225 -6.47358 46 58 61
-1.77504 20.6889 11.2053 81 81 52
38.5218 -5.43182 3.51034 4 2 5
-32.9664 -19.4426 6.63378 37 41 46
23.1331 10.5102 -7.52992 30 51 49
3.46384 -3.22403 10.9151 72 72 45
-5.68192 3.83983 -12.2796 77 86 95
45.4367 -10.2402 0.65708 33 39 41
44.3195 -17.355 -2.3531 45 52 56
36.8892 -7.92977 4.50022 29 32 36
-1.75132 18.0797 -10.1788 62 77 82
-20.6491 -9.97027 -6.44652 38 46 27
30.113 2.05648 -1.6538 2 2 5
-44.185 -12.3006 -2.19155 54 64 66
32.0128 -6.42501 -6.45828 9 9 14
12.5469 4.27087 10.2126 38 44 47
-39.2433 -21.8191 3.20783 30 36 39
-3.45657 25.0621 -4.13731 59 65 68
-24.1305 10.3704 -3.40709 40 45 50
16.9779 20.547 -5.16048 46 54 56
34.289 9.26093 0.11627 0 0 0
-29.7155 -12.4871 9.22237 51 54 55
-43.8947 11.3629 4.88306 53 59 62
7.50469 31.4855 -1.63857 76 83 81
-45.098 -11.6122 -0.292343 56 60 65
6.85906 13.4584 -11.3179 28 35 48
-19.6176 7.843 8.23784 26 29 32
-25.9688 -5.19712 3.79087 12 9 18
-12.2213 -1.06059 -11.8494 107 114 47
-20.3611 -10.2197 8.6828 43 48 43
44.1167 -18.5252 2.63718 43 48 53
2.32445 21.9608 10.6261 43 47 52
35.9996 -2.72081 3.437 44 46 51
-7.76339 3.28494 -12.3007 52 72 77
-16.9215 16.183 -3.78598 58 67 70
8.24035 19.0856 4.27674 16 20 22
-9.85996 10.0647 -9.4789 44 54 59
-14.4358 4.03046 9.56927 32 35 38
11.7124 10.5883 12.0569 51 58 60
-42.3045 -21.7808 1.17438 45 44 50
-11.6217 2.08474 9.89898 27 29 31
29.0078 13.569 -8.3538 42 49 56
19.4673 20.4964 3.75763 34 37 40
-23.5622 -7.48549 4.20551 42 44 53
-13.5851 -1.96323 -10.2708 53 62 58
-28.2656 8.86595 -8.62243 112 128 140
30.4632 -5.53165 6.90556 50 50 53
26.6413 15.3942 8.83543 39 45 49
15.6257 2.68382 10.9567 78 78 41
11.2191 8.74803 13.0648 47 53 58
-23.5834 -7.76593 3.9082 37 42 42
15.0431 8.72332 -13.141 148 155 126
-12.4125 -1.58215 12.1862 29 35 38
12.1764 8.95727 -12.5166 88 106 100
-14.726 -12.9654 8.46082 37 42 43
0.758034 16.0365 11.9075 44 48 54
19.669 20.7351 -1.74998 46 52 55
6.21178 -6.58546 11.2409 68 66 42
-1.97117 17.3534 10.7244 40 45 48
40.6243 -15.1528 -4.50716 3 0 8
-26.595 12.2203 -3.1458 44 63 62
-22.091 10.993 6.28648 25 30 31
33.5456 10.5261 2.33165 23 25 27
-22.4535 11.2094 4.85263 24 28 27
5.76566 19.0098 6.48642 2 0 4
-29.565 10.1349 -7.87017 103 117 126
43.5655 -18.1403 -2.96376 80 83 90
37.2772 -24.6431 -2.73261 120 127 135
-23.3561 -10.2753 8.85914 55 54 52
-12.5827 -0.508957 -9.29167 26 36 33
34.5852 1.94958 -1.58705 9 11 17
-33.1685 -8.20893 6.75511 56 61 63
-9.41309 13.657 -6.68387 30 36 47
33.9 9.6613 -2.42048 29 39 41
-35.8767 -18.0679 6.67214 45 49 52
-5.33787 6.77063 -7.78556 11 9 21
21.0365 -6.21854 9.96943 41 44 44
5.48399 18.4779 -3.74576 6 3 16
3.24818 22.695 -6.85896 40 42 37
5.1306 -19.7711 7.99985 31 35 39
1.82372 21.7601 -9.9112 108 118 126
-37.7186 -17.2139 0.695808 43 57 58
-4.15508 20.193 -8.82636 73 82 94
13.0609 22.3229 -1.3488 21 31 36
-39.7628 -9.27432 3.05798 6 9 11
35.909 -4.39867 -3.86818 67 71 83
-20.6924 -3.35968 6.95086 37 40 44
-39.686 7.35558 7.40145 73 76 48
-35.0361 -7.87514 5.4758 41 43 46
31.7749 -5.75764 6.35851 39 44 46
27.4537 5.12598 -11.2424 94 104 112
31.7821 -2.58753 -5.05905 40 49 49
22.3411 18.3867 -6.17351 49 55 59
41.3707 -4.50565 -1.6194 73 80 89
-38.9718 -15.1611 5.02877 2 2 3
6.65076 15.9719 8.03669 8 11 20
10.6551 19.4626 -1.54245 12 9 23
-16.1596 16.9865 4.20744 41 45 49
13.6613 13.7261 -4.06438 57 66 69
-38.1236 -3.14236 -1.25298 13 18 24
3.14201 8.79758 9.04434 29 33 37
-36.1738 -10.6461 6.75479 37 44 47
2.7588 12.7372 -11.6627 74 76 90
-14.7898 13.374 9.78934 41 46 50
-36.0873 13.2027 1.20249 41 46 49
19.7789 20.814 0.0555477 38 43 44
21.845 -5.20215 -9.30629 14 16 19
-27.7745 12.0512 7.24632 39 45 49
40.945 -21.0127 2.86584 14 20 24
16.1284 -5.69268 -11.3451 175 173 96
25.8908 -7.66059 6.7994 80 78 43
-33.1865 13.2012 2.88543 46 52 55
-32.9501 -14.2811 9.79198 77 78 48
-38.426 8.19373 -5.562 157 158 83
-45.1868 -14.0519 0.913282 37 41 42
35.3229 1.8758 -1.3999 8 13 20
0.32528 19.3662 11.9717 82 79 53
0.401172 24.0307 9.87648 49 57 62
-28.3238 -23.8218 2.84892 19 21 24
-42.8693 7.10779 6.5457 19 30 37
11.1899 11.7605 7.50147 19 22 23
9.11623 31.9573 1.40893 32 37 42
-35.3062 13.3199 1.13297 40 46 49
-13.9976 -0.593956 6.67966 40 42 46
-42.0456 11.0573 -1.5104 42 48 51
-18.2714 -12.8874 8.946 45 50 54
-8.35737 22.7785 -2.39623 47 52 57
-21.3044 -4.3662 4.88898 3 3 5
7.06069 17.9906 4.98441 1 0 1
2.34679 -9.2627 10.8665 39 42 41
41.8281 -13.5782 -3.45042 65 79 89
-27.54 -23.5991 1.04466 11 24 23
8.65289 15.5656 3.23415 15 9 19
-45.5038 9.71515 4.65663 53 59 63
-21.6621 3.34599 6.17131 34 38 43
-35.138 -11.414 6.60591 44 49 52
-3.43818 18.5709 -9.13757 46 54 63
39.9124 -6.18025 -3.66088 18 15 28
28.449 2.24578 5.98524 27 31 33
29.396 13.7826 -6.43842 28 33 36
-24.239 9.06509 -8.15165 107 117 127
14.707 4.2612 10.5416 50 53 57
-2.69957 1.90272 -12.5365 247 238 141
33.8805 1.71922 -3.18729 42 45 53
-10.6975 21.2337 3.46981 42 50 50
31.5998 2.42589 0.6551 1 1 8
-34.0981 -16.8939 8.26663 50 50 46
-19.2866 -0.989208 -0.309792 65 75 77
-16.5188 15.8745 6.04129 39 46 52
24.0285 10.3979 -8.11385 32 57 51
-18.254 16.3191 -1.40114 51 57 59
21.0675 2.00269 -10.7122 94 94 65
31.4818 13.2544 -2.28118 30 36 42
14.6825 10.9342 -4.67266 57 66 74
-17.8097 -14.3713 8.69291 35 38 41
-8.47723 15.561 8.00505 68 68 52
-11.7788 7.06123 12.6571 67 69 46
35.2301 -13.977 -5.9179 38 47 42
-21.5416 -6.64257 7.6509 35 40 43
35.3285 -14.239 -5.69231 37 43 42
3.29077 20.5449 -9.60282 64 62 80
4.41355 15.6797 -11.3322 82 94 91
5.27153 -2.03739 10.8575 77 77 39
-46.6973 9.12173 2.59763 49 54 56
45.5111 -17.1579 0.159536 38 39 42
-35.3384 13.2136 1.87481 42 49 52
-11.5591 17.0554 7.39333 46 55 57
29.5012 14.7102 -3.80143 32 38 43
-32.6228 -18.1596 6.65008 46 49 53
-5.82685 24.309 -0.116402 56 61 65
24.8796 8.95959 -10.6187 96 107 115
-13.0153 17.4065 6.75786 43 50 54
4.57791 20.5658 -5.92736 1 3 11
-13.2155 15.6468 7.11835 45 53 53
-44.9568 -10.672 -0.241619 56 57 58
-28.0507 -23.8503 2.01522 8 6 16
7.72675 14.36 7.5103 19 22 28
5.22286 -24.3014 -7.8312 94 110 108
-11.1357 1.76672 10.0056 25 28 32
-19.8345 14.9616 6.0226 45 50 54
-21.1938 -11.5781 -6.90143 135 141 87
-17.4031 -13.5892 -7.64619 42 65 58
21.6314 -5.74644 -8.59096 5 5 11
-23.8126 -5.70131 4.43678 0 0 1
-11.8479 -12.7004 13.0048 52 55 42
4.694 27.4613 5.81078 39 44 47
-41.9408 9.27481 -5.08779 192 188 73
-12.43 12.4584 -8.34053 41 48 52
33.4378 10.9998 -0.681904 16 16 20
24.7824 5.13954 10.4787 46 51 54
10.6617 31.3442 1.77324 23 29 35
-3.23071 16.7154 9.4458 50 55 44
-23.3132 10.54 -0.130768 0 1 2
-38.2534 -2.64227 1.68439 15 18 31
-12.0021 4.52277 12.4348 48 53 58
17.4758 20.5214 -1.24205 5 8 13
9.88238 31.4404 2.63169 46 50 53
7.08327 15.304 5.86576 8 3 8
8.20358 12.4357 12.2085 35 39 44
-26.7152 10.6732 9.66266 38 41 46
-1.99621 21.417 -10.0521 125 126 56
-22.0208 9.79593 -5.05578 19 35 27
-20.0234 8.0962 7.9493 21 26 28
10.8793 30.6165 3.38914 30 34 39
-32.6543 -6.76826 3.61779 5 10 14
40.0728 -15.7315 -5.24706 59 67 69
-9.8778 -12.6887 12.124 33 36 29
-15.7523 -9.90385 9.02643 30 35 37
31.1468 5.28528 -5.99291 4 0 7
-14.1098 -16.1592 9.82011 49 52 56
-7.08337 23.6318 2.82676 46 50 55
8.95917 31.2312 -2.32083 74 80 88
25.5678 15.7103 -8.95235 78 86 94
-40.5375 5.75041 5.60234 4 4 3
-18.345 -19.5863 5.56371 32 36 39
-26.3017 9.07378 -8.65128 87 102 108
22.8542 9.17955 10.0374 36 42 46
7.30048 -7.53139 -11.0664 150 150 65
14.2925 4.87611 -9.99575 65 74 72
18.3301 17.0744 -9.6699 111 117 87
6.11443 28.5025 5.75783 36 41 45
-17.9074 -13.0505 -7.16886 46 66 60
-37.3412 4.66445 4.30182 13 0 0
17.2461 18.3048 -9.39626 85 98 97
33.0315 10.1558 -4.09068 87 95 97
12.4796 14.6722 0.70965 34 39 41
-8.44373 21.5394 -5.9266 91 97 102
23.5998 10.575 -7.60988 22 37 36
7.69902 14.2783 -6.75648 10 12 18
-9.07494 8.57418 11.8632 41 45 47
19.9871 3.45237 10.8389 43 47 42
30.4128 10.6537 -8.52835 67 71 77
-13.2106 -1.46826 -9.5995 47 57 55
19.3017 20.3359 4.30665 32 36 37
33.0193 -24.0716 3.36017 16 17 22
13.1546 22.5354 -1.50857 28 39 43
-32.13 -8.86429 6.75026 55 60 63
-18.2622 2.72344 5.97918 32 36 40
-13.5282 -2.00563 -10.7215 84 90 62
-11.1901 -0.279381 10.5075 18 27 29
19.2872 18.3384 -9.19901 93 106 95
4.50632 20.1382 9.37779 17 21 22
34.0848 -4.91349 -4.24947 0 0 0
44.634 -10.9587 2.8032 36 44 47
13.0204 10.6897 -8.71395 9 17 22
-19.3638 -11.4495 8.58765 41 45 46
-1.01125 1.92967 11.2867 48 47 32
3.53074 -24.705 -7.77689 79 85 89
5.97196 16.5072 10.1778 18 22 28
30.4052 -0.552589 -6.1893 80 94 106
-15.5745 13.0606 10.1464 43 47 53
6.54291 16.1965 7.34986 6 6 18
32.7674 11.8345 -1.53004 19 21 28
-20.947 14.318 5.3224 43 47 51
-19.3418 -14.8047 -7.96448 73 94 94
-33.2816 -1.78537 2.35937 22 25 30
-22.9605 -9.12106 3.44648 16 18 22
-17.4153 9.01979 11.0624 44 49 54
-10.6637 8.78259 12.1731 44 46 56
-37.0805 8.56059 -5.72744 180 187 76
22.5354 -4.14662 -8.42477 21 20 5
23.4928 4.4165 -10.5808 99 106 112
15.6353 19.5088 4.31029 12 11 13
17.2784 -0.880577 -10.8473 83 88 87
-11.0135 21.1654 2.22593 47 52 55
26.2199 16.5794 6.4742 35 40 41
15.5867 10.6096 -9.62046 27 28 34
21.559 18.442 7.96858 33 38 41
-34.0275 -11.5221 6.80064 34 41 45
-46.7693 8.71544 2.52267 47 49 54
36.6982 -23.936 1.03275 11 9 13
-2.11481 18.3509 -10.033 80 82 81
26.9016 -9.14816 -7.22359 128 126 69
-20.36 -2.34922 6.4708 36 39 42
24.7165 10.1665 -8.6193 60 68 67
-12.9926 16.331 7.04313 63 65 69
-2.66154 25.7748 2.21445 39 44 47
-12.1239 9.73512 -10.6665 169 175 125
39.7012 -6.84978 -3.80527 6 2 8
-20.0513 8.3511 8.26799 29 32 35
-20.2983 8.34903 7.86078 27 30 33
-29.5585 -24.1787 3.17047 15 22 26
20.1583 20.638 -0.269192 40 46 48
-13.4912 -11.2186 14.4957 53 54 43
-43.0512 -12.4982 3.88932 51 57 60
-28.6394 -11.3748 -6.11282 32 39 17
5.79871 11.742 -12.2339 88 102 111
-35.6892 12.4132 -1.48344 66 76 78
8.56511 11.3528 -11.9288 58 59 67
14.7059 4.076 -10.303 129 138 94
-20.3323 -9.68704 -6.20382 33 35 41
29.3551 -3.28513 -7.51287 92 104 115
31.9258 -12.4363 7.31764 37 39 37
-46.0323 9.92372 2.80513 44 49 52
26.7434 -8.69685 -7.11193 104 99 51
-12.8123 12.7793 9.59357 36 41 45
5.49078 3.57935 8.9986 42 45 50
-15.9453 13.1711 10.0385 45 50 55
10.8882 15.7848 -3.23699 37 39 56
26.7095 16.9937 2.33607 27 31 36
4.50011 19.2753 -8.968 9 3 17
1.44768 -1.36855 10.438 46 50 55
6.65297 0.291183 -10.1969 142 142 64
41.9734 -5.1568 1.59876 33 32 37
-14.927 -5.99141 -13.1588 134 140 90
12.6394 28.6203 3.73512 22 26 28
-25.2057 -6.058 3.43535 16 20 25
-12.7884 2.57899 6.76689 24 27 30
6.64725 -4.18562 -10.9636 150 148 75
-32.4447 -12.1392 9.76618 47 54 63
23.8085 10.5048 -7.87029 44 55 56
0.147163 25.9712 -3.99199 49 55 59
5.28004 25.5315 6.44267 31 35 39
17.0769 8.90156 -12.0208 55 56 60
25.0707 3.62789 -11.7035 109 118 129
-21.4915 -6.23569 7.46048 34 39 40
-25.7034 11.228 -2.43533 21 23 27
1.20626 14.1238 -11.0944 60 71 74
-7.6645 -24.4595 9.22042 42 45 48
-33.3987 4.58685 6.07658 1 0 1
-4.51334 2.07904 13.8486 44 49 55
-44.2769 -13.7185 3.25765 48 53 56
5.80799 30.2006 4.08796 49 53 58
43.7348 -6.68373 0.520557 33 35 41
40.6515 -4.1103 -2.16184 86 90 93
-30.1756 -10.6862 6.95647 22 23 28
17.2623 8.95165 -11.8008 78 82 86
25.4909 13.2897 -9.92639 124 132 141
-22.7749 12.001 -1.5728 37 43 44
-29.895 7.32544 9.64786 52 57 60
-19.7519 8.36793 8.76767 35 38 41
-19.1687 7.8522 9.08989 40 43 46
28.4323 -7.28881 -7.45148 199 200 100
-12.9786 -10.3244 14.823 64 66 46
-8.04639 -3.7001 13.8737 35 39 46
-37.1687 -11.8505 -3.23187 15 17 21
-27.6356 -10.2552 7.92613 22 26 28
-43.8995 -19.0086 1.33314 44 49 53
-36.2998 12.0922 -3.31461 47 57 58
-38.8085 11.3292 5.58576 41 45 49
38.8021 -10.0742 5.02025 38 41 45
16.0183 -6.08572 -11.3141 180 180 95
33.4966 1.7187 -3.25953 32 39 46
-28.274 -10.3706 7.18051 26 28 32
-19.3091 15.7177 4.38203 40 44 48
-2.61775 24.9411 7.62103 52 56 60
-12.5968 9.78094 -10.6357 138 141 76
-4.67096 4.67601 12.5226 49 54 57
18.4663 20.2388 5.18357 30 36 38
-37.5159 -15.6922 6.69213 37 42 43
9.54663 -5.99264 11.3419 63 66 47
-4.82282 4.78804 -11.3279 32 45 46
2.57803 27.1761 4.92064 48 52 55
31.9459 9.46816 -6.42582 44 44 48
-28.5646 11.8361 -6.19887 48 56 57
3.73492 21.861 -6.82626 20 24 23
-32.2446 13.1031 3.28894 46 51 54
12.5244 26.7288 -4.00149 19 8 22
-34.1229 -7.7494 2.96475 37 33 21
-21.2843 7.15347 -7.05119 37 43 48
5.41124 4.39463 8.52287 39 44 49
24.4125 -5.82201 -7.4517 206 199 116
-41.3389 -6.07121 3.22507 28 33 34
2.48751 22.1354 -9.05044 11 14 21
-17.4056 -1.39955 5.6097 40 42 24
2.16716 28.033 -2.66059 88 97 99
31.2977 0.976574 4.3569 35 39 43
-26.6137 -4.8641 1.24279 2 2 5
24.9128 9.59064 -9.45561 38 43 44
-4.75166 24.1339 -6.14754 70 76 81
-30.0887 13.2709 3.44402 44 47 51
15.3104 3.89585 -10.4579 157 160 80
-7.66543 16.1653 -7.27776 91 94 59
15.4774 10.5321 -10.0866 35 38 42
12.3834 12.7393 1.99 5 2 15
-8.30991 22.7874 -2.84176 46 51 56
3.8214 -0.729187 -10.0642 165 168 73
34.6268 -2.48907 3.46627 45 51 53
16.35 10.6546 -9.31312 27 34 30
17.7444 4.42212 -10.5393 82 91 93
-28.2645 13.933 2.38435 46 52 55
25.0867 14.6928 -9.58067 99 106 113
-7.27594 23.6555 1.31177 49 56 59
3.08652 22.5738 -7.62281 27 28 32
3.84866 24.2798 -5.20998 69 74 56
9.0862 11.925 -11.0985 35 35 42
-33.7718 -9.50493 6.76075 58 63 68
1.51612 24.5954 8.12644 26 31 34
-46.024 9.36331 4.022 46 52 56
28.3187 -1.04511 -6.55029 81 91 98
-13.8019 3.47981 9.15762 30 32 39
-12.804 16.9143 -5.82031 55 69 79
9.27635 4.99326 9.54782 40 44 48
33.544 0.792801 4.28811 41 45 49
-19.0958 -6.94757 9.95873 34 39 40
-17.249 15.2136 -6.23574 57 67 71
36.4025 -23.7387 1.69061 15 13 19
-44.7584 -12.755 1.48864 44 49 52
-22.5784 11.2132 -3.61769 39 45 49
-28.1855 -6.41039 0.101288 17 10 13
35.2783 1.85673 -2.07886 21 21 28
-36.4691 12.134 5.55447 41 45 49
-9.995 16.4638 7.80825 45 52 57
-21.2289 -6.07612 8.08989 39 44 49
-26.8728 10.9796 -7.41525 130 139 140
-14.4442 -2.61124 7.58231 19 22 25
-31.5332 -24.2163 2.94518 15 21 23
0.254443 22.2866 11.2218 68 71 62
22.6853 -2.63376 10.6658 48 53 58
38.8341 -2.15508 -0.442924 15 14 25
16.0856 5.54681 -9.96141 67 84 80
-17.8693 -8.63866 8.49335 28 31 35
42.4433 -6.12803 -2.28081 41 47 52
-8.62499 6.62524 12.7922 46 52 46
-11.7222 -9.96062 -13.2842 166 169 110
1.69383 24.147 -7.33094 24 32 29
3.40413 19.9201 -9.93429 49 49 63
6.90445 19.0155 5.08059 2 0 0
-20.1782 15.3216 3.67261 41 46 49
1.26493 21.6004 11.3156 53 58 62
-22.8564 -8.85279 1.62609 19 21 24
6.6228 17.8045 -3.88445 40 41 44
-22.3585 4.13301 6.12599 30 30 33
26.2966 17.2306 3.02871 28 32 36
-20.3595 0.449301 -0.593903 39 43 46
12.1641 -3.5673 -11.2731 141 143 88
16.8688 10.7787 8.67205 36 41 43
37.3828 -11.2678 -6.16313 104 111 117
25.3997 10.3096 -8.75767 71 82 87
-8.74912 10.3538 8.53025 34 37 40
39.1151 -3.48023 2.88246 36 41 44
-9.4761 20.4243 7.14832 49 55 60
-31.8175 -11.4643 8.89731 39 42 47
35.4274 -2.2915 -2.97561 87 92 103
-24.8945 -10.6679 -5.72041 26 31 21
32.7752 10.1694 -4.35103 75 78 81
-14.1843 18.3488 -4.09242 73 81 90
31.4558 2.07948 -2.41166 2 1 7
12.8186 22.2093 -1.56782 14 23 30
-44.2836 -15.6387 2.77501 38 41 45
26.0761 -0.297192 -6.14114 16 20 26
-9.58068 10.1615 -9.02553 35 36 40
-41.3707 7.11285 7.00092 23 23 30
35.0088 -14.9286 7.55394 24 27 31
-11.8564 -0.981255 -12.0375 81 93 60
42.591 -22.2371 0.996714 34 45 49
-29.5972 -24.2572 0.806061 29 35 30
3.57414 3.68143 -7.69168 44 55 59
31.3288 -4.93026 6.50236 52 56 57
-20.2863 14.6732 -4.91334 60 67 69
-14.2192 0.159781 6.50377 36 39 43
-37.1957 -21.6518 0.894524 21 20 27
-14.6817 15.6719 6.55371 36 43 46
35.5385 -7.10354 -4.85248 7 8 10
-26.9929 -10.8673 8.86934 51 54 58
11.1054 14.6712 1.41636 2 0 3
5.93592 17.52 -4.94403 9 5 12
21.093 -7.63622 7.58162 13 10 22
10.1343 4.4921 9.86745 46 53 56
14.7824 23.972 0.337461 9 9 10
-32.7321 -1.81694 2.59749 24 26 33
6.56223 16.5323 -6.02082 28 25 28
31.0322 -19.0621 4.89536 44 47 50
33.9146 9.37499 -2.74326 54 63 64
13.8708 26.0244 2.98585 36 38 41
33.4019 -7.24963 -5.49559 25 31 30
32.1142 2.37285 1.65019 7 10 18
41.0277 -6.4418 -3.48314 76 84 100
11.0877 -6.45281 -11.246 171 178 76
-29.8414 -24.3098 2.56886 10 18 19
17.1982 -8.99834 -10.8971 143 146 94
33.902 -18.0315 4.81162 33 37 41
-18.9964 -18.1365 -7.61884 49 57 60
28.296 6.23337 9.10497 49 56 59
-26.0248 -9.88113 5.42965 11 13 14
-14.7037 18.4566 2.25662 47 52 52
-22.0048 3.85946 6.14504 38 44 47
30.8657 -2.88892 4.80235 35 37 42
-32.5177 -12.7812 -6.19854 141 150 80
44.523 -16.4498 -2.41682 52 55 60
14.8906 10.2943 11.1457 52 55 59
-19.4346 -14.3635 -7.71623 76 91 92
3.15311 20.1199 -10.0466 36 41 54
7.62755 -24.4315 -7.90674 93 104 107
-11.8042 13.0854 7.76905 40 44 48
-18.3815 15.6634 6.05048 34 40 44
3.46508 26.7886 5.61026 42 47 51
31.9263 -5.52973 -5.26238 3 2 13
-36.2379 -11.4072 -2.33577 7 9 14
-19.9178 -13.6927 8.77999 71 71 39
4.26096 -21.572 -7.72863 143 135 74
30.861 -9.58397 -7.29383 179 177 118
-25.9933 12.1087 -1.27172 15 15 20
18.5671 8.94624 9.05564 23 23 28
-1.03327 1.81914 11.7607 54 51 31
-34.2101 12.0566 -4.65925 46 54 57
-33.5214 13.5311 0.694511 48 55 59
3.40878 11.6537 12.3448 51 58 61
34.2241 -18.19 -6.15297 68 78 84
2.01183 -3.04094 10.7762 74 73 45
26.7765 15.2836 -8.63089 60 69 78
43.8925 -10.9386 -3.28132 87 95 103
23.2572 -2.98417 -8.737 9 10 12
-38.0396 -23.5478 3.7246 35 39 40
-45.6118 9.07256 5.72052 59 66 70
24.9589 9.80629 -9.01813 57 70 71
-6.52566 7.46115 -9.56125 20 28 31
38.3968 -14.2673 4.81183 37 42 45
-16.842 -6.49036 14.1368 66 69 48
-35.6833 -13.4148 -5.95579 118 129 79
-6.56962 15.148 -7.4236 51 69 72
-13.4106 15.5466 -5.86418 56 67 76
-5.07681 24.6259 -1.05313 56 62 65
31.6219 10.9279 -6.27909 73 67 61
-21.648 12.777 6.27325 38 43 47
27.6487 -2.41182 6.80274 39 43 44
29.5741 10.1016 -9.25352 70 89 91
35.9525 -1.60464 2.08835 23 25 28
0.353454 -3.25581 10.65 76 79 44
-30.3895 12.0855 -4.90651 51 57 61
-21.4263 -9.22329 6.43332 21 25 26
-8.19013 19.7368 -6.81287 50 61 74
-26.7082 12.0662 5.88257 41 46 49
10.9976 11.5269 -7.01744 6 9 17
31.7252 2.37097 2.01176 24 26 30
26.9536 16.8532 -1.21416 35 39 46
7.95147 31.8837 -0.509428 45 51 50
-12.1148 12.8002 -7.10485 30 34 40
-9.07259 20.2494 -6.24573 63 73 82
10.8088 1.11259 10.7578 48 53 52
-24.1512 10.0547 -4.53192 34 40 45
-44.7091 10.7673 -1.73979 65 72 78
-17.9161 -17.1627 9.58338 50 54 57
10.4104 31.151 2.87809 33 37 38
23.6121 10.2111 8.1539 37 42 46
14.8846 4.68087 -10.1413 58 68 62
28.4348 -6.6834 6.75365 50 54 45
-24.9251 10.1373 -5.29719 34 39 45
29.2554 2.59151 1.17233 4 6 5
33.7813 -11.8524 6.28746 20 24 27
-13.5649 -1.67311 -7.92023 28 35 33
27.8096 15.6732 -4.66764 53 58 63
32.6608 -8.36317 -7.03661 50 61 63
32.9394 -7.84249 5.65565 19 23 26
-15.4468 11.5736 11.1049 51 55 57
-14.3763 -2.51821 -8.03569 26 36 32
-16.342 10.2531 -10.1773 104 121 126
34.5031 1.9872 -1.15854 11 12 20
-15.7929 -9.49979 12.9276 53 55 37
21.9155 -5.20841 -8.83737 8 10 10
23.1429 3.47504 10.6707 50 57 59
9.61202 14.7404 2.53081 12 9 17
-40.1532 11.1897 -3.73385 55 62 56
-39.2882 -10.4635 3.04171 12 17 17
-12.0079 20.5275 1.86702 42 46 50
-9.98168 16.9375 7.80124 45 48 51
-14.788 18.3154 2.63575 45 49 54
23.8896 10.0644 -8.45908 62 71 72
-42.4215 11.405 1.00821 48 53 58
-33.9554 12.118 6.46859 38 43 46
-0.191071 25.9433 5.79544 47 51 55
6.35896 13.3099 -11.6832 57 68 79
-28.5989 -6.12374 -0.145027 11 16 15
34.8364 1.15895 -3.84338 62 70 74
-36.6951 11.4913 -5.33652 52 70 73
25.1452 16.1627 9.0439 45 49 54
-13.5249 -11.2841 13.7756 55 55 41
44.7946 -14.3508 -2.11156 45 51 57
30.4659 5.31571 8.69081 45 50 53
-4.95773 15.5604 -7.78697 32 45 51
0.497612 25.8435 -4.28297 36 38 42
43.5828 -10.1354 -3.32905 98 106 112
6.81285 16.363 -5.87626 28 27 31
-41.5241 -19.3856 -1.97606 27 31 32
15.1851 -15.7035 -7.10966 48 58 64
-44.0985 -9.50401 2.11754 40 43 45
5.69939 17.7045 -5.09422 8 4 10
-38.4752 9.9493 -5.23522 169 177 70
-14.5985 -2.95233 -11.2426 98 101 56
44.5658 -9.02508 -1.31532 73 79 81
-39.2303 11.2741 5.86675 48 52 56
24.4901 10.4759 -8.19917 38 52 45
13.2676 10.5872 10.3255 26 28 33
-16.9393 16.7484 1.34007 51 56 59
-0.46384 25.4725 -6.72614 58 64 70
27.072 1.12528 9.2446 36 40 43
-26.9883 11.8765 -5.48065 44 47 52
-21.4668 14.3508 2.33719 46 50 53
-24.3713 -17.4378 -6.3601 88 112 117
-1.70983 12.5868 7.92199 45 50 53
13.8608 22.5434 0.482494 20 17 24
-30.2436 -23.2976 0.65657 58 67 66
-3.85134 24.6858 6.35755 45 49 53
18.0158 9.70396 10.8558 35 35 40
25.3056 4.60024 11.4526 43 48 52
6.64141 17.0938 -4.90922 37 35 37
-8.85555 22.8112 0.808262 50 55 59
44.4508 -19.9334 0.154972 32 36 37
-5.85939 3.44489 -12.3879 97 108 111
32.7968 0.00942993 5.14432 39 44 46
-2.91236 25.6307 -0.22039 50 56 60
41.3763 -12.3837 -3.64471 35 50 59
34.8678 -17.9645 -6.14279 75 87 89
39.4545 -3.20119 1.86001 11 16 20
-1.68135 1.91838 12.8702 74 76 41
30.9486 4.87007 2.1032 10 8 10
18.9038 19.8144 5.77876 38 43 44
24.275 10.5675 -7.94902 17 41 34
-18.357 15.9164 5.27047 40 44 49
13.5443 22.3239 -0.129324 9 15 20
-36.2292 -14.2537 8.53041 41 45 49
15.7796 6.09328 -9.64146 68 77 90
13.3443 10.8637 8.02182 25 27 30
-4.32289 5.59106 -8.43909 6 9 11
-5.74809 -15.0144 -9.14108 76 78 66
-1.8736 22.8459 -9.63899 120 128 87
-7.91493 9.56112 -5.73455 5 14 18
-30.5222 12.0248 -5.33357 49 57 60
-15.1629 2.40013 6.14016 35 39 43
-36.0301 -1.74052 0.345051 23 23 31
-15.1993 3.18351 6.34034 38 42 46
26.8965 8.70095 10.4187 44 48 52
17.5301 -14.1505 -6.22676 0 0 1
26.7466 7.47982 10.2752 43 47 51
35.0879 1.43018 3.10509 30 34 38
-44.3569 10.7634 -3.51792 74 81 83
-8.52202 20.4849 -6.44439 70 77 88
-18.5922 16.2911 0.446573 45 49 52
18.5453 9.16935 8.80466 24 24 30
21.7038 18.3983 -7.52603 40 46 45
3.39843 -20.1734 -7.6865 157 161 77
0.845825 16.415 -11.2104 61 72 77
-34.7931 -8.38028 1.68154 5 7 9
12.2847 29.9391 2.11722 26 29 33
-9.38145 10.6428 -7.92713 39 41 46
-16.604 -15.5045 -8.42163 75 86 92
-12.2539 11.5891 -9.28189 65 76 82
-10.0168 21.9654 1.41381 52 57 60
35.3389 -2.77637 -3.27091 96 105 116
33.4625 -10.9254 -7.11339 67 77 76
27.5241 -0.951424 -6.4729 45 56 61
-28.9498 -23.4586 0.730064 31 36 36
-11.2778 -15.9219 -8.7826 58 63 70
-46.0502 7.09208 2.97615 50 55 58
16.7434 10.2313 11.5443 51 56 58
-14.2824 -21.4522 8.09757 33 39 41
38.0015 -23.1804 2.04299 11 10 13
33.9108 9.82533 -2.14897 27 30 37
-32.7899 -23.6517 2.20249 31 27 33
-13.4563 11.1187 11.3018 50 53 57
15.6616 9.42454 -12.9351 122 134 118
30.4923 12.3321 -7.13614 24 29 29
3.54615 17.3316 -11.0612 71 70 76
25.9856 -8.17603 6.82378 73 77 49
28.9317 13.1614 8.76189 50 54 58
-6.34456 6.79391 11.8794 41 46 48
27.917 4.4118 11.0429 46 51 56
13.8049 10.4048 10.7327 52 57 58
-8.94138 1.94706 12.6006 45 48 53
36.6112 -6.0673 3.74882 6 4 11
-17.6561 16.4761 0.0966492 44 49 52
-43.5274 -15.4316 3.86666 53 56 63
30.0736 14.4711 -2.95882 32 39 43
-46.4408 7.28276 -0.618088 47 49 54
-43.5182 11.4463 3.26725 50 55 59
5.38901 30.8211 2.74205 58 64 67
33.2999 2.30355 1.21426 4 4 13
-7.54186 8.33004 -9.51835 30 33 37
-12.7317 11.9291 10.525 29 34 39
17.8933 2.67754 -10.9279 208 200 107
9.8582 12.2421 10.3975 25 31 34
-14.5383 8.88378 12.0207 57 60 55
10.378 7.11004 12.0757 53 58 62
-6.83198 23.4927 4.81662 50 55 60
-10.2752 -24.5982 9.46313 29 30 31
-18.012 -18.4513 9.34397 48 53 57
2.31811 13.4687 12.1977 49 55 58
-38.0606 -21.6016 0.85437 14 19 20
-15.9641 -14.4106 9.60919 39 43 46
-2.36045 22.1321 10.6258 60 59 67
-19.6119 13.0874 8.73171 41 46 49
