ply
format ascii 1.0
comment Created by Open3D
element vertex 1395
property double x
property double y
property double z
property uchar red
property uchar green
property uchar blue
end_header
-15.7073 -16.0717 9.76338 48 51 55
9.35528 22.6131 -4.27494 55 65 68
10.6291 16.9439 -2.08468 49 50 49
20.0245 -1.27103 11.4635 52 56 58
17.9438 -12.629 6.23477 12 8 17
-10.6478 13.2855 -6.40229 41 48 58
5.29971 1.23988 10.1798 48 52 56
2.08562 10.2852 -9.64914 51 59 60
-2.54868 22.4073 10.4233 56 62 71
-5.51295 17.1843 8.82173 63 70 43
-39.5658 -15.627 3.20744 6 7 9
28.8315 2.63782 -5.00156 11 9 14
31.1537 13.8277 -0.653038 25 28 38
-6.62123 23.698 -3.26576 45 48 53
-16.0783 -3.49768 -3.79785 20 27 29
-17.8282 -21.0782 1.27419 9 9 10
0.586945 20.3956 -10.8433 211 191 107
13.7072 -2.36646 11.2589 65 65 37
-43.9328 -13.5533 -2.54181 79 96 98
7.60313 28.9492 -4.76991 73 83 93
-0.80685 2.26001 7.23317 20 22 23
16.3806 20.2771 3.40731 20 32 32
-41.4226 -17.6806 0.407158 28 34 44
-1.4636 12.9254 -7.29999 56 57 67
-44.167 -11.7883 2.4063 29 31 33
-19.0866 14.5449 7.61652 38 44 48
6.83917 14.9621 -8.19592 19 18 26
-8.16307 -0.974266 13.7838 44 49 54
16.3707 6.96216 10.4539 41 43 41
27.8164 2.70726 10.7069 41 46 50
26.6196 -14.8998 6.19545 56 60 38
-44.0098 -19.5842 -0.277916 50 55 58
-21.6212 2.01136 5.30654 26 25 28
14.8779 18.1867 9.76543 45 51 54
-6.54137 23.5751 5.24212 49 55 58
19.8603 15.246 -9.07022 28 25 32
-14.3069 -11.8344 8.26955 32 38 38
30.1607 3.7551 5.88052 32 35 37
-23.4265 10.4585 -0.527596 8 12 12
-17.3999 -22.2089 1.57824 34 37 39
-9.98479 21.1501 6.04752 50 52 55
15.9862 -1.97737 10.905 68 70 39
-39.7375 12.2429 1.7233 44 49 52
-43.3859 9.03053 7.34997 65 70 74
10.1669 -4.98027 -11.2276 121 122 78
-17.8745 -20.9309 1.97094 3 4 4
-18.1652 6.26688 -6.45836 7 19 8
31.1985 13.3378 3.4304 31 34 37
-37.6171 6.4783 7.21118 12 13 10
30.6007 -8.51742 -7.28395 90 105 85
5.51492 -4.0059 11.1253 61 64 50
-17.5706 -21.3632 5.59506 35 38 40
7.31092 31.5759 2.62814 53 58 61
35.0866 -12.7695 5.3115 22 26 34
-14.249 -10.9247 10.8023 37 41 42
-2.95803 12.4545 7.8834 40 46 49
-29.822 -2.95367 3.2832 2 1 0
-17.776 -21.1761 2.21737 6 7 9
43.64 -19.3256 -1.54424 55 61 67
40.3352 -14.3878 3.53078 29 32 36
-23.134 -19.4531 -2.80122 122 135 135
18.2536 19.5549 -7.2943 47 52 51
7.18442 -3.47151 11.1584 41 44 38
-13.2997 -14.6446 7.68788 24 25 28
37.8602 -1.77148 0.542671 3 7 13
16.6424 19.9345 1.86574 20 27 28
20.8189 -0.905464 -11.5995 92 113 114
2.86252 -7.91473 -10.6238 92 99 70
13.1183 -11.9291 -9.45874 87 98 91
-30.6526 12.0588 -5.11833 50 56 59
-46.9005 8.71526 -0.224976 58 62 63
-37.6635 12.1771 -1.41089 46 53 57
11.4884 -16.3625 8.16985 39 44 43
6.66319 14.1788 11.7964 32 34 40
-36.0089 4.34853 -1.89827 66 79 65
-8.99584 -9.1565 8.91315 31 35 39
-42.2993 -10.271 -0.395275 19 26 29
25.2226 -14.0209 -7.08385 153 160 86
6.89668 -8.89305 -10.8884 133 133 64
33.7435 2.2589 -0.350329 8 11 20
0.979485 4.29191 -6.05399 54 66 70
-5.23193 -4.70075 9.58505 35 37 39
-12.7593 20.1467 0.132652 51 54 60
6.04571 9.82351 -12.252 60 71 75
-16.8839 16.5853 -2.62736 48 55 58
8.23456 11.1627 12.6773 51 56 58
-17.4362 -21.5061 7.688 42 45 48
23.0723 -15.3256 -3.57495 15 34 21
-14.6124 7.13415 12.0286 50 56 59
10.8045 30.2351 3.97674 21 26 29
34.8858 -11.6153 -5.25246 88 97 105
31.344 9.77418 7.85628 55 62 65
-23.6777 -8.70081 0.486923 12 13 15
-22.663 10.193 5.00389 5 7 11
9.51182 31.6351 -1.10041 44 51 56
-12.7367 -7.04316 14.5392 73 70 40
0.720467 26.2456 -2.24977 68 77 83
-5.47713 -16.7272 -8.63611 53 62 59
22.7363 19.2804 -0.950706 35 41 46
8.75679 5.82998 -8.49842 16 13 28
-13.8994 10.0813 11.7106 66 66 45
32.7568 -18.0391 -6.13483 100 113 119
-16.1578 4.55694 6.87617 33 36 39
-18.2597 -7.91726 -10.1216 60 66 61
28.1393 -12.3158 6.56821 55 54 36
-11.2235 -19.1451 -7.76368 43 53 55
6.41719 12.653 12.745 43 51 57
38.867 -8.43619 -4.31799 0 1 0
-16.5609 -24.2773 1.88226 35 39 41
-14.7181 -25.4659 -7.27151 88 95 104
-15.5056 -2.9256 5.7422 14 17 20
-9.68337 -9.64979 8.56106 8 3 12
-6.52074 24.0771 1.318 50 56 60
7.02042 17.9593 5.03109 2 0 2
28.6815 -13.287 6.51328 53 52 41
-17.3933 -5.18097 12.664 41 44 51
-30.2236 4.24302 6.56535 0 0 1
12.3021 29.9208 -0.455913 20 24 28
30.0601 3.68318 5.24283 30 34 36
3.96288 -21.2701 -7.7231 162 168 85
-5.35954 18.2 -7.90671 86 94 67
-11.2927 19.9058 6.33396 54 60 63
5.38152 17.6136 -8.29333 4 2 12
-11.7889 19.3234 6.47587 47 51 56
10.0199 5.74446 -8.93857 46 57 58
-34.9799 10.8361 8.35462 47 52 58
7.59 2.8773 -9.60016 77 89 97
-20.5757 -3.75265 7.34592 39 41 46
2.65863 -19.5685 7.95939 40 41 45
-37.6219 -6.16039 1.1819 28 31 33
-32.9803 3.53035 3.10193 15 16 13
-19.8409 3.28912 6.022 44 50 53
33.5816 8.90391 -3.53412 85 94 99
9.4475 -13.4755 -9.19674 144 142 73
-0.936386 23.4734 10.5084 53 60 64
24.9997 17.4795 -4.8639 41 46 53
14.8266 11.2876 -4.60941 100 114 116
28.8631 14.707 -5.70933 31 36 40
-42.3822 -15.7915 3.80256 38 42 45
-43.6538 11.462 0.859908 52 57 59
-45.0501 10.9124 1.84214 44 50 55
29.0379 -5.82043 -7.51786 85 97 95
13.2816 25.915 -3.36409 13 27 35
-30.4444 -6.7055 0.725143 25 30 32
21.457 18.3999 -8.14738 50 54 50
6.42302 -10.0623 10.7305 60 61 39
21.8262 18.3606 7.85327 35 39 42
34.4 8.0377 -1.852 8 3 13
-7.55117 -5.09003 11.8965 44 46 46
32.4135 -22.1964 -3.35777 35 39 38
23.1427 -7.46571 -6.40007 64 76 78
4.98872 14.6393 12.3853 46 52 60
-4.11167 -12.2045 10.4126 63 66 43
1.34472 4.27618 6.68323 42 47 48
-35.5216 -17.6111 -5.05756 59 68 70
-17.3012 -22.4562 1.82518 32 35 39
5.50499 2.32945 9.8575 55 61 64
41.5956 -9.2704 0.761734 16 13 17
-7.03738 8.88448 7.97061 26 31 34
-20.0487 2.35275 5.96965 39 43 49
38.6081 -2.52088 -1.14341 67 77 86
37.9881 -10.1674 -6.20197 112 130 135
-18.0896 -20.3848 3.12289 4 3 2
25.5651 -23.6996 1.38756 26 28 30
-13.4546 19.2674 3.53522 44 49 53
11.6721 10.1206 -12.0144 63 73 70
0.424847 -6.80295 10.927 66 66 48
-40.8084 11.2503 3.69047 44 50 53
19.3976 -8.25364 10.4387 53 53 44
-10.5829 -21.1282 -7.62891 71 76 81
12.9388 9.26332 12.7662 44 49 52
-22.1099 13.7343 -0.261265 50 54 57
24.9797 15.8007 9.30589 49 53 57
-15.2275 3.69272 6.50213 33 39 42
14.7783 -3.47601 -10.7501 82 87 75
-44.007 10.4867 6.53368 71 75 78
22.7049 7.72943 -10.3835 91 102 111
22.6567 -20.5946 -1.14438 3 21 22
-45.9893 8.59606 5.60358 61 68 71
31.0293 -23.8077 3.36246 20 22 26
20.1982 18.8404 -7.95747 56 60 50
-0.797562 -9.15111 -10.1677 68 84 74
7.00078 3.98283 9.27919 45 50 54
25.8421 -2.20061 7.52483 44 48 54
27.1339 6.06815 10.0359 46 51 54
-8.64275 10.2914 8.38662 30 34 33
-31.9934 -11.0444 -4.71624 88 105 52
-5.06177 -1.82809 13.4753 47 52 53
-13.6563 19.1481 -3.03471 59 64 68
30.1931 -22.6743 -0.0833206 54 59 54
35.0914 -25.2188 -2.99041 69 77 80
-10.4188 7.21565 -11.6672 169 166 73
-9.63491 11.5893 -6.00394 73 76 79
-46.1045 7.52818 4.39118 56 65 68
-18.6983 6.72928 -6.77061 21 24 25
45.6803 -11.04 0.090157 28 31 36
-1.68723 -0.506163 -9.08306 6 1 10
-35.1633 -11.0357 0.160492 16 26 25
-35.9676 8.43426 -5.87414 201 207 97
-35.1893 -10.2731 0.300407 31 33 32
-2.81464 19.4082 -9.74792 94 104 108
-9.90347 -18.5846 -7.98813 59 70 76
26.7308 12.3437 -9.92345 121 131 133
-16.1519 9.8709 11.5003 53 59 63
-36.2798 -10.9396 6.70295 35 42 46
31.9274 9.79902 -6.25344 104 102 108
9.20509 -9.76311 10.7649 60 61 43
3.31773 -8.4318 -10.5601 156 158 68
-29.0151 -10.5393 8.54347 31 38 39
31.9313 -25.6977 2.72331 34 35 40
14.8209 17.9606 7.77726 10 12 13
5.39377 -5.80657 11.2172 52 54 34
-3.40278 18.3493 9.9153 42 51 51
21.9173 -4.27812 10.2951 56 60 61
26.7521 16.2648 -5.13756 29 35 40
-38.5816 10.3303 7.2839 46 51 57
33.9325 -10.2121 5.47848 18 22 26
24.5006 -3.17466 7.22843 5 6 8
-40.8731 8.87978 -5.27755 171 175 68
-7.58345 9.54507 7.19022 21 25 29
14.2635 16.1115 -3.28355 67 84 66
13.8811 10.5156 -6.91007 18 23 24
2.61297 8.19977 -7.46012 66 68 79
8.69256 19.8283 -3.76492 58 67 78
40.4595 -16.6548 1.28212 15 17 19
7.94294 1.18528 -10.1418 117 130 135
24.4096 18.4663 1.35774 25 29 32
20.6458 10.2956 -6.29766 21 36 33
10.1165 31.5208 -0.745871 42 48 48
-4.87922 -8.72253 8.9035 36 41 46
-9.91099 -8.00901 8.67953 21 23 30
7.77802 3.89657 9.67416 56 60 65
36.3605 1.73774 1.67542 21 26 30
-20.7453 -4.53701 7.70069 33 38 41
9.69886 -2.68023 11.2375 76 76 42
36.2176 1.70609 2.072 26 33 35
35.3254 1.50971 -3.08313 51 58 64
-12.862 -0.638896 -7.66798 27 36 36
29.31 9.27322 -9.49916 76 83 91
0.171022 18.9399 -10.9809 92 100 100
18.4471 10.4732 -4.21247 9 9 20
15.6428 20.1219 -7.32159 45 50 52
-6.19641 -12.8553 -8.88303 35 40 43
-38.5446 -14.7013 6.20526 28 34 35
26.6149 16.8279 -3.73894 33 41 48
21.0241 -7.23459 8.92745 15 21 23
-3.66534 17.8862 9.55984 71 67 43
-17.4999 -21.9616 1.32985 35 37 39
-9.61479 -15.921 9.87271 34 40 40
29.7548 3.24361 -1.59393 6 4 8
7.80139 26.453 -5.56923 47 50 55
-42.6936 8.98621 7.47455 56 62 66
-1.3604 -23.3547 8.00273 42 45 52
-41.3503 -15.3148 3.3082 12 8 14
-36.256 -8.47762 2.71843 25 29 32
-34.7356 -9.53591 -2.67488 3 3 4
5.61961 -17.9642 8.02042 41 46 45
-45.6964 8.69999 5.90942 63 71 74
-24.0306 -10.5391 -5.90271 24 34 21
27.9447 -9.89882 5.64494 24 27 26
-22.8851 -9.43006 -1.86034 15 14 14
-37.2174 -17.344 6.54834 38 42 45
-21.3053 -7.29504 6.23863 27 29 31
-33.8163 -24.5588 0.858482 12 14 17
4.78191 16.4834 11.7808 38 42 47
-25.597 3.31652 -4.12991 102 107 98
-18.345 -19.5863 5.56371 32 36 39
4.21295 14.6517 12.4913 45 51 56
-12.51 -16.8576 -8.64602 68 80 87
14.9567 0.95702 -11.0748 186 185 84
-18.2329 -20.0596 3.23892 4 3 1
4.18593 9.09219 -11.1632 73 82 88
-35.5313 -23.8158 2.5184 22 24 26
-22.9933 4.34557 6.46738 34 34 37
12.3929 10.9997 10.1022 30 36 39
26.0156 0.456229 -10.2543 28 34 40
15.1704 -0.252172 11.3109 69 70 43
8.32462 23.954 5.82355 22 26 31
-17.5459 -17.2607 -8.48317 88 105 108
26.1681 16.331 -7.09803 18 23 23
-12.0954 20.7448 0.928746 41 45 49
7.97946 27.1486 6.51551 38 40 46
-42.0691 10.7216 -4.36214 108 115 62
-22.4526 -5.6977 0.535667 33 42 42
10.0578 26.9248 -5.60548 103 104 99
-14.543 -22.9609 8.08801 45 49 52
17.5819 -5.08725 11.2332 72 71 43
12.3695 -19.8933 5.45074 30 23 30
-19.443 7.30457 -6.69569 21 25 22
-36.6865 -23.6004 -2.27575 13 14 17
18.1564 15.1155 -7.91956 18 28 23
16.899 20.6616 4.23995 39 43 46
12.4528 21.9639 2.52342 17 26 29
19.888 -9.88356 6.70502 9 7 10
4.54581 10.1421 -11.8807 87 85 95
33.0866 -9.44546 -7.09622 69 73 80
16.312 -13.2574 7.74109 47 52 55
18.4948 -14.173 4.71486 3 0 5
45.781 -12.1838 -0.309013 71 77 83
-16.6701 -24.2681 -3.13468 60 68 73
-17.2243 -4.42137 -8.17741 39 46 43
-35.4217 3.95236 0.0259361 38 43 38
31.4347 -4.71929 6.16377 37 39 41
-20.3147 -10.5336 -6.84644 126 136 81
-37.2803 -5.11956 3.79688 35 39 44
6.73474 7.37268 11.4452 55 60 64
-40.7847 -13.6468 1.96532 73 76 71
24.2669 -15.6281 4.64632 31 36 38
3.35233 27.917 -3.89638 87 88 101
-24.2883 7.81008 -8.37453 37 47 53
13.1026 16.3006 -1.12622 56 60 55
5.91263 16.6813 -7.87334 12 9 19
-42.5892 -16.9605 -0.647972 23 27 30
2.1076 9.81685 -8.27813 29 41 37
20.3071 -0.37254 -11.6031 94 104 110
-29.6946 5.62698 -6.74223 92 100 84
-16.7702 -23.3713 4.658 35 39 43
6.90724 4.97969 8.71575 45 50 53
-36.7842 -13.4305 -0.362083 0 2 2
-9.5205 -0.24292 12.8341 38 45 49
4.29889 20.8597 8.773 23 26 29
1.80688 -4.02935 10.8628 48 52 51
-12.5774 4.55908 -11.2094 54 66 70
13.9849 -18.4175 -5.63506 33 51 47
2.63509 -23.0548 7.97939 62 63 43
14.3384 -9.03577 -10.376 70 78 65
-4.60384 24.6765 4.30008 49 54 57
0.438301 -10.3884 10.5925 39 46 48
39.2412 -17.709 -5.30767 81 90 95
3.69183 28.2278 -3.85146 86 91 99
44.4267 -7.79389 1.07747 34 35 38
17.5607 7.19259 -9.96031 59 64 68
29.1031 5.82172 -9.60568 34 40 44
-21.9143 -8.72649 5.10203 0 0 1
34.8882 -16.0815 -5.70425 57 65 67
24.1296 -11.4514 -7.00704 99 105 105
-43.9548 11.2701 -2.80072 51 59 55
-1.4908 1.38158 12.737 68 70 35
-26.0441 -21.2955 0.954842 49 51 52
-1.21604 -12.9854 -9.56907 143 150 60
6.68785 -3.64585 11.1502 47 50 52
38.3963 -23.1702 1.00695 8 10 15
-22.6315 11.3073 -3.29 38 45 47
-34.2584 -12.0188 -4.64071 97 102 68
20.2938 19.7329 -4.14883 51 56 60
29.4573 -22.138 -0.124321 97 110 121
31.4415 -5.27247 6.5431 52 53 55
2.37824 -10.8785 10.5897 67 67 38
16.0631 -11.4132 -8.29352 33 40 46
-17.9396 8.86575 10.7692 47 51 57
2.53326 23.6243 -6.69777 29 33 30
-9.14175 -11.5466 9.88544 21 23 28
32.674 11.077 -3.84225 32 38 44
9.70702 -7.99728 11.1649 59 60 38
-10.7665 -0.0108557 10.2404 17 21 25
-26.4956 -9.34298 1.57082 5 5 4
2.09501 -15.7677 9.14738 62 61 33
-16.7148 -23.5301 3.96973 34 37 41
-5.04866 -3.43955 10.0225 27 25 31
37.4689 -25.4853 1.78921 33 37 41
-10.7575 8.68722 -11.1269 94 103 66
-39.2253 -24.0336 1.55308 26 27 30
13.9041 10.1376 -11.0516 52 58 73
-29.3072 6.92085 9.59389 52 56 59
-34.6958 -9.56643 -4.64415 34 39 39
-19.8091 -10.4716 8.62476 46 49 49
31.1065 5.76288 6.85232 23 24 30
-37.9401 5.98898 -4.57671 107 124 110
2.25055 7.86158 -7.39357 67 70 77
-40.0954 4.73229 0.332531 38 44 41
33.9622 10.0575 -0.994068 9 9 17
24.7001 -20.307 -2.6174 10 24 17
8.38294 22.0002 5.67641 34 37 41
22.6296 19.3669 -0.248845 43 47 52
31.473 7.41231 -7.10544 42 56 54
30.0251 -20.2674 3.39313 8 8 16
10.6664 3.65563 -9.86374 73 82 98
-17.7322 -21.3232 1.52482 18 20 21
13.5103 10.5218 -7.14019 12 20 20
32.2649 -12.0626 6.62123 41 46 49
-18.9843 -16.4152 -8.43433 62 80 84
-17.0594 14.3733 -7.45405 57 83 83
-16.2612 -3.61733 -4.91648 28 36 36
17.993 15.5556 8.82462 0 1 0
-8.77717 17.6507 -6.82988 39 39 66
-22.6854 10.5673 -3.29882 24 31 32
-2.00028 15.6508 -9.11181 65 75 76
26.1715 0.505822 10.0065 46 51 55
-22.3905 7.62868 -7.515 31 40 44
30.8622 0.933956 4.43225 29 33 38
30.0251 -16.1441 4.76225 20 22 26
31.1487 9.45727 8.06382 41 48 50
-7.92584 17.1048 8.07491 39 43 44
-6.87693 -10.5264 -5.61814 17 30 32
4.05019 10.173 -11.7073 75 85 93
32.2983 12.4136 2.42437 23 28 30
-32.263 -1.79387 2.87149 15 17 24
10.4411 -20.6681 8.09976 42 48 51
-40.7199 8.39637 -5.33352 160 165 77
4.76782 -10.3825 10.5376 60 62 42
33.8553 -3.47233 -3.75061 33 36 36
43.9884 -9.22461 -2.39275 40 44 48
-33.0222 -11.5217 -4.68529 134 136 62
36.252 -21.6465 1.24712 10 14 14
19.7495 -5.81274 -11.093 72 78 79
25.0683 17.9741 -1.76979 33 39 44
15.1036 -19.8007 -4.26974 41 52 60
-17.5314 -13.2872 -7.41486 36 57 50
30.022 13.3147 -5.83819 33 37 43
-35.3405 -12.0593 -4.60703 41 47 38
-41.4258 -19.5206 -2.15005 26 31 32
-32.8885 -9.45492 0.0793152 9 13 11
-16.8382 -4.4624 10.2129 26 29 32
41.6895 -19.1476 0.0181427 14 9 18
-45.2899 -14.7077 0.663948 35 40 41
7.05936 7.01785 -9.0068 36 41 43
-15.0603 -23.4431 8.10304 55 60 64
2.1982 -12.7312 10.1941 36 43 44
-28.3189 -11.3046 -5.79016 26 34 24
-45.0887 7.56865 -3.75385 87 103 107
-40.4986 -23.7358 -1.1424 49 51 59
20.5325 -17.4451 0.865837 8 2 8
-15.0755 -5.89412 14.53 76 79 52
12.1084 22.368 -2.57231 38 51 59
-34.1264 -3.54762 4.0169 28 33 37
-13.5827 -16.2068 9.83313 48 53 55
31.6149 -13.4785 8.01345 69 70 44
-0.329279 -8.30592 10.848 50 50 41
21.3058 18.6785 6.97698 38 43 46
-22.8402 5.53154 8.7931 51 54 56
-31.781 -12.0822 -5.17619 32 40 25
28.5597 2.43193 -6.68136 10 9 17
29.4804 -22.4375 0.996758 28 33 35
-16.0105 12.5973 10.4647 45 50 55
30.5517 -23.5263 2.81585 6 7 13
42.202 -12.8556 -3.27134 85 94 105
32.8796 -3.00053 3.61831 18 20 23
-2.13954 18.9412 10.9499 49 51 57
18.3013 7.2036 10.0264 34 38 43
-18.3819 -19.7329 3.35924 4 3 3
-9.08658 -13.0619 8.45102 15 15 15
-2.40427 25.9585 0.457096 67 75 78
7.91333 13.9585 9.86298 18 20 28
-3.79346 4.38734 -11.7567 82 87 49
32.3274 -23.3388 2.83881 19 23 26
31.4505 -13.7086 -6.10823 86 94 91
2.41539 2.35204 8.66422 44 48 51
35.4151 -17.9157 4.8821 31 35 39
-8.28206 1.28852 -11.9152 66 82 83
-17.5155 5.69039 7.26989 36 39 43
-41.4669 5.45027 -2.29288 71 84 72
-30.781 11.6233 -6.38065 64 74 78
38.1279 -23.098 2.53602 10 8 15
-31.5308 -20.7145 1.4604 8 2 7
10.8017 15.8069 1.30975 18 17 15
-31.3165 12.1446 -3.57849 46 52 55
29.9549 -2.43746 -7.26263 94 106 116
12.8157 10.828 10.1322 26 28 32
-30.0783 -3.6471 3.35845 11 8 9
30.2341 -16.7899 -5.53423 28 34 40
20.5134 18.3514 9.14648 45 49 54
-11.6544 -15.4764 -8.01772 14 16 20
-31.0869 -9.67507 6.68629 38 41 46
-18.9654 13.9348 -7.2141 79 92 93
20.5927 9.53497 8.10852 34 36 40
-6.36507 6.51245 -10.8889 25 37 39
-28.2723 12.9195 4.26831 41 46 49
20.4646 -17.2729 -1.79503 15 4 17
-8.75921 19.1397 -6.76139 53 70 67
-33.0558 -11.5479 7.57672 24 28 33
33.928 10.2267 0.740005 13 16 19
35.5409 -7.50572 4.94736 29 33 37
-18.1242 -5.06586 -8.30941 38 45 39
-42.2023 -18.084 -1.08847 23 28 29
-2.49035 -12.8201 -9.50569 147 145 59
-29.5399 -11.569 -6.31931 41 46 30
-36.7877 -3.34685 -2.46132 23 33 42
1.92297 -23.1514 7.99636 71 68 40
-41.3264 -8.64355 -0.140457 13 14 21
-35.6256 -17.4287 -4.02639 48 52 53
-41.494 -22.7122 -0.413486 51 60 64
-7.98331 9.7494 -5.6169 12 13 22
4.787 20.267 7.26011 6 7 13
24.1223 -3.29648 -7.59157 1 0 9
30.8138 9.88078 -8.33864 59 68 73
31.6089 -15.155 5.41358 40 45 48
34.0631 -14.7378 -6.16412 198 194 110
-4.17756 10.884 -6.03461 49 61 68
-25.3477 -4.23409 -1.62759 3 4 12
-16.6438 -23.6959 4.55824 34 39 42
-9.5131 -12.5475 11.2623 43 44 35
-33.6124 -9.73594 6.7498 59 64 69
5.19923 19.7088 7.00797 1 0 10
34.9272 -24.499 -3.0487 113 127 134
-16.8574 5.18578 -6.03205 17 20 19
-12.431 -23.4871 8.75649 4 3 8
19.3406 8.77948 8.66623 16 18 22
-2.96924 -16.3909 9.29343 36 36 35
19.5285 8.74421 -8.76416 24 30 34
-38.2517 4.46969 1.69976 25 29 25
35.0318 2.15529 1.02526 13 15 20
3.90039 -21.8196 8.01085 67 66 43
-24.9385 -14.1977 8.43182 45 49 55
19.22 7.90588 -10.026 75 85 87
-20.7585 3.64311 5.81997 14 17 21
28.53 -3.24512 6.98342 46 51 54
-8.70342 -19.9129 8.10983 21 20 24
-1.35573 15.2815 -9.56121 60 68 76
5.91896 3.20666 9.42995 36 41 44
-36.4901 4.8928 5.39652 1 0 0
-6.80507 5.25689 -11.9882 70 82 88
-5.29146 20.4902 8.90422 53 57 62
31.703 -21.9525 1.99642 12 11 15
13.2358 7.10383 11.3491 51 54 59
33.081 11.5359 1.68512 14 19 22
-11.5505 1.63699 -6.43038 20 26 31
5.99228 -6.68345 -10.9183 147 151 83
39.4797 -9.28601 -4.31269 7 0 5
25.2549 15.4892 9.35912 42 46 51
-7.08183 19.1888 8.36642 48 51 55
39.1318 -22.6234 2.48591 14 15 19
-21.7483 14.0738 1.95211 44 48 51
-11.3137 5.82321 -11.6444 54 69 66
-39.9436 -4.33352 -1.61485 24 27 29
28.9757 -10.8723 -7.25505 127 135 89
3.8222 -12.082 10.3248 29 32 34
20.0272 19.1722 6.72669 41 45 48
-36.4497 9.08207 7.8087 48 55 61
-16.4477 -24.1891 3.76025 33 37 41
-8.65655 10.0238 -7.65877 15 22 25
34.7194 -16.6453 4.18468 35 39 42
-39.4127 -4.34438 -2.07799 84 101 107
-16.4694 -8.42855 14.7553 70 70 49
-8.78327 -7.24137 8.9257 39 43 44
-44.3363 5.63741 0.0398407 61 66 65
32.2238 0.228874 -5.39091 82 93 100
-30.1149 -9.11454 6.68964 49 52 56
31.41 -7.6242 -7.49949 90 100 106
-40.5733 11.151 -2.99173 47 55 55
20.6107 1.44449 -10.816 88 98 92
-5.73866 24.074 4.84785 45 49 54
-8.75074 21.6861 6.63472 53 57 62
-3.82514 5.42669 9.75003 28 31 34
8.61903 16.4618 3.20134 2 2 13
31.0659 -15.8124 4.16856 34 39 42
31.9652 2.32603 2.22596 30 32 37
-11.1032 3.56351 -11.5418 51 67 71
-4.82211 19.4235 -8.18353 85 83 64
21.2341 -17.4285 2.43874 10 9 14
-11.4819 -22.0981 -7.7533 90 100 108
15.2932 -12.5643 -8.44983 49 61 62
10.437 28.4251 -4.61972 35 25 40
9.72429 16.8421 2.26049 2 0 0
27.6429 15.5154 -5.749 31 35 37
30.6176 14.3144 -0.919761 28 33 39
28.0398 10.0531 -9.98381 158 164 168
-23.2073 9.68924 -4.82442 38 45 48
-0.64658 -5.64131 10.8013 37 41 44
16.3791 19.9987 2.94057 7 19 19
37.2966 -19.9338 2.6621 3 3 3
-34.0248 -24.5066 -2.74559 40 52 59
-18.5557 -19.0973 5.09756 25 24 26
12.3386 24.2651 4.76356 12 15 16
-33.6255 -22.8985 1.19828 27 14 10
-7.8086 -14.5638 -7.3466 7 6 11
-11.5137 -8.27492 -10.2754 4 1 12
-14.6912 -26.3764 -7.31173 94 102 112
-11.633 -17.2419 9.53705 52 57 59
4.98755 -12.9737 -9.64998 145 147 78
8.23908 14.156 6.65813 28 30 31
12.5643 -23.4132 4.35928 21 22 31
11.4896 -0.462799 11.0802 51 57 55
-26.9585 -3.57101 -2.29226 12 18 14
-18.4754 -19.0129 5.66751 36 40 43
27.2635 15.5078 -7.68783 29 31 34
-23.4921 10.4351 0.408443 5 13 9
0.335972 25.4742 -6.24148 48 55 57
-34.6507 -16.2097 8.78527 71 67 46
21.3786 15.5499 -9.57998 82 87 95
5.51415 1.83082 10.004 50 55 57
-22.9436 10.5587 -2.5005 21 30 27
7.82458 15.5448 3.45609 6 2 7
9.20589 22.2134 -4.19247 55 59 70
14.3259 10.7349 8.75472 36 41 45
-11.8842 -19.9817 -7.37606 49 60 58
-32.4733 -15.8401 9.05933 54 57 51
-6.18839 22.0436 8.09912 46 51 55
32.7287 -0.907619 -6.08803 86 95 101
27.2656 -24.183 -2.6665 31 41 42
4.28256 -3.44437 11.0007 57 60 52
2.9043 -13.3433 -9.58862 132 127 63
-12.3363 -23.8343 8.83269 1 0 1
21.6738 -6.10444 -6.81707 19 19 30
-10.3843 17.5686 7.63118 44 47 55
-18.6963 -19.1363 3.29105 3 3 3
-0.475323 21.9097 -10.3707 151 156 99
-30.3477 -17.0387 8.197 31 35 39
21.6497 2.13916 -11.109 96 101 67
7.94643 4.58956 9.26405 38 43 46
-10.2634 21.4291 -3.40502 63 68 71
-11.7579 -21.5926 8.37797 24 27 29
-36.7729 -5.271 1.20197 30 32 34
-11.5203 16.0755 -6.25413 26 28 43
-31.5789 -11.7295 -4.77278 42 59 56
-17.8184 -20.6704 6.10221 35 41 40
-11.4481 17.2002 -6.19436 53 64 69
12.6469 -11.4323 9.73634 73 73 43
16.294 15.6948 -5.8393 6 36 7
10.7508 -13.1367 9.40495 65 65 41
39.0056 -20.3124 -3.70928 20 18 27
24.4497 -1.69789 -8.47471 14 6 32
42.5341 -22.3785 -0.324949 59 64 63
35.3593 -8.53496 -6.08097 102 111 114
14.7986 24.8334 -0.342608 8 3 12
19.5356 11.2684 5.44361 16 15 18
40.6914 -23.0277 2.69077 43 47 50
41.0317 -4.05465 1.84109 30 36 38
-34.7576 13.2997 1.95546 41 46 50
19.6819 -10.1846 -7.08791 5 0 1
7.23872 14.8177 9.58308 16 16 24
24.4814 -21.8593 3.20964 37 39 45
11.9472 -8.07805 11.0678 68 69 44
31.1364 11.9425 -5.9029 41 45 42
40.7038 -6.02863 3.1478 26 30 32
19.7087 9.98158 -6.57119 34 38 40
-3.23821 11.2719 7.26571 44 50 53
-16.3817 -16.6433 9.69344 53 56 61
9.57863 11.8426 -10.7088 31 26 32
28.8728 -13.7154 6.349 42 44 36
12.3806 10.9867 -7.32536 8 13 17
-38.8858 11.5236 -2.62865 67 74 78
39.0126 -8.54069 3.47915 3 0 4
-15.0383 -11.6448 -6.22303 18 38 30
17.6076 7.59426 11.0562 53 55 38
-32.4433 -8.81951 6.70983 45 50 53
19.5386 -6.16366 10.9077 69 69 44
-39.7883 -15.0554 2.58251 35 34 37
-5.61694 7.14715 -6.92279 4 5 13
8.55267 -18.4466 -7.88824 89 98 91
32.7019 -7.60261 5.98134 27 30 33
8.32653 16.1939 3.3778 3 6 11
-21.2841 5.92782 -7.00278 49 63 65
-38.333 -10.2977 4.93455 0 0 1
-17.6159 -21.6423 1.42648 31 32 34
14.6946 10.1944 11.3435 49 52 57
-30.5807 -10.8525 7.93404 22 27 30
24.3394 -4.59342 6.60548 7 7 7
17.6591 19.5805 7.80034 41 46 48
31.6622 -3.46944 -5.29578 2 0 7
16.944 19.6272 -8.41161 48 58 53
-37.8328 -2.46431 1.73081 21 24 30
8.89398 14.784 3.66821 14 17 20
4.22009 17.9665 11.455 36 40 45
-42.627 -7.75573 -2.06005 64 76 74
14.8102 19.3643 -6.43333 22 28 29
-37.8341 -3.20873 -1.85074 34 32 41
39.7385 -19.983 0.308228 14 12 16
-32.6782 -7.85148 1.39283 7 20 21
-13.0039 19.822 -0.491077 52 58 61
26.5388 10.9804 10.2368 45 52 55
23.8366 -0.66048 -11.1403 69 79 77
-25.8101 10.4575 -7.69304 43 49 52
27.8155 15.0406 -7.78407 35 36 41
27.3595 15.7386 7.4023 40 35 41
39.457 -11.6541 -5.72492 30 32 34
15.4685 17.9933 3.76904 0 0 0
-12.2824 7.80252 -11.2283 129 128 57
34.5486 -25.4511 2.92963 37 40 44
-5.46271 19.5474 8.86862 48 53 57
-35.5764 -15.5701 8.41888 46 46 48
29.0752 8.08187 -9.52945 77 85 91
-11.3509 15.8352 7.48159 46 50 52
30.9552 4.45546 -1.94545 6 7 8
31.5635 -19.8446 4.97018 45 49 53
-10.1774 1.48868 11.0938 24 28 31
-21.2487 12.7631 -5.99507 68 79 84
16.8143 -16.9274 -5.81944 50 60 65
10.6907 23.0596 -3.93001 71 77 91
33.3454 6.5572 -3.79704 23 42 45
26.5651 9.44442 10.4977 49 54 57
-0.257828 0.650154 8.65411 31 33 35
-44.4679 7.21518 6.18502 51 55 58
-16.493 -24.7074 -3.43682 52 61 65
36.978 1.60894 2.10565 36 40 43
-14.4913 15.327 -5.53323 42 55 61
-36.6907 -16.0289 -3.40396 28 31 35
31.3859 -22.3654 -2.54838 36 35 39
44.0368 -19.9072 1.28775 38 42 45
9.53088 5.7591 9.05361 16 20 26
21.5703 19.8578 2.31157 31 34 39
-14.1343 -15.4186 -7.11718 4 4 10
25.8319 17.4997 2.80801 36 41 43
-11.9362 2.45003 10.4484 27 33 38
-32.203 -18.3179 8.14508 28 34 33
-13.4375 15.4275 -5.86852 65 78 85
31.7094 12.4141 4.22436 23 27 31
15.5157 2.55659 10.955 79 79 41
-1.40407 -2.28165 -9.63662 55 57 39
-19.7935 -14.7825 -7.88961 77 96 96
19.8077 -8.75862 9.9105 45 49 53
-23.5398 -13.6973 8.37573 40 45 50
4.39952 6.25002 -6.78872 51 58 55
28.4339 3.55807 -10.775 86 93 99
-22.1602 -6.65718 -4.41212 45 50 53
45.4997 -10.378 -0.0747223 47 48 52
-1.2731 11.6401 7.79732 38 45 48
8.25859 20.3745 -4.25439 51 52 55
22.862 -21.0526 -0.947365 7 11 18
-23.5134 3.33642 -4.51457 83 97 90
-45.125 8.24079 6.11417 54 59 63
-38.5134 -14.3389 6.51448 35 40 40
-35.1752 -9.47246 0.260902 56 67 83
-37.315 -3.26882 -2.2631 36 45 51
38.9421 -2.2027 0.159088 11 12 18
-12.0599 -0.396646 8.98382 16 22 27
-18.0883 -13.3883 -7.35515 43 64 57
-18.7221 16.1167 3.35301 40 45 49
-29.4452 7.75147 -8.33304 76 87 97
26.9246 8.29365 -10.3866 95 103 113
-35.9414 8.28458 8.00689 51 55 62
14.6582 10.6828 9.14102 40 45 45
15.6005 -0.9202 -11.1465 160 159 78
21.1835 8.84509 -10.0423 60 73 73
24.3334 -9.00188 4.6899 2 1 2
-28.0707 11.8986 -5.86273 49 59 58
-14.645 -2.6585 6.44803 15 15 19
15.4232 -19.3716 -4.55681 35 39 40
1.12432 2.73128 -6.75897 42 52 60
-20.199 -6.07847 8.8383 42 47 51
-34.6181 -11.9939 7.0874 26 32 35
-18.7375 14.4455 -6.79084 68 78 82
-37.3216 -2.53372 -0.883015 41 50 50
-17.9651 16.2601 -2.85381 54 64 64
-1.16808 19.9583 -10.5774 116 125 77
41.7142 -11.3527 0.254303 33 38 41
29.4887 -25.703 1.25529 34 35 37
-40.9697 7.42434 -5.03537 106 111 89
-16.4032 15.7106 6.41375 47 52 61
25.5771 -2.63533 7.6192 53 59 60
-19.3077 15.9495 1.57061 43 48 51
-36.8776 -16.8078 6.73563 66 71 73
5.66685 18.0895 7.74818 12 12 18
7.47417 31.9478 1.38136 54 58 61
-16.5253 -3.1628 6.73381 30 34 37
-19.7947 15.6494 3.05095 44 48 52
-40.3296 -23.5413 -1.46897 50 55 62
28.1143 -13.7341 -7.34806 141 148 108
-17.6975 -20.9024 7.41131 38 44 46
16.0637 -19.1447 -4.54719 46 55 57
27.1471 -5.63825 -7.98095 172 171 101
-45.034 -16.5753 -0.231365 52 57 63
2.4033 -7.15288 11.0246 42 47 45
25.9353 -3.28684 7.57573 52 57 59
-42.8495 -6.23668 0.288268 17 16 21
-9.23016 2.4651 12.7386 48 51 55
12.7994 2.64828 -10.4857 178 174 79
-16.5129 -25.0733 -0.813099 23 19 32
-8.47123 18.3038 8.02869 47 54 59
18.9031 -2.79981 -11.5148 83 89 89
-9.34182 -14.4785 10.1486 63 62 30
-13.0168 -12.2232 -9.16832 51 55 59
-26.1879 -3.28204 3.08736 4 3 2
-11.5994 -8.20341 -10.802 15 14 20
-4.88662 -7.59668 -9.15802 47 52 49
-11.9621 2.26434 9.54304 26 28 33
38.9127 -17.5687 -5.79345 38 42 47
-2.74834 24.8775 -7.01956 66 74 74
36.6197 -3.13789 -3.318 84 93 100
-28.3167 -24.7446 -2.61638 78 81 90
-14.2847 -10.7977 11.893 54 57 38
-40.648 -22.6537 -2.18609 74 84 88
16.0482 5.84909 10.0139 38 44 45
-21.883 14.0033 0.836857 39 43 46
-40.6455 -20.7616 -2.71971 65 78 80
-40.0054 -5.47473 3.94206 52 55 60
-11.1567 -9.42482 -10.489 4 5 11
37.8891 -14.7377 4.93569 39 43 46
25.5345 15.5233 -9.06184 77 86 93
12.5299 -9.59227 -10.5885 133 136 60
26.6399 16.3767 6.12116 34 39 40
-29.1401 5.53077 -6.83668 88 101 79
-10.8942 -9.4535 12.4268 30 32 22
-6.19741 24.0088 -2.33736 46 51 54
-10.9636 -13.9312 -7.00017 25 18 34
7.21651 23.4838 6.34679 20 24 28
-11.9481 19.0063 6.5985 43 49 53
36.0345 -1.621 2.11324 26 28 31
7.53247 23.0966 6.20065 28 33 36
-10.6798 21.3472 -1.51115 52 57 61
-7.97794 -20.3862 7.97988 4 7 10
28.333 -1.45808 -6.82025 104 114 123
-14.1451 -20.038 -7.43649 82 94 95
-8.99411 12.9156 -6.65607 24 25 44
-3.47599 -24.4439 7.98476 42 46 49
0.489632 1.4364 8.41667 33 38 38
14.8134 -1.20634 11.3058 61 63 35
11.0151 26.1007 6.03817 33 32 36
-16.4474 -7.60158 -13.3148 129 131 98
31.0544 1.89047 -3.38443 28 28 45
22.985 18.1411 -5.96004 47 55 57
-28.2364 -11.7412 8.85836 55 57 60
23.5987 -11.6198 5.13278 37 43 47
-21.4225 13.3259 6.1093 40 44 49
-15.0096 -6.26229 14.5925 73 76 56
-14.5123 -12.6182 -6.32048 27 45 44
12.4359 16.0899 -2.22024 88 110 89
-26.7631 -9.53397 -5.26586 40 53 55
42.8075 -19.3134 -2.99032 57 64 68
-6.07526 21.7486 -7.19071 61 72 82
18.4626 20.8617 -0.924919 42 51 53
8.51492 16.8339 -3.76137 41 46 48
17.4822 15.751 8.76863 0 0 0
5.37461 24.2423 6.46918 38 43 46
-38.3754 -13.7116 6.69121 37 42 45
19.1783 8.24721 10.1048 41 42 48
2.42049 19.2998 11.7933 51 57 61
-42.9419 9.72503 -4.8363 198 204 59
29.8283 14.3081 4.63208 30 34 39
6.25164 -22.0801 8.0192 65 64 44
35.3946 -18.4161 4.73811 35 40 43
-14.7885 -1.69812 -5.19021 67 78 79
5.39779 31.2085 1.54779 50 56 60
41.6469 -17.585 0.0569992 5 5 11
40.504 -3.78795 2.05539 25 25 30
-20.3469 10.531 -7.8525 55 71 71
11.4271 8.21304 12.9957 45 51 54
-30.1432 10.1946 -7.74311 80 97 102
7.23878 14.6921 -7.0214 28 26 35
0.0514927 -10.0886 -10.0071 118 134 77
3.56178 11.0959 -11.7056 60 75 79
-20.735 8.15531 7.64218 24 16 24
-7.16537 -6.46214 8.9762 38 41 43
41.5162 -19.9505 0.174049 11 10 17
-18.8325 2.33291 -4.48856 43 54 54
11.0493 -20.7076 8.08482 42 48 51
-10.8557 -2.11109 14.1829 70 72 44
-8.86166 -12.4996 -6.28216 23 22 30
40.5227 -14.2333 2.63122 26 31 35
26.3073 -2.84924 7.49268 62 70 68
12.5993 23.8281 4.28846 25 31 36
40.589 -15.9161 -4.43683 1 0 0
-7.97728 0.927917 12.8726 39 42 45
24.599 15.4325 9.5509 44 46 52
2.3296 27.7885 -3.16212 83 98 106
-17.6368 -21.5687 1.77364 21 23 25
31.7999 -22.8859 0.825249 10 12 13
28.3305 -24.4372 3.11827 46 51 54
-43.7125 -18.4189 2.17741 35 40 45
42.4535 -11.4765 -3.40555 71 81 92
42.5119 -19.7084 3.32133 45 48 55
1.91446 -8.57459 -10.4498 99 116 83
32.0538 -18.2294 -6.16625 100 113 116
33.6263 -10.5549 6.261 40 44 48
20.7904 -8.35693 7.43286 22 21 31
44.101 -9.67587 -2.16728 52 57 63
30.7927 -9.10915 -7.19275 123 131 111
-14.992 -0.308365 6.43732 36 39 42
16.37 20.5267 4.61865 30 34 35
-7.48102 23.2894 3.64575 50 55 58
-13.098 19.7673 0.0491219 53 57 62
4.7532 10.9424 12.705 47 52 57
10.5535 4.31294 -9.65747 28 36 44
-16.4606 17.0906 -1.32397 53 57 58
-34.8092 -1.46676 -0.071394 20 24 29
-16.8512 8.50867 11.2928 47 52 57
-23.7178 9.38462 8.27927 37 40 44
30.0871 -7.16031 -7.5714 89 112 103
-24.4546 -9.82577 -0.203342 10 13 12
-17.2418 -5.49854 13.3946 43 47 51
20.096 10.3037 -6.13354 20 29 39
-36.0033 -10.011 6.79616 66 66 69
10.3537 8.59623 -12.5298 91 104 107
7.26963 18.5042 4.76192 4 2 4
27.3771 7.11615 9.92286 35 38 42
11.0687 -19.2674 8.1553 46 52 56
13.3315 13.6276 -4.03508 55 64 63
24.9276 -8.93222 4.84636 23 24 25
23.9971 4.3694 -11.0276 57 64 68
-45.9662 6.82829 -0.842302 52 57 61
-17.9468 9.01297 -9.58387 74 89 94
-18.8586 15.6684 -4.38376 56 66 68
-16.7008 -23.5362 5.24369 33 38 39
-13.2564 -3.5691 -12.6103 146 154 91
-3.13551 13.9247 8.63675 41 48 50
-32.5675 -15.1644 -6.27428 144 154 140
36.0368 -12.1229 -5.65389 64 76 76
21.0053 8.93621 -9.47547 25 34 33
-0.324013 -23.7393 -7.68067 90 99 104
7.21811 16.5696 -5.08658 34 34 36
1.91349 -24.1557 7.97536 70 68 42
-16.4791 -16.2262 -8.51107 75 83 91
33.6902 -0.636679 5.0906 29 32 35
10.975 -0.0284691 10.993 42 47 53
38.4808 -4.26585 -3.42304 95 100 110
-17.712 -21.3965 1.17689 21 21 22
-21.7297 -6.22787 -1.86951 3 4 4
7.25251 7.58153 11.933 44 50 53
-29.373 3.1313 4.48166 8 8 6
-39.122 -3.94901 2.93354 23 26 31
-18.6704 -18.415 5.81985 37 42 44
-39.9796 -19.5309 1.89081 13 13 15
27.6579 -12.5221 -7.35182 123 130 95
12.4497 -21.8253 3.40632 13 14 17
31.4864 2.15557 -1.48507 4 3 6
38.0123 -24.5314 -2.64244 83 92 102
-41.1229 11.0545 4.9067 44 49 52
27.1616 16.328 4.63803 30 34 37
30.9339 -21.8999 1.09203 25 29 28
-27.8387 -18.0664 8.53201 66 69 45
4.42303 20.2629 -7.67428 13 12 21
-11.0965 -8.38757 11.5591 35 35 39
19.124 -10.4815 6.53153 8 6 9
-0.985481 19.7669 11.5812 61 68 54
-0.965101 1.76254 -6.78244 3 5 16
30.9767 -19.2232 4.95219 45 49 52
12.3724 10.9968 -6.82014 14 13 19
-0.707031 26.3799 0.297119 53 68 65
29.0809 10.6599 9.55358 23 27 32
4.59072 -2.81387 10.9273 75 74 40
27.5487 9.29714 -10.2196 97 108 113
-6.94741 5.0505 13.1083 50 55 57
-8.05805 22.923 3.77839 45 51 54
31.5035 11.1557 -6.44743 81 70 68
-20.0629 1.76218 6.14215 45 51 55
-32.6799 -14.7668 -6.10202 136 142 95
25.5759 -0.40411 -7.25219 14 9 20
-15.6241 -9.93527 9.21168 30 35 37
9.22005 6.89009 11.4413 53 59 62
24.448 4.99219 10.4332 44 50 52
5.709 7.30645 10.7877 55 57 62
2.12947 14.5884 12.2754 49 55 60
-21.2152 -7.49258 5.71143 14 14 16
5.68786 4.91308 8.26529 43 48 52
-2.24904 -0.357307 12.9908 63 64 44
9.40707 -19.4991 8.09864 51 55 59
-44.9369 -14.9716 1.77806 41 46 49
25.7655 -5.2826 -7.54042 141 141 85
-13.262 -3.39001 13.5949 57 60 44
-36.1629 5.08566 -3.83216 89 107 90
-16.5552 12.8451 10.2125 41 45 50
2.82378 -21.8647 8.00141 54 58 50
-46.5374 8.67864 3.03526 46 51 54
-2.64207 21.6254 -9.68747 118 122 108
-17.2792 -16.2067 9.64603 42 47 50
12.4003 -22.2594 7.67309 36 40 41
36.263 -14.903 4.35274 35 41 42
44.0485 -19.275 1.89129 37 43 46
-42.5276 -21.9814 0.143242 50 52 55
31.8006 -16.0379 4.19652 39 44 47
21.779 15.6565 -9.6757 93 111 103
-35.1599 4.05302 -1.386 56 67 57
-5.08213 -25.9019 7.99959 45 50 52
-14.9721 11.6375 -9.84173 56 73 62
-21.4059 -4.97879 0.736248 11 11 11
21.1779 -7.26554 7.77476 14 10 18
-18.2187 7.17192 -8.48659 62 73 71
30.1239 -7.68585 6.61097 36 37 33
1.56483 -14.9129 -9.06445 128 128 47
24.2873 -3.8799 -7.46913 1 1 0
-5.69383 18.8763 8.79055 40 47 57
-26.4396 11.3485 -5.90261 28 33 35
-35.1961 -13.7529 9.07234 45 49 49
0.615505 19.1088 11.9982 55 69 57
29.6216 14.4087 -4.44822 33 40 41
-28.6705 11.1319 9.14463 45 49 53
-1.74855 -16.1175 -8.73684 137 149 91
-2.04518 19.6021 -10.1855 84 96 89
24.1507 15.1926 9.7403 42 48 55
-34.0163 12.0657 -4.59452 51 58 61
-7.09624 18.2698 -7.36139 68 69 86
34.2691 1.84069 -2.70076 21 21 30
-8.42375 -21.6613 8.57964 34 36 38
-2.12585 -11.2485 10.5348 44 48 51
9.13947 29.5977 5.41239 34 38 43
29.015 11.4451 -9.11468 75 82 88
5.51211 17.9646 -6.97651 6 1 13
-32.6003 -8.07617 1.04219 10 12 23
-12.5822 -0.676966 7.05051 17 20 25
-10.2876 -10.3097 -10.2496 8 5 16
-1.27187 -4.96807 -10.0642 90 103 68
-36.4864 -24.225 -2.91724 97 109 111
-32.3147 13.6116 0.229025 55 61 65
20.3563 15.2299 -9.21235 20 12 16
-14.148 -1.53678 6.81937 39 42 45
1.88168 24.2321 -6.86912 38 46 45
6.54804 -16.9082 8.15495 37 43 45
-45.4376 6.2781 -0.694315 68 72 72
0.459198 13.3686 -10.2752 64 72 79
6.19851 21.2989 -5.03414 47 56 60
-29.3924 -9.91808 -4.94424 44 52 54
8.99424 19.4633 4.20569 22 26 29
22.2148 9.32118 -8.72694 42 55 55
-35.4364 -2.60378 3.6946 37 39 47
3.19555 -17.3757 8.27462 50 50 42
-10.7277 -5.2487 14.3568 72 70 42
10.937 -10.9316 -10.0577 128 133 72
45.3965 -12.3661 -1.25264 56 62 64
-17.2674 -22.7275 -4.77606 53 58 63
25.9954 17.5286 0.653717 30 34 38
-35.8616 -15.7811 -1.51455 3 3 8
8.80953 12.5972 -10.0527 19 24 29
27.9294 -12.9555 6.29566 39 42 46
37.643 -2.2805 1.68887 24 28 31
14.7649 10.5709 -6.75502 19 25 25
-42.4957 -21.3281 1.4997 40 47 51
-12.8149 19.8328 -2.38493 54 60 63
22.3376 16.6675 9.59524 50 52 54
-18.9092 4.03644 -5.28679 56 68 70
-34.4105 -17.9715 6.6018 53 59 61
10.8893 27.8309 5.78578 33 35 37
5.31777 -3.3996 11.0535 58 60 55
28.7425 3.60485 -10.5314 65 70 77
-15.5303 12.8176 10.3156 42 46 51
-14.8783 14.5791 -6.77385 36 51 54
-5.07825 21.5235 -7.85398 78 89 96
43.7298 -10.0706 -3.19543 87 94 101
43.729 -8.1128 -2.25044 74 75 80
-22.1679 12.9146 -3.59512 60 69 71
-1.16068 6.70275 -6.60702 60 77 77
-30.8783 -4.49812 3.02053 12 5 5
-2.41088 23.9963 -8.61411 87 95 106
-36.1157 -13.6427 -6.01797 146 157 94
-18.7741 -17.6609 -8.38196 82 100 104
-10.8971 1.49971 9.18822 23 26 30
18.5427 -13.647 4.82626 2 0 5
-24.6113 -7.49824 0.684006 34 41 45
31.1094 11.3983 -7.20241 47 53 51
-19.0151 9.54418 10.1455 44 49 53
17.6461 7.91339 11.7651 57 58 44
32.3797 6.99308 -5.5275 37 40 48
23.1943 5.05923 -10.571 91 96 108
38.9887 -4.78929 3.41978 19 22 24
12.2675 -19.5025 7.01584 22 23 31
14.1521 -18.9457 -5.19721 40 45 50
35.1156 -23.3264 0.448174 17 17 19
28.3266 -23.2848 -0.893272 3 1 9
-17.2026 14.2123 8.8742 37 47 50
15.6161 15.7779 4.38375 56 63 57
-7.10998 -4.84575 9.72783 31 32 34
3.57978 22.358 -6.27542 16 19 22
-27.3766 -2.98292 -0.795593 6 0 8
16.9136 1.68713 11.1344 74 72 37
-38.0589 -17.451 4.99475 12 12 16
26.5585 14.783 -9.09488 79 89 96
-5.58968 16.4866 8.59748 50 54 44
-44.6821 -18.089 0.407768 39 45 49
-39.9813 11.2722 5.31905 44 49 53
-38.4101 5.49003 -3.73294 94 111 94
28.5895 2.46231 -6.31855 10 5 13
-5.72873 7.03489 -8.56035 20 27 31
-28.3271 8.75575 -8.65538 115 131 142
2.34418 9.54279 -8.45526 21 39 37
-27.9432 13.5915 3.18887 44 49 52
8.24063 13.3874 -8.20457 4 3 10
-44.621 9.85017 5.80963 52 58 63
7.24766 -16.1422 -8.09829 76 85 79
-5.33243 -3.29313 -9.60061 18 8 16
-14.0114 19.0613 -0.516769 49 55 59
11.1784 -23.6639 8.02579 45 49 54
-22.7133 6.40177 -7.68287 48 61 65
33.3591 7.11448 -4.33944 49 54 54
-46.7258 8.45788 2.45048 48 53 57
16.7842 2.26665 11.0637 69 70 36
-15.5764 -3.19254 -5.46924 32 40 40
32.6402 10.6401 -4.41889 62 66 69
-38.0733 -13.221 1.12211 28 46 46
-28.6058 -10.6044 8.72645 45 50 52
4.97062 3.27289 8.95309 41 46 49
-24.8728 -9.84178 4.21333 5 6 17
11.7659 -14.7456 -8.35303 77 87 95
19.5877 7.59506 10.1893 44 49 50
0.296255 -12.5555 10.3024 47 52 44
-4.92469 -19.0813 -7.4907 59 58 51
-11.2897 1.54661 6.85173 12 15 19
35.6949 2.10519 0.497097 25 21 24
-16.694 -19.9495 -7.57149 86 102 103
18.4495 17.3853 -9.60487 104 112 104
45.1829 -18.1479 0.593472 35 39 44
-14.8876 6.01848 11.6127 48 51 60
29.5223 15.1631 -1.96548 38 46 47
32.6084 -7.35567 -6.12802 44 46 57
28.0159 -23.0896 -0.615997 12 0 11
31.1487 12.6956 -4.75192 11 13 22
35.2925 -5.48987 -4.22695 0 0 1
-11.9703 -19.4423 -7.68378 42 53 54
37.3098 1.16861 2.41776 35 40 41
33.9445 7.96913 3.40946 32 35 39
-15.1163 -4.13422 13.4597 38 41 44
-9.04291 21.8615 5.98881 47 52 55
6.91362 29.5981 5.21931 40 44 50
-0.576328 17.8744 11.5818 49 49 53
27.1312 -22.3522 2.76183 46 50 54
-39.4011 11.4005 3.67844 33 38 41
-32.5897 -9.27245 6.72361 52 57 61
14.3795 16.9598 -1.45432 62 67 63
-0.776491 1.46387 9.19852 23 28 31
8.48378 32.0406 1.30181 50 52 57
14.5713 17.4382 -9.04429 43 48 51
36.1878 0.467552 -4.19391 74 82 92
21.6288 19.8441 -0.803535 31 35 38
-23.0619 10.2164 3.90295 21 24 28
-16.9122 -13.1362 -7.07158 22 39 36
-0.0776997 -12.7569 10.2723 38 43 40
7.99824 -11.5794 10.2445 59 59 43
-41.143 -19.6036 0.121902 78 86 90
-32.0068 -2.3813 -2.37878 13 4 22
25.4452 -20.0629 1.92654 22 27 26
-15.4112 17.9617 -0.472946 50 58 62
15.0699 17.9831 -4.42812 39 44 44
-2.15075 11.8701 7.71526 36 41 44
-33.8894 12.0906 6.64384 39 43 47
-23.4476 -6.33417 -2.20217 49 63 68
10.4529 25.8097 -5.24888 55 59 67
17.6143 -10.7162 7.36475 27 25 25
-12.8165 7.40652 -11.2568 173 179 112
-15.1251 -0.877438 6.40829 28 30 33
-41.2999 -18.7152 0.231331 98 107 115
12.376 6.24681 -9.65169 15 14 18
10.6395 27.3039 6.0316 44 49 50
22.971 -1.76293 10.8968 48 52 54
27.7269 1.86952 -8.3892 11 13 19
-36.0423 -6.19416 0.00605774 58 60 70
-2.55097 0.432575 -12.4802 118 120 51
-18.7391 -0.568472 -1.59143 20 24 33
9.37468 21.9216 4.86318 36 41 44
-37.633 8.46083 -5.68346 181 185 90
-30.2368 -24.1744 -2.20728 16 21 26
33.9169 2.05665 -1.3858 7 7 10
33.8165 1.45869 -3.6313 41 50 54
7.80177 31.5441 -1.57815 81 88 86
7.00539 -0.172882 -10.3771 162 165 64
34.8796 -22.4687 -3.48311 19 18 29
-20.4092 -2.1967 6.19627 36 38 41
-43.565 -19.497 1.94232 44 49 53
-3.7722 -19.719 -7.43567 165 160 65
-11.7675 -9.09495 -11.8839 24 18 10
-8.9287 12.4414 7.54062 39 45 45
-35.6244 5.58295 -4.79309 106 123 108
16.7249 -17.3059 5.99158 38 43 46
-37.4086 6.07774 6.90087 4 3 3
2.31841 0.788185 -9.41253 75 86 90
-7.76155 -4.67329 13.3539 42 46 46
2.87141 -16.9423 8.52536 59 59 34
-19.0579 -11.7278 -6.40609 43 58 61
-20.4483 15.1831 3.39706 45 50 52
-0.691759 20.2546 -10.7328 86 92 95
-17.7201 -21.2756 3.14886 21 20 25
-14.2284 -11.3502 -7.15153 35 39 43
-14.5607 -2.80594 9.73437 22 25 29
-13.1181 8.32984 12.3426 74 75 48
3.4719 3.33197 8.37316 42 45 49
15.2427 -14.8465 7.72578 42 47 49
12.0336 11.3412 7.93963 20 26 28
5.35125 -9.11803 -10.6527 147 150 66
-15.217 -17.943 -8.38079 79 90 93
-16.5366 8.47807 -10.2533 45 67 68
-0.191277 -12.0905 10.4072 64 63 39
21.8429 -13.68 4.00909 21 23 25
35.3186 0.2833 4.1618 35 40 42
12.6579 -8.44649 -10.9221 144 143 56
10.0317 21.9847 4.56063 35 38 42
7.37643 -3.0802 -10.8983 179 168 96
-39.8179 9.02384 7.64249 67 71 62
-4.99925 -21.216 8.01372 26 27 30
-6.05363 16.3707 8.46228 57 62 46
7.36668 14.1776 10.9033 25 29 34
-0.523117 14.3334 -9.8702 68 82 85
-35.8072 13.0692 2.17881 41 47 50
37.366 -3.61407 -3.37791 86 96 106
37.7215 -8.59062 4.6749 31 35 39
-0.632355 -4.62618 10.7329 41 44 38
-15.6831 15.5234 -5.28772 61 69 73
-36.8977 -2.42667 2.20398 14 22 31
-5.2212 20.3778 -7.92393 66 78 81
6.35442 31.5094 -0.352959 65 71 76
-30.4312 11.3148 -6.82958 58 65 72
24.7586 17.9415 -2.77088 42 48 53
25.6867 11.1621 -8.53281 31 38 40
-28.8829 -8.23956 5.04929 16 19 23
3.82135 6.15547 7.7441 34 38 42
42.0982 -5.58051 -1.57471 37 46 51
15.673 -2.35096 -10.8154 118 121 80
26.5209 -16.1755 4.22112 37 39 39
-38.7632 -15.9826 1.77521 29 42 40
35.0052 1.90724 -1.38279 7 11 18
-17.9521 -20.7079 3.01303 5 4 5
-33.1197 -10.2745 6.67392 45 48 53
8.92904 5.77809 8.72956 15 21 28
-32.142 -8.82627 -1.00684 2 1 1
13.8033 -19.3881 -4.89258 36 47 50
-19.964 -0.443609 1.99601 31 36 41
-28.2276 -6.63878 0.134872 15 7 10
14.6618 0.606293 -11.0927 154 157 75
-32.7716 6.80279 -6.38833 145 151 55
-35.6528 -11.3947 6.68864 42 42 49
-28.07 -4.67899 -2.36849 106 119 114
-24.747 -13.5686 8.35729 50 53 58
37.9715 -11.1291 -6.21492 95 115 113
-18.4352 -7.62985 -12.1892 78 81 53
12.8822 21.7767 -0.644435 24 23 27
16.9276 18.9164 9.42786 43 49 52
18.489 0.922697 10.9546 66 66 34
-28.37 -4.15638 0.593773 5 6 7
0.528923 11.7978 -8.3516 23 31 32
-38.8758 -21.7862 2.65836 28 31 33
30.3642 4.30303 -8.64807 6 9 22
32.2422 -12.2876 7.81007 45 51 41
8.54465 13.5868 8.01494 14 21 23
18.0464 20.8122 0.0633011 37 40 45
-27.0949 -22.2962 0.474438 28 37 47
-38.5109 -10.5779 1.26884 27 44 42
-30.337 13.7098 -0.409851 59 66 71
23.5207 13.669 -9.28061 59 62 67
-12.471 -19.5469 -7.61851 76 89 89
-15.4057 -9.9931 10.5539 37 41 45
33.3206 -9.50727 6.26313 43 46 51
-24.4249 -16.503 6.3326 51 54 56
-33.842 -22.0495 1.91156 15 16 20
8.14787 13.0275 -10.392 22 25 29
15.4474 16.8128 4.131 54 58 54
16.3986 10.4835 10.7039 38 44 46
-16.7319 16.1034 5.38367 37 43 45
18.4995 20.9207 -2.92526 44 49 52
-13.8587 -21.7054 -7.20999 111 123 127
15.6044 7.90365 13.3779 65 67 52
-34.468 -15.0675 -6.17874 83 104 101
0.207157 26.2747 -0.462012 40 50 49
-6.80082 -2.52765 -12.6838 51 61 67
41.3772 -11.408 -3.65605 24 35 46
-15.2004 18.1075 -1.03127 51 52 58
-37.8095 -4.26594 -2.5472 57 70 73
-4.35445 13.5508 8.39302 44 48 51
-10.9487 -9.15791 10.8828 25 27 32
1.5061 -21.4235 7.98318 57 58 44
-7.49475 -14.6386 10.0965 39 43 50
-21.066 14.7514 2.25572 44 49 51
-15.8195 -16.5613 -8.5381 85 95 102
-5.44982 -9.06045 9.07572 31 36 40
-17.8378 -21.5935 -3.99477 45 50 54
-30.6058 -8.37105 -2.60115 17 31 31
37.448 -23.6911 1.1266 9 8 11
-17.9812 -5.33035 9.96266 22 24 27
-7.39577 -1.12599 13.8462 45 50 54
38.2916 -3.16666 -2.9281 66 80 82
26.9511 -8.56918 6.16921 34 34 35
18.5686 16.2047 -9.51789 80 89 91
-13.2699 -11.7736 10.3684 35 38 41
0.944138 5.80378 -7.14413 61 65 70
9.44884 5.60907 -8.8089 38 45 55
-39.4758 -6.59059 4.04375 50 53 56
-20.6316 9.34243 8.41431 33 36 39
1.85048 4.54326 -6.17126 39 50 51
-11.9479 -4.23158 14.43 72 69 47
42.9514 -19.6581 -2.55056 51 53 56
2.41608 22.9025 -8.23426 21 33 30
42.7881 -11.7363 -3.35337 94 106 117
38.595 -10.1865 -5.9183 42 51 55
11.5851 13.7526 1.41105 10 9 14
3.27475 14.0727 12.4037 39 45 48
44.9989 -17.6922 -0.575643 39 42 51
40.1472 -24.4256 -0.186913 51 55 61
42.6479 -6.55518 2.74841 41 46 51
-9.2586 -12.1877 -6.66803 3 1 5
2.36087 -8.75364 10.9328 58 57 41
-3.22959 1.38955 13.8004 83 80 43
44.296 -10.1625 -2.35968 37 42 47
-15.7125 -26.3097 7.35664 42 45 51
-41.4488 -15.3499 0.833008 48 48 51
16.4097 12.2576 4.88304 39 41 45
12.3697 -7.49038 11.156 64 65 38
-17.5385 -21.8144 2.02209 20 23 25
-11.9121 2.3045 -9.58078 29 42 39
32.4349 -8.31504 -7.20206 88 104 111
-25.432 -13.7088 8.37224 53 59 62
8.95245 6.40051 8.80029 20 23 27
-4.35867 -8.88927 -9.23413 36 40 32
20.5907 -3.71802 -11.3251 119 115 82
20.6878 18.1773 -9.02865 88 97 98
16.5729 -0.344064 11.1651 64 62 30
-40.4276 -9.53587 3.14786 40 44 46
-35.669 -24.0511 -1.94233 6 7 13
-15.4567 -26.8959 7.08048 51 56 59
9.84949 20.5963 -3.34702 34 37 49
-17.9773 -20.2199 6.84972 33 37 41
-11.8576 6.77387 12.7107 64 65 44
27.6788 16.4221 1.29834 37 40 43
28.9451 -2.41914 -7.256 114 126 136
-37.2228 -23.4396 2.30113 23 27 24
-12.2819 -0.504475 -10.6455 56 67 44
-25.5071 10.8256 -5.4602 47 51 49
11.0198 -5.39003 11.4037 69 69 40
15.4528 -11.1727 8.79288 41 45 41
-40.3025 -15.4528 2.78662 6 5 5
30.2156 -1.15478 6.19268 40 41 44
-18.463 -18.9004 6.28569 33 42 42
12.1352 -20.9639 -4.85985 7 6 15
19.1003 -12.493 -5.4074 0 0 1
-43.5056 11.4591 2.90752 47 54 57
5.42332 15.0062 12.122 45 49 53
0.585785 26.8337 1.32845 49 54 56
-17.44 -22.0603 2.26851 29 32 32
26.9119 16.8897 3.05376 38 42 43
-13.3284 11.3147 11.1727 46 49 55
-28.661 -6.03951 -0.977036 71 80 78
-9.47257 9.46217 -9.93328 40 49 60
17.2282 -8.25943 10.8605 67 67 38
-18.9664 4.5066 -5.42416 43 57 57
22.4912 -20.176 -1.29916 14 14 26
24.4175 10.914 -7.50776 45 56 53
10.3279 28.9271 5.50485 18 19 25
-38.917 12.4122 2.41954 44 49 52
-9.29415 -0.853415 13.4296 45 51 53
8.10878 -15.3634 8.69814 42 48 47
30.9708 4.54781 -4.60333 7 4 9
30.1583 -3.01128 -7.3622 105 113 119
-12.1881 -21.0381 8.12206 33 37 40
-26.4506 10.7088 9.63959 34 37 44
-9.79141 -10.7411 -6.30775 3 0 3
-14.4592 -10.809 -13.1708 75 71 47
-10.7213 16.4306 -6.48707 33 40 54
-1.66402 15.9174 10.3332 39 43 48
13.3532 12.0916 4.88643 22 28 31
-23.9422 9.77863 -5.30273 31 38 43
34.5616 -1.27421 -1.44402 16 15 23
-41.2232 -19.1803 0.202881 96 102 111
-25.0892 -10.6372 -5.05348 12 17 17
30.1187 2.51738 -0.268124 0 2 3
-16.3468 -25.3434 -0.306007 11 7 19
-8.39143 22.8549 -0.753143 46 50 54
-17.8113 14.318 -7.34243 64 78 78
27.3526 -0.0841494 5.54126 30 35 38
-23.5145 -13.8424 -6.81998 85 100 106
-1.01983 0.677326 -8.32962 5 1 7
26.859 -14.3391 6.24697 53 53 39
-19.8475 -2.74818 0.408577 31 35 37
16.5478 -9.47343 10.5484 59 60 46
-3.736 25.2336 -0.937357 52 57 62
36.8696 -17.8228 -6.29757 155 167 168
-36.2907 12.0169 -4.31139 45 54 56
-32.9847 -4.37459 -1.50057 106 109 106
-43.0205 -8.07357 2.4659 13 15 20
-45.7002 9.5518 -2.41652 68 73 78
28.6304 -18.6257 4.70367 33 39 40
41.9112 -8.74023 -3.64251 27 17 30
32.1952 12.1969 3.30789 28 31 36
23.6235 -4.59462 6.8222 3 3 3
-33.3037 -7.43209 5.71857 23 27 32
21.7891 -7.29113 6.85009 8 5 4
42.2559 -21.7737 -1.34095 35 41 45
34.4414 8.66567 1.22218 28 30 29
20.9764 -4.3758 10.8965 60 64 48
30.0539 3.77218 3.54099 24 28 33
26.7191 7.17004 -10.2602 79 86 96
-42.5624 7.92757 7.31306 61 63 67
35.7567 -1.90202 -2.53282 33 46 49
8.48461 11.5946 -11.7656 71 67 74
-42.8382 9.36797 -4.95219 176 185 57
40.3157 -17.3103 1.09911 17 13 17
-23.5563 4.132 6.51988 46 53 53
-23.2119 7.84867 9.63043 43 48 53
17.4653 10.4489 -8.62748 10 8 16
-23.314 -8.21019 2.49372 23 24 29
-1.89173 15.1 9.51367 37 41 46
-27.5546 12.1231 6.44512 40 45 48
-7.20112 21.5809 7.77575 49 51 55
-36.1164 4.07569 0.55809 34 38 34
19.6793 10.5284 -5.53115 6 20 23
4.44455 -0.805326 10.5815 49 52 51
-11.535 12.3022 -7.39072 26 34 36
4.09881 21.7073 7.13506 6 4 17
-3.99377 0.802158 -13.1024 188 183 86
-35.9445 11.7051 7.3755 49 55 54
-7.16199 -23.6217 -8.28715 25 28 32
28.3228 -10.5663 -7.27299 146 151 103
0.948292 23.9798 -8.4518 66 72 72
24.0843 -8.49689 5.10072 13 13 17
-12.1704 14.122 7.36608 38 44 47
-16.1242 3.72416 -5.25558 32 38 36
30.5481 -6.821 -7.5897 92 104 99
-16.9259 -23.9484 -1.4257 43 52 51
-6.29551 -22.38 8.14732 39 44 49
-4.19048 24.6404 5.83047 51 57 60
30.6512 4.51049 0.529003 5 5 12
15.0877 7.95108 13.2214 59 64 50
-35.4583 11.238 7.97555 48 54 59
33.682 10.4829 -1.69878 12 13 22
-8.48491 10.7095 -5.85546 20 19 34
-26.4697 3.45865 5.20204 7 7 8
25.0436 5.43666 10.4061 55 59 63
17.245 18.1271 9.69723 45 50 55
26.036 15.3213 9.18126 41 49 51
8.70496 -6.74029 11.3091 56 57 38
11.3767 -7.01951 11.2777 54 56 45
-16.7846 -22.6218 -7.15653 97 104 114
45.0115 -8.8189 0.0556178 24 27 30
