ply
format ascii 1.0
comment Created by Open3D
element vertex 1393
property double x
property double y
property double z
property uchar red
property uchar green
property uchar blue
end_header
-12.852 -5.05693 4.59797 40 64 74
-4.33511 -6.76351 -15.4609 48 67 76
-13.1976 0.989332 -3.60894 11 15 19
-11.3878 2.77729 1.1542 17 18 22
-5.06209 13.0938 -5.81204 21 22 25
2.8051 0.925478 -12.6708 54 61 67
-3.83615 -6.28576 13.3673 45 65 75
-1.48811 12.1412 2.0644 39 23 27
-12.1158 1.63455 10.1195 10 10 16
9.04298 -6.87559 12.3605 11 31 23
-2.68124 13.1792 -13.372 46 48 52
-1.1289 8.71394 -13.3124 56 56 65
-8.33493 7.58921 12.334 15 19 23
9.4282 -6.85251 12.175 10 33 25
-12.6507 -5.54095 11.6084 48 69 78
2.97151 4.58066 7.8676 37 38 41
8.53201 1.83623 7.14598 50 40 10
-4.56896 14.4985 -8.07051 15 17 22
8.80921 -8.87111 13.3325 10 32 25
3.02314 4.5846 12.5875 37 37 43
8.84062 -5.28141 -4.31061 52 57 65
11.0306 -11.0292 -8.51929 45 52 46
-10.2783 -7.501 -12.4879 54 72 78
2.52667 5.4316 -3.9968 53 33 24
-3.50322 14.8537 9.71146 41 51 52
10.291 -7.63481 -11.7029 38 43 28
-7.65047 8.90393 12.3122 24 24 28
-2.14391 -3.63321 -15.6337 50 64 71
-6.59394 11.296 -10.1634 31 31 34
-3.95463 9.2467 12.1931 42 60 62
11.402 -10.5906 -2.92688 40 38 36
9.75018 -11.4572 -13.4158 26 25 15
-12.5965 1.4334 -7.24461 20 23 27
-10.5195 4.83879 -0.736204 25 25 30
-8.73982 -6.88237 -13.6142 59 72 77
2.22109 4.85894 -13.2443 43 45 48
-7.06969 10.8671 -12.1588 34 38 40
0.135612 -7.84594 -16.8993 31 42 31
10.6532 -7.92428 -9.80546 35 37 25
4.17451 1.66948 -11.9738 30 14 16
-0.305431 10.6988 0.642582 43 33 32
4.17217 2.40254 5.94051 42 24 17
-4.80088 14.1673 -5.13348 14 11 16
-1.55004 11.9357 -7.06817 35 27 23
-7.61018 4.15483 -12.1307 53 61 65
0.224277 12.5586 8.86794 61 76 82
-0.915443 11.0819 -3.01071 37 23 24
9.67395 -10.1969 12.8538 35 51 45
1.23192 7.25785 10.4808 28 29 32
10.4151 -8.10718 -3.00408 44 30 31
3.56202 2.31456 -6.90728 40 20 21
9.61312 -7.248 2.01638 47 25 26
-12.68 1.33283 -10.6052 15 14 21
11.5682 -10.9285 4.23827 43 44 46
8.70191 -0.404362 4.23507 58 69 78
-0.777681 -3.77289 -12.8282 54 64 74
-13.3934 -9.36214 7.73978 55 75 84
-9.49655 6.34292 3.65965 24 23 26
4.78817 7.83158 -2.07247 65 35 5
-11.5862 3.10522 -11.961 25 24 29
4.83455 -5.6916 -12.564 25 21 5
-2.602 13.6943 13.7253 24 21 28
-4.7975 3.69466 -12.3047 63 45 31
-1.12322 -5.88646 -15.523 30 38 30
7.96148 -5.26098 -11.3756 29 24 14
-9.24178 6.77891 0.90026 25 28 32
11.4647 -10.0117 0.792728 43 40 42
0.5123 -10.714 -16.7294 24 32 18
-1.15683 11.5193 -3.9726 41 24 31
7.86972 -5.19579 -9.29952 35 23 12
-12.8626 1.17559 8.52477 14 14 19
0.12001 9.82143 -0.676185 40 27 31
-8.17119 7.13598 -13.2307 46 55 59
11.1726 -8.29776 -4.29251 37 33 30
-0.587954 17.1925 6.22156 45 56 63
-8.13928 8.64663 -12.294 22 22 28
8.62445 -7.0408 1.87582 31 6 8
0.317547 -6.78284 13.0012 38 63 74
7.19665 -5.60568 7.72584 37 46 53
8.41111 -4.92472 6.67359 50 68 69
-14.2259 -10.9282 -9.0155 30 45 49
-1.60314 12.4523 3.05555 41 23 24
0.502743 -0.144657 -12.3182 61 65 70
-11.0376 3.05574 13.8384 57 66 58
4.34505 -1.11657 12.418 57 72 82
0.648538 7.40274 -12.9785 37 38 41
-8.7602 5.23388 -12.6021 46 53 59
-2.97421 -10.4253 -15.7666 47 59 66
-13.4302 -8.05237 0.370672 52 68 74
-2.75076 17.4453 7.94015 40 54 61
-1.75728 8.56724 -12.5105 54 59 66
2.81862 3.71082 -9.29173 28 14 14
-0.0729818 -1.69247 12.6963 42 58 64
-1.46987 12.0305 3.06502 35 20 22
4.1852 8.07129 0.742249 62 33 2
-9.34386 -1.06652 -12.0514 46 65 73
3.52489 -10.0318 -17.1051 27 36 24
1.02161 7.94299 10.0184 38 40 40
-0.78306 10.477 -8.89767 41 28 27
-7.77395 9.04967 6.00093 18 19 23
11.9921 -12.3623 2.18834 25 20 23
0.579121 8.72804 4.81224 40 38 42
-5.80562 5.33171 12.4704 46 60 66
-1.82182 12.1412 -11.1665 39 23 24
-5.84258 -3.44573 13.2156 52 70 77
8.91577 -6.53929 3.7504 53 57 61
-3.46328 3.33378 -12.5516 57 44 20
5.94193 -2.45852 6.37081 49 65 72
10.5378 -7.20323 10.2586 21 40 27
0.118905 2.46018 -12.2876 49 64 77
-13.1911 0.968824 8.68817 23 24 27
-13.4656 -7.82299 -1.13814 52 73 81
4.46285 -4.26919 -9.89303 35 31 30
-13.8736 -10.0372 -5.18668 59 78 83
8.40654 -4.14794 6.23756 50 64 73
-7.78888 7.49493 13.8686 26 30 34
4.81071 -2.41318 6.36573 48 66 74
-9.3597 6.55436 -1.55661 13 14 20
-4.37719 6.1565 -11.8443 51 63 70
3.84033 -8.89005 13.2593 30 45 32
-13.3503 -7.78297 2.86963 47 64 70
3.88931 -10.5996 13.3876 29 38 28
0.482851 14.0329 5.56411 68 80 86
-13.5292 0.555012 -6.73128 27 28 31
-8.81516 7.34902 -9.61189 29 32 34
-5.82224 -8.61077 -15.676 48 68 77
-6.78055 11.0124 0.449711 31 35 38
-13.185 -8.73926 6.4982 52 75 84
-8.27804 8.12153 -10.0961 30 29 32
8.78286 3.18015 -6.75216 79 43 6
-6.28626 11.4001 -1.81892 23 26 30
5.54728 8.36638 -0.137766 70 40 6
5.13413 -6.496 -15.5334 31 26 15
-11.0268 3.80097 2.56294 17 18 23
-6.50991 11.0738 2.61614 22 22 28
-13.6103 0.757072 -11.9629 24 28 29
-4.46789 14.4763 4.22414 17 17 18
-12.7047 1.74258 -12.8117 35 38 42
-13.8972 -10.2976 -5.44766 58 66 70
4.68051 -1.52382 -6.33578 55 67 77
-12.3727 1.56305 0.8174 23 22 25
7.20726 1.47627 -7.70451 74 41 1
-4.14058 14.7132 -2.98029 28 32 26
-5.67535 -11.2281 -16.4412 18 29 32
-0.382257 5.07758 -11.9109 50 62 73
5.86983 -2.23127 -6.36515 57 70 79
-1.51893 11.9317 10.1927 34 34 40
-5.81145 12.2827 -1.54894 33 35 37
-4.49113 14.1088 -0.183474 20 23 28
7.34437 -7.06919 12.8384 13 32 25
3.07153 4.21505 4.99594 73 50 18
8.8248 -4.66971 6.34761 46 63 66
-2.17 10.3865 12.523 37 58 69
0.261841 9.9382 6.66399 47 37 44
8.62483 -1.06181 -4.54265 57 61 71
-3.33079 15.7194 5.31069 64 75 85
-9.90487 1.69424 13.1704 50 63 70
-6.77943 10.468 6.14896 24 23 26
8.94332 -6.35881 9.77502 16 34 25
-8.02848 1.60857 -14.546 58 50 25
-10.5078 4.28225 13.7793 42 45 46
4.90082 7.00833 2.18849 55 37 12
7.93446 -11.1464 13.6577 30 43 36
8.79381 -6.41072 -2.58146 35 19 22
-0.684326 2.49229 -13.5006 60 50 41
-13.0523 -4.19482 -8.41091 56 77 85
1.10019 5.46019 -13.4322 52 57 63
-12.5491 1.30188 -0.199713 10 10 15
-1.21512 8.85271 -13.3501 56 56 65
-8.83793 7.16502 -1.96199 21 24 24
5.06904 0.820265 12.2243 34 41 49
-4.0652 -2.03768 -15.3362 47 63 70
-2.66057 14.0499 -5.5521 30 12 14
-9.85856 5.83825 -5.54042 22 25 27
-3.88649 14.7168 1.80438 22 22 28
4.12803 -5.13704 11.7505 56 77 85
-4.74689 14.1659 4.23629 17 15 19
-5.06621 13.3084 -5.14976 27 23 27
-0.386518 10.6987 4.72588 36 44 51
-4.93798 14.0016 -11.1344 28 31 37
-0.719581 7.90767 -13.1632 54 58 59
-5.03432 13.7482 -7.72979 29 35 38
3.31222 7.30327 1.57255 54 36 8
5.31583 2.98503 -6.08013 75 40 4
9.70033 -7.27897 -1.24869 40 18 19
0.346416 11.8577 8.18385 60 74 82
-13.4947 0.780163 -7.54156 22 22 25
7.06248 -5.11911 -11.7385 23 11 4
-8.24988 6.8877 -13.1566 47 54 58
8.31404 -3.11148 1.97953 45 31 31
11.2593 -8.83572 -4.45089 37 40 32
-10.5131 5.09586 -4.06939 31 38 41
4.19514 1.92267 -8.76353 38 21 21
-0.466327 -0.375316 -16.0787 62 41 11
-6.05561 2.61993 12.5905 36 63 74
-4.63765 14.0698 6.98099 24 33 34
-0.718627 16.1735 9.17795 49 66 72
-12.0965 1.83498 11.2538 12 11 18
5.5871 6.42313 -3.24827 74 44 8
-1.42657 11.9786 3.46217 34 20 21
-13.6553 -8.41556 -11.8467 52 71 76
-9.07479 7.06387 -3.31614 23 22 25
-6.95655 9.60251 -13.343 54 58 65
-5.34052 12.8139 7.12747 21 24 29
2.86258 8.43479 -1.26611 60 40 5
-11.3025 3.64724 0.781927 34 36 41
-3.74518 16.3432 6.40606 48 63 68
0.530204 8.68296 9.77283 26 32 34
11.3167 -8.64009 3.9921 43 43 46
11.3716 -9.61825 -3.40106 43 37 39
-4.87671 13.5589 4.60096 26 20 28
4.34196 -5.60023 11.5708 33 48 55
7.39872 2.40645 6.61338 68 40 5
4.0553 -9.41093 13.2643 13 30 20
0.400644 15.4836 7.35872 60 75 79
5.87667 5.6653 3.55089 65 36 0
-13.0281 -5.18699 -2.32307 51 72 81
-8.23303 -3.3269 -13.1246 54 72 79
-9.50953 6.37876 -1.43233 22 23 27
9.02316 -6.67076 3.00026 45 30 35
-7.79153 9.27608 -2.07369 23 23 26
-1.53907 -3.7177 12.7845 41 65 77
2.96983 4.52526 5.7809 45 32 31
-12.3977 2.22512 -7.70622 23 25 29
3.95463 -2.93818 8.20804 49 61 72
-1.44161 9.18009 12.5236 34 54 64
0.557053 8.42576 -7.27062 32 17 17
8.95648 -1.53817 3.12977 63 69 72
-6.12302 11.6169 10.2136 22 26 27
0.640894 6.77212 -13.5091 49 50 60
8.48814 -6.55919 0.0752108 31 7 8
0.338619 16.6345 6.22231 61 71 74
-7.39219 2.87298 -13.1976 58 46 25
-0.174271 -10.0709 -16.6805 37 48 44
-3.60816 14.7265 1.47488 53 32 30
-0.722486 10.7972 -6.00725 38 26 27
0.484932 9.18151 6.04652 42 42 40
-5.9995 12.0302 2.10421 28 27 30
8.91785 -3.52546 3.92513 57 64 70
-3.11641 5.45916 12.2249 39 61 71
3.41881 3.39281 8.46081 24 24 29
-13.3572 -7.52475 -1.38016 48 72 80
8.32854 -3.45508 -0.511028 33 13 9
-11.4886 2.47991 8.1895 11 10 14
11.3785 -10.5497 9.45539 34 50 41
-10.2751 1.72853 -12.2204 43 56 66
2.29988 0.599031 -12.3982 60 61 71
-12.1572 -7.26219 13.2868 56 72 78
3.90977 -6.25201 -14.7867 26 24 13
3.53108 2.91454 -8.23495 39 24 26
-6.06363 11.9131 -5.31818 20 15 21
-6.94347 10.7076 -2.32205 28 27 30
9.21556 -3.30884 -5.76576 60 64 70
-10.7243 4.04233 1.17725 16 19 23
3.84654 -3.95221 -9.9631 31 15 19
-7.89645 7.25765 -13.1141 48 55 61
8.83189 -0.703398 3.44195 57 66 74
-12.3794 2.25383 -4.88094 27 27 32
-4.36517 -8.61846 13.3562 48 67 76
1.0337 -3.62973 -12.43 54 60 65
-6.01567 12.0097 0.611423 29 29 31
-1.53812 8.87512 -13.0941 56 58 61
-7.93535 9.13729 -1.26393 25 27 31
5.8786 2.88022 -6.57734 73 38 0
-8.28847 8.37375 7.61902 29 29 34
9.49656 3.78066 -0.439199 66 37 6
8.26134 -11.6357 -15.4504 17 8 5
-11.1929 3.02859 10.8101 15 12 18
-7.6786 -5.32134 -15.5611 50 75 85
-7.89659 9.41587 -10.3342 34 38 40
4.33074 1.33388 -7.85113 37 16 19
-3.33593 14.3489 -12.8992 51 35 38
-10.2512 4.70213 6.76688 10 14 16
0.667313 -7.20827 -16.9204 27 42 24
6.28041 -1.62554 -6.19963 55 66 76
6.6547 -5.07547 -10.7586 14 30 17
-5.9677 11.5161 3.85382 20 24 25
-8.96184 7.66361 -12.9004 30 23 27
9.07346 -6.73931 11.3852 4 29 17
4.04488 -5.10506 -13.3151 34 18 10
-4.05104 -5.70745 13.1912 43 66 76
6.36034 -5.15866 -10.1843 16 36 15
-8.34604 8.31407 8.05021 26 27 29
-5.51614 6.91218 12.3518 46 61 67
-13.0194 -6.41279 7.16791 46 66 73
-3.66569 3.52647 -12.2749 55 43 29
11.172 -8.35738 -2.48407 42 35 34
-4.28841 14.5186 7.01433 32 34 40
3.15356 7.22716 -2.41351 67 47 16
7.55076 -8.24935 13.0649 8 19 14
6.36308 -6.25665 11.6202 13 27 20
-12.3449 2.34115 -11.8957 21 20 24
-2.81933 -10.1872 13.6942 45 64 74
6.10423 -1.28013 6.16419 48 63 70
-9.20364 6.89283 3.94845 29 29 31
6.57161 -5.07293 -6.77461 48 57 67
-0.439281 0.753177 -13.0209 62 60 66
7.1754 5.12454 -4.71589 70 40 19
0.160156 9.4887 9.49142 39 47 52
8.0939 5.30241 -1.27254 68 39 11
5.49935 -5.13473 -9.86669 46 20 10
2.52634 3.95943 -11.7074 31 15 16
9.62748 -9.37395 -13.532 36 42 37
11.24 -9.20001 9.19309 8 26 15
-10.5036 4.19498 5.89931 23 22 24
-13.2749 -8.75276 8.23968 51 73 81
-13.6226 -8.88892 -0.931005 53 74 83
8.5936 -6.43382 10.6043 10 24 15
-7.01047 0.710848 -15.2916 59 46 11
-5.60478 12.1095 12.3136 17 27 29
-2.63347 13.9314 10.3975 36 37 41
-9.33635 -5.43318 12.9896 51 75 85
-5.6495 -5.5239 -15.552 50 71 80
-0.898926 -7.9725 -15.9868 29 36 25
-6.27043 3.70738 -12.3294 54 52 48
-5.25679 12.637 -5.62609 25 29 34
11.3617 -9.16376 2.84741 46 42 44
8.79846 -3.75352 -5.0951 54 58 64
8.80047 -6.74174 11.3636 1 16 5
3.18312 -11.6186 -17.6999 35 40 35
0.725339 2.83704 12.4008 35 55 65
-0.043349 -4.63456 13.0519 42 61 65
8.64346 -2.24694 -4.17576 54 65 68
2.25722 6.34673 -3.13158 52 33 18
4.45218 1.04169 -8.94617 29 6 7
-6.58497 11.3931 -9.14273 25 26 29
-2.96835 -8.3135 13.3437 43 63 71
-1.4876 11.5822 -8.83831 35 23 24
-1.85023 -5.80148 12.9998 43 65 74
4.30814 -4.62573 -7.01213 50 54 62
6.16303 -2.57353 6.36747 50 65 74
2.74185 1.78471 -13.1943 54 59 63
-1.77391 -2.96038 -15.47 56 66 73
-11.6236 -4.35572 -12.344 50 71 78
-9.77427 -2.31094 -12.1983 51 67 77
-3.75281 16.3938 7.82027 45 65 64
2.4125 4.83704 -11.3085 40 30 31
5.70848 7.69517 -2.26666 65 43 13
-4.31579 14.714 12.2981 36 46 51
-13.0016 -7.26074 9.6657 50 67 73
-11.2886 -2.19567 -12.1094 48 68 80
-0.754158 10.7198 -7.59739 40 29 32
-1.69053 12.0065 -6.88181 35 25 22
9.0244 4.42503 0.0531788 64 38 10
-8.01383 8.53966 0.0940857 19 24 27
7.3105 -4.12566 6.38003 49 64 72
6.93508 -6.61456 -14.6562 40 44 44
8.20017 -4.29152 6.24053 47 59 68
-7.91842 8.99052 -7.89677 24 23 23
11.4223 -9.65182 0.413824 47 39 44
-0.973904 -1.34823 12.7742 43 60 66
4.26876 -2.00339 12.1753 60 78 85
8.56851 4.31156 -5.58555 68 41 7
-9.35457 6.75276 7.60624 28 28 31
-0.142067 9.94973 10.9804 38 37 43
8.67336 -0.400034 -5.16368 59 66 74
-9.85197 5.77856 11.6538 24 26 29
-0.519588 10.3856 -6.43539 42 26 30
6.57258 -10.4185 13.6932 8 22 11
-7.93775 -1.16534 -14.177 59 73 77
-0.32363 13.8968 5.13435 69 76 85
1.98356 -9.7213 -16.9219 28 42 30
5.94907 -2.31702 6.38307 50 65 72
1.83327 6.23658 2.82391 23 23 20
-0.799803 10.5516 -10.5361 37 25 25
-7.06479 -9.30259 -15.6787 53 73 83
11.4426 -10.6605 -2.44683 42 38 40
9.88639 2.05438 6.75005 56 51 27
-9.50008 -4.02537 13.2475 47 71 81
-12.6464 1.4169 -10.456 18 15 22
6.06154 -8.33786 -16.3392 31 32 21
4.33737 3.11805 5.52965 54 31 2
-6.02184 -6.12175 -15.5357 45 65 74
-9.57023 0.574923 12.8914 53 64 72
-1.74697 16.011 9.07816 47 66 76
-8.89113 -8.95019 13.8146 57 73 78
-9.36055 2.58652 13.0967 48 62 68
-1.95043 14.8879 5.35982 76 81 93
0.263651 9.55711 1.83864 40 30 30
-2.43687 13.967 9.18235 43 59 73
-0.219879 10.2378 2.85397 41 26 30
-8.20977 1.70007 -12.0514 41 59 69
2.91528 -4.5928 13.0227 45 60 65
4.01293 -5.81863 12.7101 31 51 49
-13.5129 -9.61139 2.72441 41 60 71
8.87169 -3.47384 -3.84374 55 62 71
11.3155 -9.0621 -4.45837 40 43 34
-10.1576 5.16047 -10.6704 22 19 28
-11.4546 3.36943 -9.31042 21 21 24
-3.38363 -9.95966 13.7293 45 65 75
-3.6238 14.6729 7.00619 35 45 54
4.53161 2.01059 12.3585 30 31 35
10.1033 -7.70596 0.660124 42 30 31
-5.43534 12.5798 2.20126 25 29 33
-13.3918 -9.68015 8.81878 55 75 83
0.418499 6.64825 -13.4251 53 59 69
-0.0340614 -9.34277 -16.7068 35 48 35
-2.21281 12.4021 -9.68571 38 15 18
-3.21287 -10.6584 -15.8569 35 42 48
1.05518 -10.5002 -16.7754 25 35 20
1.52746 -0.495663 12.5943 38 58 66
4.41203 -3.9521 -7.81645 50 56 60
4.29887 -8.69749 13.2204 22 35 24
8.86826 -1.03755 -5.63324 59 65 68
2.87731 -0.764588 -12.5069 54 67 73
-6.7281 -2.75799 12.9214 48 69 77
0.100324 -8.33075 -16.8237 30 42 30
2.74312 4.88988 9.71051 32 33 37
-11.3038 -9.60293 -12.5725 50 67 77
9.75119 3.68245 -2.51419 63 39 7
-6.39972 1.70202 -14.3256 61 47 20
11.6524 -12.0376 4.93106 31 37 36
10.5035 -8.40271 -11.8011 42 45 30
7.18199 -5.72515 8.19021 54 59 63
-4.85749 -8.25948 13.1861 47 68 76
-2.1508 17.4989 6.01674 47 53 54
8.20046 -5.56499 -12.8625 35 34 20
-1.40298 5.62699 -12.0742 49 58 64
4.34943 5.61792 -3.76941 68 36 3
5.46306 8.21192 0.833881 46 34 9
5.08657 1.01071 12.5984 26 27 35
0.235997 16.6975 5.58446 61 65 70
5.75968 -6.82708 -15.4766 31 33 18
-0.914707 11.8097 13.2991 41 47 47
-10.0443 -5.69699 -12.2975 51 74 82
10.9451 -10.3051 -8.82114 39 46 36
1.0465 -1.78506 -12.1624 56 71 82
-6.12746 11.935 -5.02393 30 29 34
-1.13832 10.6476 13.61 30 43 51
-8.74534 7.39727 -0.734008 31 32 30
-12.1561 -10.5827 -12.7224 22 34 40
11.2588 -8.42714 4.66854 35 48 42
0.445551 8.79733 2.20489 28 24 23
-4.40503 14.4972 8.2578 18 17 27
4.5645 1.39832 10.7816 23 21 23
-10.1023 -2.8308 12.9113 52 74 82
10.8112 -10.6759 -10.4803 41 48 33
5.74564 -1.16096 6.12518 47 63 71
-1.29586 -6.64751 12.9644 42 64 74
-13.3974 0.521729 2.75976 22 29 33
-10.3102 5.22656 -9.83159 25 25 30
-13.1441 -5.16018 -6.43676 54 75 83
-9.4635 6.66526 4.64496 32 32 35
-1.12038 11.1549 -4.10546 41 27 36
10.818 -9.94545 -9.32479 35 39 29
5.607 -3.98273 6.50766 50 58 64
10.2151 -7.53537 3.27942 57 43 50
-1.47893 15.8108 5.2364 66 78 85
10.7998 -10.3405 -10.8311 32 38 17
-5.57091 5.8998 12.2449 43 65 78
-9.31493 3.24965 -12.2202 43 56 58
3.40868 7.56973 -2.27941 62 40 17
-9.4508 4.12529 13.8885 49 63 66
-9.21576 6.84537 -11.9671 16 17 21
6.89268 -5.13669 -8.16373 14 25 16
3.03967 4.01449 5.16785 75 46 11
2.2234 5.78742 3.81074 25 29 23
-10.4414 -10.1335 -12.4948 54 73 82
4.27107 -1.1191 8.7893 52 63 67
-4.61067 -2.02869 12.9813 50 67 75
7.4291 -8.20231 -15.677 37 42 37
-0.00404358 1.26157 12.3875 38 61 74
3.2797 2.08175 -13.654 52 61 62
-8.92698 2.88649 12.9091 47 62 68
-2.55599 13.4309 -12.1862 32 9 10
0.0893202 13.138 5.08265 74 77 89
9.85463 -6.42498 8.90378 6 25 13
5.78964 3.41953 5.68772 65 37 4
-12.7907 -3.4371 -0.266697 49 67 75
-6.26737 -2.3359 -15.3159 45 62 70
-13.3328 -5.74498 -9.73109 50 76 86
10.1505 -9.11318 12.4337 32 48 40
-9.19731 6.84204 0.281889 28 30 33
-10.8543 4.05818 -1.98221 19 23 27
11.2762 -9.60373 10.0091 40 55 48
7.30677 6.2177 -2.27374 72 40 5
6.44903 -4.87501 -6.6922 50 59 66
-7.7403 9.1626 3.09248 21 21 23
6.16345 7.61993 -1.59131 75 39 3
4.828 3.74349 -5.49267 65 34 1
-5.09709 11.8427 13.7177 41 56 61
6.17037 -2.30205 6.38361 50 65 72
-4.98472 -3.52657 12.9749 43 66 75
-1.47659 11.8648 -11.4303 42 31 31
4.34366 3.59844 -5.49286 71 38 0
4.3422 4.28641 4.5838 65 39 13
-6.76901 10.968 0.205227 30 34 38
-12.5259 -3.2595 -12.081 48 69 78
-7.67129 -6.22551 -15.5329 48 72 83
-2.43957 13.5542 0.12476 48 38 38
-8.69226 -4.57393 -12.2601 52 77 84
6.16752 -2.43598 6.37667 50 65 73
-0.473387 -4.33371 12.9093 43 62 69
-2.89469 -3.33139 -15.5228 50 65 74
-0.341124 9.79616 -7.48034 36 23 27
6.49748 7.33701 0.807835 66 49 50
-2.54629 17.422 8.232 36 52 60
-10.6795 4.33817 -6.85073 21 19 26
4.26316 -3.37436 11.6664 60 79 87
-12.6582 2.01496 -11.8086 25 27 30
3.75373 -2.67566 -12.6627 61 65 71
-8.08919 8.56793 0.349923 28 31 35
2.17246 4.30265 -13.5457 46 55 56
5.54048 -0.652668 6.15274 45 58 69
5.4795 3.92187 -5.34669 70 36 0
-8.73595 7.76044 -3.31719 19 19 21
4.26538 -1.05185 12.1327 61 78 89
-6.93673 10.4971 -3.03512 19 22 25
0.39918 15.2793 6.98452 59 73 79
-10.5058 4.19448 2.02388 9 12 16
-3.5046 14.6706 4.39338 31 33 36
-4.15202 2.67784 12.6475 41 64 74
10.8571 -10.8275 10.5602 27 42 34
2.2464 7.31823 -1.89867 66 36 17
-9.45684 6.65779 -1.13484 33 33 36
4.29315 1.41608 -12.4712 29 11 12
-0.0654039 8.8077 -12.3378 36 23 26
11.1723 -7.93822 4.30532 41 47 47
10.0987 -9.01597 -12.8158 34 39 23
-7.543 9.7625 7.47819 23 27 29
-0.604488 10.7377 -4.43768 42 29 30
7.71584 5.66469 -3.81429 68 36 2
0.0322704 11.7137 8.98972 50 67 70
-13.627 -7.82831 -6.66172 58 77 81
-8.91237 -8.2224 13.7009 53 71 79
-9.56862 -2.6389 -12.1609 48 68 80
-4.1792 14.6898 -4.33504 23 23 28
-4.50173 14.2612 -0.608279 34 37 41
8.47028 -11.2701 13.4945 32 47 38
-2.55724 -4.70122 13.2177 47 64 72
-1.20712 -3.40661 -15.5289 54 68 77
-0.37813 0.886151 -12.4837 54 55 58
-10.261 3.07228 -12.8264 42 51 56
4.18761 1.81429 -10.9666 32 17 18
2.29929 -0.719231 -12.2657 57 67 72
-0.967482 11.2441 0.433048 29 22 21
-5.6976 12.6715 7.46376 21 25 29
4.36094 -4.10521 10.3515 37 39 37
-6.6813 8.21918 -12.569 46 54 60
-1.43516 12.2798 11.5214 36 34 39
1.58957 6.89686 -5.09414 45 30 32
-1.84552 12.8501 -3.8503 28 12 10
-0.889232 -7.84404 13.4624 43 64 71
1.71092 6.77676 11.4721 40 46 47
-11.8489 -0.951466 -12.1057 45 64 73
-10.0445 5.16656 0.172467 21 23 26
-10.0453 4.96988 -13.2551 49 56 58
-1.35383 1.71477 -14.2617 57 40 15
-12.4975 1.44373 -0.380005 13 13 18
-1.61497 12.4277 -1.0657 40 33 30
-13.342 -8.9128 6.1305 51 72 82
8.9137 4.60638 0.89662 59 39 5
0.520676 14.6574 5.56772 61 78 84
-7.4211 7.2251 -12.54 45 54 64
4.33098 4.88958 3.79295 68 37 7
-13.6839 -8.10288 -6.68624 58 79 83
-6.66306 9.11492 -13.1186 50 59 62
-13.267 -6.27238 -4.68137 54 75 82
-8.17686 -0.296898 -15.7936 50 63 69
2.73061 8.21375 -1.44416 59 39 4
-11.5262 2.6402 2.36494 12 14 18
-3.97754 5.44695 -11.8241 52 69 77
-8.1462 8.20103 10.4704 12 14 19
-4.82633 13.3711 10.0153 27 38 38
-6.57418 -6.24881 13.4855 50 72 82
6.92101 -5.40699 -12.2352 20 20 9
-2.62672 13.2486 -9.4972 29 9 12
-2.42539 13.9253 5.08955 66 70 81
-0.262062 0.887828 -13.4299 63 63 65
-1.52312 11.9316 -6.68769 41 24 24
-7.16347 -8.4495 -15.8501 50 67 74
-1.46058 12.557 9.29459 44 59 67
7.21889 6.33255 -2.59445 68 34 2
-12.516 1.39913 5.68966 12 12 19
9.25764 -7.23045 12.5975 30 41 32
7.38047 5.9618 -3.89449 70 45 19
1.45956 6.33501 -7.36762 31 15 18
3.81391 -4.1373 -12.5155 36 32 24
-12.614 -10.2408 -12.6916 46 58 65
0.212873 9.55685 11.1746 38 43 49
-11.3063 -7.32537 -12.436 48 71 80
11.3289 -9.37938 8.89953 37 48 37
-7.45692 1.12077 -14.9597 57 43 13
-4.69533 -10.1088 -15.7343 47 62 71
-13.6416 0.443523 -7.83085 34 31 34
-1.00129 11.6323 0.678959 42 27 31
7.73829 -11.1499 13.6941 32 46 40
-3.14342 -7.79673 13.4974 48 65 72
1.22345 7.43015 1.89023 29 31 31
-10.4509 5.06111 -0.458878 30 32 36
8.87451 -2.51895 -5.60376 56 58 69
2.03674 5.03398 -13.2557 38 39 44
-12.4293 2.00207 -0.757656 18 20 23
-12.7232 -3.52098 -0.471262 48 67 76
-4.12768 3.2973 12.5063 40 61 72
-2.15661 -8.72262 -15.8404 19 32 26
-3.83928 14.6091 -10.6745 25 25 23
-0.0649176 -0.986491 -15.1749 67 65 68
-6.0872 11.714 -1.5733 22 27 31
-11.8731 2.38269 11.8992 16 17 22
8.32864 -3.96982 -1.07045 32 11 5
-0.855555 -10.832 -16.6211 29 17 9
-11.4696 2.87083 -4.83302 16 16 19
6.24688 2.20762 6.49946 48 28 10
-12.5282 2.16117 -5.63102 30 28 30
3.77471 7.49869 1.51001 49 36 14
0.135114 -7.15488 -16.2035 32 40 29
-10.6891 4.98008 -7.53483 33 35 40
0.0945244 16.88 7.47233 53 68 72
-9.26278 -10.6117 -13.9442 41 46 49
2.36784 -1.37422 12.8887 40 59 68
1.4245 8.05857 0.557629 19 16 21
-5.65206 12.3523 8.43048 14 15 17
-7.95495 9.0691 -5.66586 22 26 29
-8.80957 7.19333 -11.6129 27 29 31
4.38282 8.41766 0.561913 75 42 0
-13.9572 -10.346 -9.70087 46 58 65
-5.15276 12.9341 -9.14582 25 24 27
-0.341216 8.86692 -9.92245 35 29 29
-0.519717 3.03183 12.3145 36 57 69
-13.165 -6.20102 0.591231 47 68 75
8.10598 -7.88736 -14.2815 45 46 50
-7.89466 8.67769 -6.52295 19 21 25
-10.3755 5.07906 -10.9341 21 22 28
-3.39704 14.2978 -13.003 51 44 46
10.5588 -8.40715 10.5545 20 40 24
-5.5672 -5.33441 -15.5728 52 70 80
-1.95827 4.81917 -11.7424 50 62 70
7.37775 -5.63843 -13.0505 23 32 19
-12.1722 2.24195 -3.21881 18 19 23
-3.78466 16.7217 6.59499 45 65 73
-1.16668 -6.04115 -15.5293 25 32 23
6.27414 -5.02422 -8.65247 32 35 29
-3.42064 -0.325693 12.7313 42 60 68
-11.6079 2.54714 -7.29009 16 14 21
-6.73668 10.8243 10.154 26 30 34
11.2808 -8.5778 -4.03428 37 32 35
-0.863725 -4.40509 -14.0474 56 67 74
1.88096 -3.28666 12.9154 43 67 78
-0.93786 -9.37173 -16.3634 36 45 38
7.68143 -4.91386 -10.7646 37 38 26
-0.00582314 9.3042 -6.11624 35 17 21
4.19134 -3.44867 -11.1526 46 41 46
-3.15341 10.6185 12.3077 41 61 72
2.90641 -4.30097 -12.5932 26 23 8
-3.45308 12.3982 -13.3793 49 59 68
10.7582 -6.42153 -6.46779 43 42 34
-8.78664 6.09243 -13.1845 49 53 57
-8.47577 2.68505 -12.0566 50 68 79
-12.3098 1.45214 2.50842 22 24 31
-6.77177 10.5282 6.70969 26 27 32
4.86456 -3.08877 6.43838 46 61 67
-0.250307 3.07896 -12.7013 57 60 66
-7.06066 9.97703 8.91496 17 19 23
-11.1442 3.6304 10.8631 23 23 24
-13.0565 -4.65443 -6.00624 52 77 86
0.158136 10.248 8.81213 53 69 75
-0.236588 2.27795 -13.3793 58 57 58
6.3181 -8.77652 -16.5495 39 47 40
1.49632 -5.8876 12.9755 42 62 69
5.15871 -5.37499 8.77348 33 56 65
-7.78351 -8.1884 -15.839 54 69 76
-0.771493 3.828 12.3395 33 55 65
-6.8487 2.38049 -13.6432 66 43 14
0.0441904 8.3925 13.5829 31 40 44
8.51018 -2.71129 6.17789 56 62 68
2.12978 -10.3597 13.5153 42 59 64
-10.6632 4.95108 -8.6445 31 33 37
-9.17704 6.53128 9.47443 11 16 20
-12.8946 -4.24026 -0.640308 48 69 82
-0.506261 -3.9234 -12.4098 54 64 72
-12.6125 1.74344 -8.88134 25 22 27
-8.00868 8.58908 6.61248 24 27 32
9.17933 4.38033 3.59006 61 41 18
6.64474 -5.0669 -11.5663 29 17 10
5.27226 -5.13692 -10.9869 6 24 14
-1.45721 12.4615 11.6293 40 39 42
-7.92935 -10.2467 -15.7579 49 61 68
4.03386 -3.05509 8.30914 47 62 70
-4.89598 13.1569 -1.3094 33 37 38
11.2501 -9.5663 -4.84124 40 42 35
9.06377 -2.95086 -5.88759 59 65 73
-4.78927 11.1668 -12.9689 52 59 61
-7.46394 9.78351 -10.268 28 28 30
-6.48692 11.3934 7.81417 22 22 26
-3.53533 14.76 -4.1708 33 24 19
-9.64538 6.49936 -2.23464 37 39 42
10.1586 -5.70979 -6.00963 47 46 45
-0.106064 -1.60666 -12.1812 58 67 76
-8.76877 -4.45392 -12.2166 50 77 84
10.5892 -7.06945 -4.24869 39 32 34
-6.10039 12.3568 -10.6255 37 41 43
-1.15518 10.9256 -6.97474 30 19 19
-12.9236 -4.36885 -1.93364 49 72 80
-6.01084 0.28414 -15.4588 63 37 0
6.10306 3.5935 -5.83427 74 40 1
-12.1858 2.30701 -4.22878 19 18 22
-11.5703 -5.975 -12.2772 46 70 79
6.24597 6.26666 3.07156 49 35 8
-12.5852 -7.56688 -12.5323 50 71 78
-10.6384 4.28547 -2.42668 14 14 17
11.8327 -12.2225 1.146 29 18 21
-2.01024 -8.00986 13.2452 45 64 72
2.48168 4.90635 -7.50852 38 27 29
-8.13045 -2.82753 12.9563 50 71 80
-13.5744 0.615829 -10.9459 26 25 30
10.4165 -8.17768 -0.805531 40 27 29
3.53044 -2.68495 8.52641 50 58 63
-0.477123 10.4517 -6.00106 41 25 29
0.693756 8.55046 6.91718 39 39 45
-0.381684 16.5736 9.10083 53 64 68
-0.58578 -11.7973 13.7411 15 25 27
1.4843 7.19557 9.22953 38 42 45
-4.96431 8.49505 -12.0927 49 62 69
-10.7684 3.90243 -4.97928 16 12 17
-2.57615 13.694 9.20126 46 62 75
-4.60726 13.9635 13.6286 40 45 49
-2.52707 13.7536 4.62556 59 61 70
1.40687 7.17544 6.23076 34 38 40
-7.9225 9.32913 -12.9564 40 46 51
-1.78443 -0.725137 -16.2556 67 47 28
1.47475 6.267 -10.0679 37 25 28
0.267233 11.1698 7.09514 60 71 76
0.888323 -11.2405 13.5241 41 55 63
7.70381 -6.55838 11.5038 5 24 15
-12.975 -7.03126 9.71262 48 67 73
-2.71584 14.1922 9.58308 46 60 67
-8.47813 -3.85233 -14.119 59 74 79
-4.66432 14.0436 -7.30874 18 19 22
0.415167 9.10418 9.15527 38 40 40
-7.33435 -1.59039 12.9415 52 69 76
5.84584 -8.61842 13.2013 13 27 19
-0.852781 -4.36585 -14.285 57 68 75
-13.4716 -9.72821 4.10498 50 76 84
-1.93771 17.5264 6.31536 58 55 54
-8.31894 8.34423 4.72721 25 32 35
-2.25437 14.1424 9.21976 41 59 70
1.44979 -6.99365 -15.6254 34 45 46
5.69886 1.49797 -7.29789 80 45 0
9.15713 -6.35424 9.29986 17 29 21
-10.5252 4.79573 -0.168871 29 29 34
-0.863195 -4.5705 -14.4131 56 68 77
-5.15657 13.8894 -9.12568 24 26 30
-1.24543 10.9907 -11.4954 31 15 16
-11.1522 3.81903 0.364038 28 32 35
-2.61402 14.0983 -4.39858 38 22 19
-13.3633 -7.07993 -6.15256 53 77 86
-4.87075 13.8289 7.83594 25 30 34
7.87686 -0.619776 -6.26887 54 69 72
-3.67685 -4.39015 13.2263 48 66 69
2.01118 5.16999 -10.1766 34 17 18
-6.76075 -6.40403 -15.5284 49 69 78
-1.58508 -6.74207 13.088 44 65 73
-11.236 4.00875 -12.8024 21 25 28
-0.690165 14.1945 8.97989 47 62 70
-11.5473 3.51249 -10.7847 28 31 33
-11.5038 -0.251514 13.2762 48 64 72
-0.209122 10.235 2.63918 42 25 29
8.90585 -1.89079 -5.85053 65 61 63
11.4358 -9.70675 -1.42391 44 37 37
8.36292 5.06162 -1.55143 77 37 6
2.14533 4.97668 -9.64161 32 16 18
3.78691 5.59099 -3.46022 78 41 5
10.0115 -10.8841 -13.0439 39 49 35
11.3066 -9.78599 -4.64838 42 42 35
9.86195 -6.65342 9.85571 9 36 24
-6.53584 0.96777 -14.9833 58 40 20
-0.0894709 12.7594 5.04016 70 80 90
-3.12966 14.3273 -10.6908 27 13 11
-11.5924 2.8019 9.2805 17 17 21
7.15564 -1.5211 6.27161 49 63 70
-11.8888 -2.43385 -12.1877 47 66 73
-13.0631 -8.40207 8.60474 51 75 84
-8.34598 -6.58961 13.4576 56 70 76
6.40207 -5.09044 -6.95805 58 62 71
3.8422 2.82548 12.2977 39 40 41
5.48348 5.27759 3.67545 65 38 2
-1.39131 6.76525 -12.2258 49 61 72
-3.43098 14.4257 13.6714 26 27 24
2.03948 6.02031 11.2334 35 37 38
2.32654 5.55146 6.91058 33 29 30
-8.94343 7.05303 -5.74565 21 22 24
-8.5928 7.63116 3.65214 25 24 28
2.06378 5.13974 -4.97012 31 8 20
2.22071 3.07898 13.5129 34 50 57
-0.902018 -4.04159 -13.4964 61 70 78
6.9199 -1.44804 6.24257 46 60 68
10.5602 -8.29692 10.4117 27 42 31
0.994292 1.70763 -12.1362 53 67 70
-6.70407 10.8858 3.34566 23 26 29
3.81486 -7.35896 -15.8486 18 15 1
10.5517 -7.01404 -7.97987 30 30 14
-11.2502 3.71057 2.95992 29 27 32
9.98598 -6.11335 -7.90266 41 36 32
2.57508 -9.24069 -17.1193 35 43 36
8.8677 -5.11757 3.32591 57 56 62
4.0145 2.26661 -10.6783 33 22 24
4.62366 -5.55115 11.0643 46 66 72
2.42895 7.45748 0.825001 22 8 12
5.30716 8.79811 -0.0662498 67 42 6
-8.22435 8.39743 13.3104 34 36 37
-10.7167 4.78597 -5.99604 30 29 32
-7.54444 9.01359 13.7381 35 40 42
0.392618 9.44094 7.16678 51 52 54
8.31353 5.23438 -2.94319 70 38 2
3.26959 4.23092 4.69306 58 34 1
-2.93896 12.4429 13.2624 28 49 60
9.53168 -6.58209 -12.1887 39 40 25
4.45964 1.58925 7.86874 29 27 31
-9.83133 1.12617 13.0126 49 65 72
-7.29439 -8.0534 13.5304 51 70 79
-1.78581 12.9532 10.9398 31 35 37
-5.71409 -1.77402 -15.3145 51 70 74
-12.0646 -4.5299 -12.1995 49 76 86
-12.2838 2.26243 -8.51226 19 21 25
-2.62601 6.17352 12.3402 44 59 66
10.2346 -11.6528 -12.1609 18 9 3
8.23734 -4.98255 -6.50204 52 57 64
2.60089 2.63996 13.6362 36 52 60
2.69657 0.442634 -12.5281 56 62 67
3.65935 5.56233 3.07914 47 28 9
1.48132 7.1679 5.89234 37 43 45
-1.58348 -10.589 -15.9556 26 28 20
-11.0258 3.88383 0.156196 24 27 30
0.697294 8.18101 -6.04828 34 18 21
5.53415 -8.19892 -16.1702 29 31 14
-8.33395 8.37751 0.842957 28 28 34
-0.956583 -1.71473 -13.1937 59 67 75
8.63024 -6.32499 -0.834499 44 31 31
10.4535 -8.18344 -1.0434 44 29 32
6.01975 -7.34829 12.7726 17 35 29
-10.0625 -0.306608 12.8612 52 66 73
-11.9478 -7.3712 13.3486 57 73 79
-6.74687 10.1218 1.08517 27 26 28
-13.3726 0.879356 -7.7072 13 14 18
-3.15478 14.6615 1.74726 37 13 12
0.352475 -4.40024 12.9582 37 62 72
6.04064 -5.15364 -12.1278 27 26 8
8.76034 -7.24981 -13.7875 37 38 28
10.7979 -11.0736 -10.5901 43 53 37
1.23603 -10.6329 -16.7708 20 29 10
7.23887 -7.34077 -14.7591 47 49 56
-7.56421 -6.37139 13.2815 54 73 79
-7.80181 8.88417 3.3778 22 25 28
-0.886873 10.7934 -6.86391 35 21 22
4.6204 -5.23533 7.35434 64 85 92
-13.2729 -6.19327 -1.39615 53 75 85
3.5658 -6.67274 -15.6456 31 31 20
-1.09225 -6.14396 -15.4648 22 27 18
-4.3724 14.5608 -10.0459 18 17 23
11.4538 -8.80981 8.12683 35 51 43
10.4594 -7.48585 10.8969 24 35 29
8.19078 -5.27081 -6.83146 38 41 44
-13.1683 -7.70236 3.96018 44 65 77
9.40016 -6.83494 4.17701 57 70 83
-7.81227 9.09572 4.6728 31 33 36
9.76862 3.73214 -3.64203 68 41 4
8.6639 4.65504 3.16448 54 37 17
-3.61434 17.0673 6.15557 42 56 55
-3.53858 -9.39061 13.6915 44 66 77
-13.5298 -7.70754 -7.26012 55 77 85
10.8449 -12.5036 9.48285 24 35 32
6.06191 -2.24169 6.38746 50 65 72
8.2636 5.41061 2.32078 64 39 11
-13.2926 -6.19747 -1.01206 52 75 86
-13.4284 -6.18833 -9.88989 55 80 90
-13.6489 -9.32958 -2.0807 55 74 84
-8.37775 7.74044 11.9725 22 27 31
-2.20377 2.96294 12.4018 39 60 70
6.47567 -5.75267 10.9749 32 46 38
-0.813835 -4.24533 -14.4307 57 67 73
11.4703 -10.457 2.69411 40 38 42
10.7608 -6.65651 -5.7961 32 25 13
0.756342 8.67516 -2.46688 44 28 29
-1.07781 10.1548 13.5303 30 44 50
-11.5381 2.65234 -8.35049 12 16 20
4.1547 -1.16708 8.37825 53 68 74
7.4896 -6.49338 12.0669 14 30 25
-0.666241 2.98412 12.3561 36 56 67
-0.757315 -3.72057 -14.3225 56 63 70
8.53011 -5.54805 2.00289 34 16 15
1.56305 5.00732 -13.5259 53 58 65
6.23254 -3.23139 6.29504 48 66 75
9.26995 3.74978 1.6128 54 44 35
-1.62339 -10.9898 13.6774 42 54 61
-12.5711 1.4872 -7.45985 27 29 30
9.36382 -7.9749 -13.4277 40 42 40
0.198601 3.61313 -12.1628 56 67 74
-3.83226 14.6209 -9.33826 22 22 21
-1.01257 11.6237 -1.41474 43 25 27
-10.84 4.16829 -8.06935 18 19 18
-1.5399 9.74854 12.7088 29 48 60
-3.65184 -5.48302 -15.4693 54 71 83
-2.81497 13.6436 -8.26575 32 16 16
-8.98617 -1.40965 12.8739 53 70 78
4.95963 0.776236 11.8717 29 37 44
4.77652 4.86746 3.86435 59 30 0
3.0301 4.55529 10.9525 43 40 43
5.1388 -6.37844 -14.9225 21 11 2
-4.44597 0.871538 12.7425 46 63 71
-9.36252 -8.37575 13.7021 52 72 80
-11.672 2.52986 -1.3632 15 12 16
-13.6957 -8.80416 -8.54561 59 79 88
-9.5847 6.729 -12.1977 23 28 31
-3.74894 16.8883 8.18361 47 63 65
-3.72934 6.74721 -12.0579 51 62 69
-2.78235 1.3764 -14.4018 71 44 10
-10.1165 5.14682 7.76307 18 21 26
8.61382 -5.2601 -8.5563 33 40 28
-5.07613 13.3539 -7.40796 22 24 26
-5.22844 12.6492 -2.69178 17 16 21
8.19016 -6.58 -13.8088 47 54 51
7.12362 -1.32734 6.23398 45 61 70
8.29848 -2.85601 0.0503082 32 11 5
3.02421 -2.90014 -12.6763 58 65 74
-1.8508 12.9109 -4.23564 38 22 19
-5.64531 12.5581 2.89811 27 32 35
-2.69238 13.3604 -13.2213 43 35 37
6.32631 -1.26121 6.17105 47 62 70
9.87906 3.41107 -5.92657 78 43 9
7.55798 2.95382 -6.73617 79 47 14
-2.5582 13.4589 -12.6252 37 12 15
9.24092 -7.05486 3.8562 59 61 68
-11.5865 2.83942 10.2603 14 15 19
8.93394 -3.56723 -3.17459 58 55 62
4.70756 -4.79242 -9.58676 22 17 5
-12.97 -4.32836 -0.840677 49 71 83
8.12024 0.600448 -6.90504 60 56 56
-7.85317 -9.23161 13.7174 53 74 85
2.90697 8.67319 0.14825 53 30 5
-1.93158 12.8268 4.42785 47 39 46
-4.6272 14.2745 -13.1306 36 32 38
-0.414225 -10.639 -16.6444 22 33 17
0.910422 8.54936 -2.28053 44 27 30
-11.1288 3.21663 -13.2179 46 55 58
3.84133 -10.3674 13.3934 29 38 28
8.90025 -6.00304 -9.86258 26 18 6
-12.7816 -5.93904 6.70863 40 64 74
-0.950941 11.2328 1.31821 38 17 23
4.30418 1.8679 6.53976 14 7 14
-1.62825 1.37053 -14.5756 63 40 12
-8.6173 7.39507 2.36681 20 19 22
-7.89224 8.86649 0.333885 24 25 28
2.602 4.09418 -7.37717 31 13 17
-12.441 1.40873 1.41921 9 9 12
4.16695 -9.33033 13.2453 14 31 20
-13.2389 0.944057 3.17032 22 22 28
-1.64281 12.8882 12.6179 31 38 43
-6.60519 11.2445 6.22641 25 28 31
7.02215 -7.81655 -15.2353 43 49 52
10.7231 -12.4201 9.6348 29 35 34
0.40685 8.17126 -10.5463 36 28 29
10.5327 -7.53058 -9.69641 34 34 21
-10.2226 5.34479 -8.98787 22 27 30
10.472 -6.98573 5.07288 43 60 58
-1.05155 5.33337 12.0442 36 59 69
2.01586 -11.3256 -17.2743 17 10 10
-5.7573 8.66922 12.7585 40 58 67
7.0279 -9.98318 13.7307 23 35 29
11.2075 -9.75571 -6.15479 39 39 32
-9.03455 -5.34096 13.0472 51 73 82
8.84283 -5.47264 -3.71354 57 56 65
-4.00058 5.63044 -11.7659 51 68 77
4.16104 -4.88109 12.3137 62 80 88
4.21352 7.5241 -2.34515 60 41 18
-0.812819 -4.04273 12.7588 41 63 73
4.13165 -4.30543 -11.2026 26 24 12
-9.72373 5.85958 12.7212 19 22 23
4.2798 -3.73141 6.89256 51 65 70
4.09282 -10.5816 13.3519 26 34 26
8.50426 -0.44591 6.23177 52 62 67
6.10203 -4.39786 -6.63958 51 63 72
9.92859 -5.74295 7.69079 23 41 32
3.07513 4.38609 -4.95269 61 32 3
-2.06439 13.9633 9.12337 41 59 69
-6.19908 12.0829 -12.7201 35 33 34
0.452137 9.04468 7.88352 41 37 41
-8.81788 7.63125 -3.12689 28 28 28
2.34063 5.27672 4.53631 29 27 27
7.76994 5.61616 3.4712 46 39 13
-4.8378 14.3223 -12.1039 28 23 29
-5.57 12.5645 -8.50752 28 31 36
-13.1019 -6.99121 6.30536 45 67 75
8.40262 -5.57443 -9.09209 24 16 6
-7.28018 -9.66079 -15.7159 55 74 85
-5.98543 2.65 -13.4394 58 42 24
-4.96313 -7.02793 -15.5668 47 62 70
6.19346 -5.24357 -9.89715 26 41 28
8.93252 4.59449 -2.24605 60 40 14
-9.18037 6.78179 -10.781 18 21 22
-4.88222 -2.17252 -15.4235 53 63 70
-7.51308 9.10557 12.4459 24 25 28
1.08725 3.46105 -12.3513 52 66 74
11.2082 -7.9466 -4.66009 40 34 25
9.05677 4.38616 -2.15562 62 45 28
10.3299 -7.85081 3.10532 48 41 41
3.81828 2.44287 7.55195 22 17 21
3.9526 -9.3385 13.2783 13 29 19
2.81625 -4.45663 13.016 46 60 65
-10.2385 5.20036 -1.2096 27 30 33
0.838028 -0.337414 12.3885 39 61 70
6.22675 5.93051 3.5139 60 40 12
-9.91777 -10.2494 14.0878 53 72 79
-1.56466 15.0515 5.26396 76 80 85
-1.85772 12.1405 -5.111 35 15 17
-9.72949 2.49 13.3713 46 62 67
8.30364 -3.79977 6.2671 51 64 69
-0.267614 9.42339 -9.28394 39 27 28
-8.93897 7.87127 -12.3677 28 32 31
10.3549 -6.14898 -6.88095 40 39 28
-4.44076 1.17271 -14.844 66 42 3
10.4503 -8.62659 -12.0348 45 51 45
4.63738 1.39857 12.8038 25 25 29
7.20495 -5.19557 -6.9244 33 33 34
-6.99574 10.461 -5.94067 21 21 25
11.3911 -8.48828 1.00493 45 41 40
-2.36782 14.1227 5.19535 69 73 85
6.15973 4.7273 -4.85905 69 42 8
7.3235 -6.67996 12.2654 12 28 20
8.45033 -9.48208 -14.7302 25 22 12
-2.56538 -0.663687 12.7323 43 62 72
-1.29608 -9.59936 13.4795 41 60 68
11.355 -10.7833 -3.62735 39 49 37
-5.7249 8.97688 -12.3757 49 58 65
8.63763 -3.26819 6.17039 56 64 69
10.6228 -9.46728 -11.3844 37 39 21
2.09242 0.716955 12.6393 33 54 65
-0.504457 14.4707 9.03625 51 61 71
-6.30859 11.7671 -12.0115 30 31 33
0.292898 -1.2382 12.6624 39 60 72
3.97446 -4.43618 -12.0545 31 23 6
-13.1604 -4.94989 -6.20278 54 78 85
8.34171 -3.82834 -1.03271 34 13 6
6.10132 -2.19454 -6.33126 57 68 77
5.46644 -3.57787 6.47572 48 61 67
-8.97966 7.18237 -7.99865 18 19 23
-5.49157 12.8633 12.2283 29 29 33
-6.33856 0.620253 12.6371 44 66 74
2.32026 7.3981 -1.7175 71 37 8
-2.05429 16.3397 9.21718 49 62 75
-12.636 1.1734 -8.10774 12 12 19
-1.13049 -0.0384297 -15.835 67 40 6
-4.31039 14.6212 -6.32834 31 24 29
5.32328 -8.21877 12.7205 1 17 8
4.56524 -10.3163 13.372 20 28 26
-0.556679 3.34739 -12.5266 49 62 63
7.83595 -5.5761 9.42841 21 35 30
4.23861 -1.4766 11.8532 60 77 84
0.356041 15.6185 6.96172 58 74 79
-11.0415 3.90116 -5.918 22 19 20
1.91964 6.44481 -3.25312 40 23 19
-5.5534 12.3441 12.8233 15 21 25
-3.71218 16.1065 8.15125 47 63 71
6.30684 -5.23315 9.32632 34 54 55
-1.76797 12.2336 -4.57034 40 23 22
4.0065 7.63263 -2.25001 61 41 20
0.834749 -4.08592 12.9972 42 59 63
-4.53206 1.90533 12.4939 38 61 70
-8.84783 7.14809 11.9615 26 30 33
4.43363 1.33616 -13.0505 34 15 16
-12.6814 1.47906 -2.77864 20 15 20
-2.52035 5.55909 -11.9312 51 67 73
-14.0732 -10.8842 -12.1619 21 30 33
-3.36542 -0.0571041 12.7279 44 61 68
-6.87873 11.0847 -9.24173 29 30 33
-13.2839 -5.88244 -9.46087 50 75 86
2.89784 -8.83218 -16.8266 28 37 27
9.08716 -6.67011 4.02676 54 64 69
-4.58988 -10.042 -15.6884 47 64 73
-10.6131 4.2003 8.89617 11 16 23
5.01525 0.678387 -8.92519 34 13 18
0.116913 8.33355 -13.3928 43 51 55
5.9994 -5.00699 -6.84903 58 60 63
-0.781447 10.211 -11.7914 35 22 23
0.641634 -6.87329 13.0756 37 59 70
11.5018 -10.4995 -0.73778 42 40 41
-7.33931 9.90923 -10.8421 20 24 25
8.65358 4.66734 4.13385 55 38 5
-6.61319 10.4935 12.0938 18 21 24
-3.39195 -5.44181 -15.5384 50 66 74
0.68701 -10.2555 -16.7282 33 40 25
0.375391 15.4143 6.21038 61 74 80
-5.94894 12.2456 2.52692 31 30 34
3.39364 2.41716 13.8282 32 47 58
9.56831 -8.32368 12.909 26 41 31
-0.790742 -3.25821 -14.361 58 66 74
4.27003 -0.428328 -8.28307 52 62 72
3.9826 3.75107 -5.11616 82 46 0
-8.54224 8.1889 2.61193 31 37 39
-7.07932 9.94948 -3.85175 19 19 21
1.76039 -11.7054 13.652 36 44 49
-3.1832 14.3241 -12.4816 27 25 26
4.92414 -6.45802 -15.5974 30 29 14
-4.02251 13.6953 13.7835 35 42 48
2.69899 -6.84677 -15.6989 27 30 17
-8.32183 8.35561 5.67865 27 32 37
3.88646 1.39112 -13.7755 56 56 60
10.0657 -10.5009 -12.9879 39 49 36
-1.01976 -3.87995 12.663 41 64 75
-3.45354 14.712 13.1462 23 17 23
-7.42539 2.70795 -13.4009 57 46 25
-13.386 -7.02344 -4.0689 57 76 83
0.0569859 9.03998 -5.79022 33 17 21
-6.93563 10.7918 -4.41825 30 33 34
8.55996 -1.39563 6.20294 55 63 69
-6.26036 11.7806 -12.5303 33 35 36
-13.0813 -4.72241 -9.14308 55 74 82
-7.23379 -9.92772 -15.7652 54 73 82
-5.15394 13.069 -7.52562 30 28 30
-5.46717 10.3594 13.4117 43 58 67
-6.35032 0.910862 -14.9725 60 39 16
10.708 -6.78077 -6.68792 35 38 24
6.28555 5.93179 -4.02495 64 41 19
-8.8607 -2.51673 -11.99 47 70 87
-13.3271 -6.3408 -9.34232 53 77 87
8.88907 -7.64854 12.6944 1 18 4
-8.56068 7.87364 7.838 23 24 25
-14.1114 -10.8121 -6.78152 33 42 48
3.29598 1.23026 -13.4956 58 63 66
0.221276 3.02179 12.2718 31 54 65
3.68247 -6.57015 -15.2467 29 22 7
6.82157 -10.2126 13.707 12 28 16
-4.56696 10.9757 12.9366 41 54 60
-12.889 -8.24903 -12.4142 53 74 82
-5.47601 12.5578 -2.75919 18 22 25
5.18602 -8.6885 12.9348 2 15 7
-0.721542 10.0426 -8.0951 29 15 15
-5.37727 8.81361 -12.1905 49 61 69
-12.3726 1.64412 12.8898 14 16 21
-3.31055 14.4529 -12.5281 36 25 26
-5.73557 12.464 10.295 25 29 30
-2.66235 13.4874 -7.83664 31 9 11
-2.33223 13.0476 -9.69508 38 22 23
-6.16711 11.554 -1.54154 22 27 32
4.06884 -9.69149 -17.2003 31 41 32
-2.53137 17.4764 7.84175 40 53 60
3.90755 -10.7453 13.3853 25 38 27
5.04331 0.765953 8.55767 27 23 31
7.89206 -4.49835 6.25288 44 59 63
-4.77869 14.2255 12.8135 27 33 34
-5.97521 12.3711 -7.01475 33 34 38
-1.37689 14.6963 5.25403 71 78 86
0.352089 15.6078 7.68853 59 75 80
-5.04913 14.0855 -9.26261 19 18 22
10.1058 -7.20281 -4.08304 43 34 44
-1.55589 -11.1549 13.6947 42 53 59
-1.14731 -3.9275 -15.6079 57 69 74
-0.233021 9.71508 -13.0937 47 42 41
3.33354 -6.58722 -15.4117 36 39 26
-2.20248 -9.31691 13.4626 42 63 72
4.0693 -2.68578 9.70677 45 64 75
-4.17838 7.11047 -12.0741 52 62 71
8.3902 4.942 2.96083 73 45 8
-2.12979 15.4842 9.09333 46 68 72
-12.9644 -11.4432 12.9782 14 23 30
-9.32015 6.84419 6.6076 23 29 29
8.26324 -3.22482 -1.66431 35 16 15
-5.01948 13.8856 -6.10571 21 21 26
-8.65496 7.35036 2.55241 24 25 27
2.95368 1.8378 -13.4466 55 60 64
4.06912 -12.0614 13.577 9 11 12
0.303276 9.36172 2.71347 39 30 36
-5.06319 -8.5232 -15.7054 47 62 71
-5.06946 13.5524 -2.77743 27 26 30
-5.29168 -11.2563 13.8361 40 50 59
6.6749 2.62718 6.28769 47 28 6
8.14209 5.53498 2.78091 58 38 12
8.72143 4.60344 4.45331 50 37 4
4.0747 -10.4374 13.3535 29 36 28
-2.64323 13.5763 -6.18234 32 11 11
-8.23851 0.490368 -15.4783 57 58 55
4.62546 -4.73163 -8.71 39 42 44
9.18012 4.32518 -3.22742 76 39 9
-6.94928 10.9315 -4.931 30 31 32
-3.20941 -1.04058 12.5878 39 67 77
-0.0538282 9.82209 1.4968 30 24 21
-4.8717 13.7555 11.8168 19 17 22
-12.7188 -7.24794 11.8943 45 69 78
9.74489 -8.23884 12.7305 16 30 21
-8.79579 7.2826 6.33579 25 25 30
10.7975 -10.3128 -9.68448 43 50 42
3.6684 2.76366 6.91726 22 18 22
9.64329 3.78409 -1.49487 61 41 8
-12.9583 -4.01991 -4.51065 56 74 79
-5.46651 3.10646 -12.8301 67 39 4
-8.76006 7.28172 3.94344 24 26 28
7.22198 5.65784 -4.0545 81 47 8
0.381084 8.93936 -2.53812 37 21 21
-9.78011 6.55984 -12.4438 33 36 39
0.755898 -0.118334 12.3679 39 62 72
-9.20127 6.94447 7.28538 29 31 33
4.40718 -4.10006 10.1571 44 43 40
-2.55025 0.324013 -15.4601 68 42 9
-3.75969 12.9914 13.532 34 52 63
8.60929 -6.17683 -1.24639 37 30 25
-4.29418 14.6277 -4.74584 17 15 19
0.394415 8.79718 3.68428 40 28 32
0.617798 8.6394 3.71667 37 37 41
3.05976 -4.38629 13.0368 48 61 64
-10.7062 2.92318 -13.1121 42 51 54
0.548685 2.42082 -12.0896 55 64 72
-2.4077 -9.14828 13.4983 43 64 74
0.362191 -3.16701 -12.3042 54 58 66
-2.19454 12.1841 -9.64536 72 52 56
-2.3264 0.318097 -15.5172 67 38 7
8.46655 -6.75488 0.714411 33 7 7
-1.90847 12.052 -9.78759 33 20 24
-0.865452 13.1537 5.12476 76 83 96
-6.17283 11.5997 0.135281 24 29 34
-3.38423 -1.24526 -15.8085 46 52 55
0.625426 -3.3957 -12.4043 52 58 64
0.302593 9.3405 1.05752 50 37 41
-12.8467 -5.52403 5.47485 46 70 80
-3.66118 6.71673 12.266 43 66 77
0.575142 8.65224 8.25479 36 32 34
-8.24416 -0.980425 12.8924 52 70 78
7.17823 -5.17194 -8.14661 28 30 29
1.42732 6.42542 -9.47359 33 17 18
-4.30645 6.44372 -11.9931 53 62 67
3.7946 3.06261 5.86767 59 32 1
-13.2035 -7.72496 1.03953 45 68 76
1.96443 6.01171 3.36187 23 23 32
-5.95961 12.4338 -11.8379 38 38 39
-0.73799 -1.60503 -12.372 53 59 69
7.41707 4.44249 4.68145 57 33 1
-9.9595 -1.86008 12.9625 55 72 77
7.5452 -2.2572 -6.24823 61 65 75
10.6212 -7.58154 9.78373 32 39 30
3.02719 -3.43589 13.0555 47 60 66
3.97843 -10.9703 -17.0815 21 22 12
-6.79862 4.34155 -12.0723 51 60 66
5.36079 -7.95753 -16.0958 25 23 11
4.57899 2.52938 -6.65789 76 46 18
-10.8958 -2.11247 12.8695 49 71 79
4.54518 -5.241 7.10719 45 66 76
-9.28822 -6.15042 -12.3793 53 73 80
5.20488 1.67932 -7.21531 75 45 6
3.55292 -7.84822 13.3484 27 45 37
-9.78089 6.37944 -8.14003 39 39 41
-0.110879 9.86181 -4.81105 40 29 33
5.84335 -10.3304 13.7777 21 33 22
-10.8505 -10.2985 -12.479 43 56 66
0.302024 8.70411 -6.7163 38 28 29
-0.185786 10.3248 3.73946 40 30 31
-4.65218 -6.47723 13.3273 49 71 79
-9.26237 6.87975 -5.42638 29 33 35
-1.03737 11.3349 -0.509161 38 15 20
9.93412 -6.62685 10.671 17 37 23
4.25981 -0.58633 10.6962 58 72 82
-5.99296 11.6951 1.93097 20 21 25
-10.3389 5.11089 4.62796 34 34 37
-1.72346 5.51565 -12.0724 53 59 66
-12.8174 1.24022 5.02073 8 7 15
7.42922 -2.95516 6.27178 55 65 72
4.27137 -1.13753 10.8743 57 69 75
-5.08548 13.0047 -5.91975 20 20 24
-7.22327 10.472 -12.6739 27 25 28
-13.9094 -11.0993 3.16962 29 41 45
2.48462 4.41522 -12.916 36 25 32
-10.7482 4.03608 0.751433 11 17 20
8.57037 -4.61858 2.22368 36 22 21
5.24985 1.07644 -7.55798 62 38 10
-0.00145149 -2.71502 -12.3957 53 61 68
5.1159 8.09442 -1.79844 68 35 2
-2.76089 14.2184 3.49884 55 55 61
-5.04461 13.1442 9.49954 21 24 28
-5.88224 12.1831 1.79112 25 24 29
-10.2092 5.2502 -1.82406 27 29 32
9.92693 -7.24154 12.1528 15 34 23
0.648924 8.36208 -7.51882 39 24 25
6.10695 -1.02577 6.17408 44 60 68
-6.06725 3.44549 -12.6211 59 46 28
0.941404 7.82677 7.90369 35 33 38
11.3569 -10.6085 -4.54811 43 52 43
-3.24996 14.7538 -1.13513 41 24 19
10.8241 -7.05253 6.26623 31 43 38
-9.23118 6.39056 1.8355 31 34 41
-11.1913 2.29074 14.0243 57 72 78
-1.0364 11.5689 -3.32578 43 23 24
-0.609788 -7.83323 -16.1018 26 36 27
1.86055 2.39309 12.9417 36 52 63
2.59527 4.98775 9.90032 34 31 35
4.67032 5.9589 -3.29196 82 40 1
-6.90225 10.5493 -13.295 53 61 59
4.11589 1.37872 -10.6609 32 14 15
0.364221 8.878 -3.95805 35 23 28
0.500353 11.9924 5.62767 69 78 88
5.37691 7.55442 -2.33078 74 47 29
4.3316 2.0937 9.69341 29 26 30
2.14875 5.12671 -6.67172 33 14 18
8.42668 -2.33773 6.23644 54 63 68
-7.32214 9.91358 6.56413 27 32 35
8.62187 -2.5344 -3.51118 57 65 75
-2.64955 -0.341857 -16.0231 74 44 6
-0.326545 10.0282 -2.86373 40 23 24
-2.34261 13.979 13.4274 32 37 42
9.43036 -7.23884 1.96487 43 19 21
1.99924 -8.72447 -16.8117 17 21 4
-2.36809 3.48179 -12.3624 57 56 52
-13.1294 -7.92548 5.8008 46 65 74
-3.87912 2.33141 -13.6623 60 43 14
-8.8401 4.85083 -12.4917 46 54 59
-0.20546 8.99006 -12.2965 30 15 18
0.408171 8.1186 -10.3451 33 24 26
10.6039 -10.1739 11.4422 30 43 36
-7.99247 8.78665 -1.74221 31 36 37
11.098 -8.98134 9.47103 8 29 17
7.38489 -10.2213 13.7401 31 41 35
-9.87906 -1.06459 -11.9406 46 69 81
-2.33651 -11.5548 -16.4974 12 21 22
9.00557 -2.18153 5.41454 56 67 77
-12.6288 1.67315 -10.5046 22 18 24
6.08391 -8.65354 13.2518 9 23 19
10.719 -10.0032 -9.82881 33 38 26
-6.16634 11.7646 -5.56945 18 15 20
6.44489 -5.32361 -9.50741 19 27 15
8.95255 -5.43709 2.78271 55 54 61
-1.57767 17.4636 7.37177 51 59 59
-8.48548 7.74523 9.04633 23 25 28
1.07916 7.32682 5.7415 34 35 37
-11.6473 2.6498 8.50939 18 18 22
6.38228 -2.30199 6.3725 49 63 70
-6.95487 9.86837 -13.3521 44 62 68
-2.99118 14.6379 3.77337 52 51 56
8.85398 -0.542677 -5.73926 60 64 71
-12.8966 -3.4122 -4.12674 51 73 81
-10.7292 4.28178 10.0355 17 20 27
6.80999 -5.12698 -8.51002 21 30 20
-9.78476 5.8501 12.0219 22 25 32
-8.25219 2.34171 -13.1599 48 56 51
6.92856 6.82489 0.856121 70 39 3
-8.52526 8.26479 -2.17366 29 30 32
-6.76558 11.1663 -12.2213 26 27 30
7.72161 -3.72499 6.36343 53 64 71
8.02531 -3.66769 6.33842 50 66 69
2.05088 6.02545 10.8558 32 32 36
5.54684 -5.15092 -12.2925 34 28 18
-8.58966 7.56765 8.06991 25 25 28
1.18155 7.44468 -2.63162 47 46 52
3.58621 -2.80716 10.2183 50 70 76
-0.195836 -7.97838 -16.7457 32 42 31
4.7772 -4.20054 -6.46463 57 62 70
0.844325 8.19193 1.64369 26 24 27
-0.110021 9.33081 -6.92519 38 23 22
-7.58154 9.87695 -12.3692 26 27 30
-7.72773 8.86205 6.83969 18 21 24
-5.04897 2.71326 -13.3464 64 43 16
-12.407 2.30769 -11.6656 21 21 25
6.39691 0.0646129 -6.41077 52 57 67
-4.82301 9.57883 12.4034 43 61 67
5.15226 2.35636 5.95419 52 28 1
-1.20892 11.445 -6.36722 40 23 22
-6.93174 10.6821 -7.4257 29 29 33
3.58049 -6.94345 13.1262 25 40 32
-8.51707 7.92316 8.10108 21 25 24
3.48749 -10.6434 13.4538 31 48 40
-10.6555 4.63466 -10.7014 25 26 26
-9.95575 6.18023 -12.7412 27 27 30
-0.792992 10.1947 -11.6551 34 22 22
-0.964729 -5.03692 -15.0402 54 63 74
8.93926 -3.90965 2.85159 58 59 62
2.87153 2.57341 13.7353 36 53 61
-6.0218 11.9567 -0.248564 23 24 27
-12.3333 -6.41739 12.7304 46 70 81
-4.96928 13.9784 -5.41655 19 16 24
-6.00487 1.10393 -14.7039 61 37 8
-10.5348 4.57922 -1.0743 17 16 21
0.0634232 -11.3118 -17.053 15 9 5
-4.95389 13.7878 1.14094 19 20 24
-5.41079 12.3952 -13.3512 53 61 65
6.3906 -9.8327 13.6831 13 22 9
-11.5608 -4.9853 13.2915 55 74 83
-0.892824 11.4017 12.0389 34 37 37
-5.44423 8.53771 12.446 45 56 65
3.32435 1.69184 -13.6427 55 61 64
0.296694 9.11944 2.90227 31 22 29
8.76233 -7.74225 -13.9938 39 43 36
-6.06324 11.285 2.75401 16 13 19
10.6564 -7.26302 9.55102 25 38 30
3.03226 3.80323 7.59741 23 20 25
-5.87251 -10.1651 -15.9357 49 64 71
-0.15062 9.88976 -3.28456 35 21 23
8.85383 -0.694908 2.96437 59 64 74
-8.46448 7.44163 12.1825 25 30 34
-3.44911 17.1947 6.25278 43 54 59
-9.24595 -8.87123 -12.7834 55 74 80
0.820114 1.8781 -12.1337 54 63 71
-0.79451 10.827 -4.28273 39 24 27
-9.51181 1.19485 -11.895 45 61 68
-3.52979 14.6512 -7.97915 39 19 19
-11.0453 3.87375 3.91687 24 28 31
-1.36397 11.5324 -7.373 38 22 21
-0.297793 7.7167 -13.3619 52 58 65
