ply
format ascii 1.0
comment Created by Open3D
element vertex 1390
property double x
property double y
property double z
property uchar red
property uchar green
property uchar blue
end_header
-10.6586 4.33282 10.8437 20 22 27
4.19258 -5.06578 -10.7329 21 22 7
1.24014 3.15464 -12.4337 55 62 71
4.1089 6.55839 -3.05574 63 37 9
-12.9154 -4.453 0.257437 45 66 76
-1.91862 -8.55358 -15.8137 21 31 22
-2.15498 17.1673 9.04158 41 56 62
6.10697 -5.07894 -11.2333 38 16 22
-2.15178 2.81887 12.3478 39 62 73
-13.406 -6.85743 -11.6467 49 73 84
-5.50948 12.5192 5.08711 20 19 22
-6.49718 -9.24781 -15.8273 51 68 77
6.42263 -7.41886 12.921 19 34 27
-5.00037 13.7014 -7.62262 26 32 35
-10.6568 -1.57911 12.9285 52 69 74
-12.4067 -6.39072 -12.4965 54 71 77
-4.81931 13.0463 1.519 21 19 22
-5.77282 11.748 11.7911 15 18 22
-3.73954 16.2115 8.78336 45 64 72
-7.32171 9.91711 -10.7665 21 25 26
-11.9787 2.06191 13.3739 17 18 23
-1.73232 12.7141 -0.516365 42 33 32
-1.4679 9.18809 -13.3852 55 59 63
-7.52479 -6.91619 13.2082 50 73 80
-4.61851 13.9264 -0.558968 29 31 37
-4.95196 13.1926 9.73295 19 24 27
-13.4679 0.716919 1.44832 23 25 30
-9.59051 6.27913 -1.07973 31 31 32
2.84083 -8.17457 13.2649 18 35 21
-3.58419 -10.4978 -15.8931 44 54 61
5.9392 8.0916 -0.22859 66 44 11
-9.56556 6.60264 -10.8994 24 30 34
-5.79275 -2.28816 -15.2748 52 68 77
-3.90395 -2.78305 -15.4151 53 69 74
-2.74893 0.251966 12.389 44 69 81
-9.78808 -9.93851 -12.6786 50 72 79
-7.73426 9.57962 -2.37112 32 35 38
-3.02184 14.5473 -5.15246 36 13 14
-13.161 -8.60414 8.66377 52 76 86
3.04796 7.22833 -2.40162 66 47 18
-4.97511 12.6962 1.12901 19 20 25
-6.00268 7.77855 12.6172 45 61 56
7.34731 -5.12978 -6.76839 32 33 31
-3.40528 1.4898 -14.3844 63 38 8
-6.04497 12.1178 -5.00009 29 31 34
1.87551 6.03734 -9.6883 41 33 34
-5.22733 7.26554 -11.782 47 67 79
-8.45434 -11.1515 -16.2189 17 34 38
9.65638 -5.38841 -5.24663 70 67 71
3.70193 2.3081 -12.6669 32 15 17
7.44992 -5.04061 -9.7862 10 13 11
6.91337 -5.16579 -8.6532 23 29 20
-7.74701 8.90072 13.0857 22 25 28
-12.0409 2.47184 -12.1189 16 15 21
0.831824 -4.34955 -12.2788 52 57 61
-3.25326 6.27365 12.3218 40 59 70
-12.5421 1.45191 12.3878 13 14 20
-5.10553 -10.5306 -15.926 37 47 51
0.495815 8.75338 -4.59254 40 28 30
-12.6885 1.27059 -10.4252 18 15 22
-3.90248 -10.5181 13.7886 46 64 74
-12.795 1.52072 -12.8257 21 22 26
2.29685 -0.0382185 12.5879 36 61 72
-10.4383 4.25012 6.0408 20 18 21
-3.36583 14.723 -2.69615 39 26 23
-0.0020113 9.50244 -6.24846 36 22 23
1.46342 8.08248 -1.41234 39 35 42
-10.4695 2.74806 14.0783 48 54 68
1.98065 5.70799 -7.24708 35 20 22
-7.31852 -7.08658 -15.6517 51 72 82
2.94042 -9.08174 13.3813 17 34 25
-13.3543 -9.3728 8.26187 54 76 84
5.92184 -6.04362 -14.3838 34 34 15
-1.93451 7.15197 -11.9274 54 70 80
-1.42059 11.146 -7.6177 32 15 17
-14.1977 -10.7065 -11.211 31 38 43
6.28329 -10.6414 13.7583 14 29 19
-0.833988 -4.17768 12.8235 42 62 72
-13.7942 -9.6535 -4.423 58 80 86
1.70135 -9.04706 13.4573 39 57 61
-5.31056 12.408 -13.3637 54 54 60
-5.57708 -10.6416 -15.9801 30 40 45
-7.93753 8.76388 -4.12867 25 28 28
-5.15414 13.4937 -6.69885 25 29 31
-13.2391 -6.07792 -6.97902 55 75 84
-4.32252 -0.663866 12.7822 46 64 74
-4.0966 -7.6743 13.4383 49 64 72
4.56253 -5.5988 -13.4695 32 11 0
-0.298879 12.6596 5.06993 76 77 89
-10.3872 -2.44178 12.9305 52 71 79
-4.60407 14.4886 10.7887 19 21 25
-5.27543 2.297 12.5483 38 61 72
-12.6002 1.37634 13.2901 19 18 21
-9.43199 5.94946 6.70413 19 13 19
8.61118 -2.18685 -6.2562 65 65 71
-4.81074 2.96614 -13.0923 56 41 20
-12.7587 -4.77975 9.19646 52 65 74
-3.98339 -8.08934 13.3458 47 66 73
-13.4496 -7.54102 -9.7392 55 77 86
-8.58385 7.36443 0.782549 18 17 22
-5.09619 6.22241 12.2622 42 60 71
-6.24108 -1.31244 12.952 50 68 75
6.75835 5.72831 3.50574 71 41 1
-12.5485 -6.99559 11.5129 42 66 78
0.820361 0.464116 -12.1835 58 67 69
-3.0009 2.36627 12.3509 37 62 72
2.09997 5.90093 -5.09571 39 28 30
7.89264 -6.56007 12.068 12 38 28
-11.3195 3.67344 -1.99017 32 36 40
0.349377 13.1654 8.61242 61 79 89
-13.1174 -6.70449 0.228941 48 67 77
3.4428 3.18239 -10.2194 41 32 33
-10.2455 4.59912 9.8847 17 19 20
-4.87362 13.7725 7.82618 29 28 31
-10.6793 3.9224 13.8396 47 47 53
0.781739 -1.61031 12.4913 38 59 70
-4.58937 14.2853 7.62537 19 15 21
-4.99072 13.2714 11.0083 20 23 25
-3.45687 1.00176 -14.8577 63 36 6
-12.6655 -3.21557 4.37882 44 67 75
11.1307 -8.16653 2.47544 50 39 41
-0.455044 -4.84521 -12.9889 71 81 88
-8.94949 -9.27518 -15.533 56 68 76
3.00191 -6.26621 13.1404 43 60 68
2.93811 -10.5666 13.5005 37 56 60
-13.2248 -11.659 12.9493 14 21 26
-4.86834 13.9119 -1.96709 21 19 23
0.299344 11.4257 6.54469 61 79 91
-13.4691 -9.76381 8.32537 55 74 81
-3.03538 14.569 -2.94955 35 10 10
-13.572 -11.0596 8.77647 33 37 43
-7.20745 2.23383 -13.8764 57 41 15
11.1402 -8.25691 -0.592983 42 32 32
-11.2516 3.59911 2.70222 27 28 31
-1.06244 1.1947 12.3347 38 61 71
7.16016 -5.16767 -8.22783 23 25 23
-10.8083 -8.78151 -12.5598 54 70 75
-1.81142 -3.26831 -15.5757 51 65 73
-6.1319 12.0966 -6.06698 30 30 32
-13.6429 -10.9832 6.93113 30 40 44
-0.577165 -4.63996 13.0166 45 62 67
-4.63904 -7.28535 13.2775 47 68 76
-12.4891 -7.56928 13.0824 53 72 73
9.68314 3.44112 5.66299 56 38 13
3.7874 4.81252 -4.1428 84 47 6
-3.61927 0.166006 -15.6562 66 37 3
-10.8515 -9.30887 13.8404 52 73 83
-2.97641 4.27648 12.5003 43 62 72
3.68479 8.20047 -1.36424 81 47 17
-3.0206 14.618 2.10714 38 12 13
-2.97918 13.8214 13.7805 17 17 15
-4.32293 -9.74069 13.7331 47 65 75
-12.2304 -0.426639 12.6321 42 56 66
-10.3227 0.295261 13.0358 50 66 73
-9.36265 6.79149 6.81657 24 29 30
-13.494 -7.82281 -1.88491 55 78 89
-0.0913563 2.08146 -12.5509 50 51 55
-7.09786 7.11801 13.2335 43 58 63
-0.259104 10.5813 12.5864 40 46 47
8.13477 -2.7222 6.20984 53 64 70
-0.362301 14.7266 9.08438 50 65 73
-7.71429 9.68975 -3.67591 26 25 28
-4.71552 9.29826 -11.9671 49 61 70
1.07673 7.4853 13.644 38 44 48
-13.6326 -8.13742 -5.75535 59 80 86
-7.53652 9.15387 12.8081 15 19 21
0.586856 0.100515 -12.2772 61 67 70
2.09884 -11.3116 -17.2723 18 11 11
1.83778 5.84439 -11.2776 31 24 25
-8.89822 -8.29765 -13.2251 53 70 78
-4.36356 -10.8432 13.8328 44 59 68
-7.76204 9.1819 -8.6511 21 20 25
6.94837 -5.18424 -9.44127 23 12 8
-5.33501 10.4931 13.3742 40 59 68
-1.79193 0.611221 -15.251 70 40 4
-5.59571 12.0005 11.4006 20 17 22
-1.07762 11.634 -3.60641 46 26 27
5.02297 3.04621 -5.896 79 43 0
-2.5498 11.1129 12.5973 37 56 67
0.504831 15.1054 5.47985 61 74 82
-3.47847 11.0194 -12.5392 49 58 64
0.462337 13.5912 6.19585 60 75 83
-6.15936 11.6375 13.1891 24 30 33
-12.8755 0.797592 -8.71698 15 14 20
-8.95255 6.66791 13.9282 42 46 49
-7.41458 5.14169 12.6307 45 60 64
-3.44413 13.6699 13.7265 21 20 26
-0.383879 16.6012 5.1659 69 71 76
6.11958 -6.17846 11.5172 14 31 22
-10.0698 5.75523 -12.3999 22 19 20
-3.86293 -5.35271 13.264 45 65 72
0.272554 6.14758 -13.0764 51 58 65
-13.4056 0.879028 -11.0569 18 20 24
2.66196 2.0279 -13.2607 55 59 63
-3.58799 15.1715 8.67696 40 58 79
-8.96527 -8.92094 -15.4991 56 72 78
2.24343 -10.3875 13.5214 44 60 66
-8.73073 7.34213 -5.03644 24 22 22
-10.4917 4.29993 1.83899 11 13 17
-2.40697 15.4297 9.15679 47 64 68
1.632 3.09101 -12.6562 55 60 64
7.01582 3.16116 -6.52273 69 41 8
-2.59522 13.9946 -4.92847 38 22 23
-12.0638 2.33957 10.6256 23 19 25
-12.6202 1.28516 -9.32276 18 18 25
-12.659 1.3651 11.4809 15 15 22
3.68816 6.55824 -2.86264 61 35 8
-13.79 -9.48692 -11.698 60 77 81
9.58069 3.72405 4.86992 62 37 4
-4.83121 1.52498 12.5114 43 66 75
-7.60636 9.75232 -7.62629 30 32 33
-3.49282 15.0425 7.94351 38 63 70
0.900959 3.28898 -12.199 51 68 81
-13.4905 -9.20554 3.86066 48 67 79
0.20916 16.3634 8.60102 59 76 82
-6.14304 5.66847 -11.9482 48 59 66
9.77101 -7.7694 12.4518 8 26 24
-6.93246 10.5988 -6.79533 31 31 35
3.0968 7.54902 -2.04632 60 38 12
-0.0729833 -0.272477 -14.8753 62 68 72
-5.55112 12.5325 8.36252 17 20 22
-8.63521 7.54257 7.59151 23 24 28
-7.41352 7.1314 13.5308 43 58 61
-4.73011 -4.31944 -15.4682 49 65 73
-13.9468 -11.2857 2.33775 28 42 46
1.51537 -1.39511 12.7596 42 60 69
-2.47728 13.8857 -0.169275 40 24 23
-10.3141 5.16779 6.68195 29 34 38
-5.96232 8.99763 -12.5458 49 58 64
-1.96717 -0.317285 12.6521 41 60 66
-13.5011 -6.93732 -9.14407 56 77 85
-0.075983 16.8833 8.39498 50 64 69
-13.8795 -10.8648 0.0987282 19 31 34
6.77616 1.97919 -7.35903 77 46 5
-8.41177 8.16643 8.41636 31 32 38
-12.4178 -5.80092 12.7922 47 69 78
0.544656 9.6879 5.5528 43 40 41
10.8129 -8.15465 1.68786 52 35 34
-11.1748 -7.73579 13.5087 56 76 83
0.36183 11.9264 8.00808 60 75 82
5.10398 3.53198 -5.73458 68 37 3
-6.94487 10.9703 -11.3954 30 32 33
3.4655 2.85104 -12.5883 35 18 20
-6.53858 2.64068 -13.4409 61 42 14
3.36755 3.19039 -12.7261 41 33 34
-12.9214 -6.39687 2.98916 44 69 80
-6.19438 -8.73657 13.5958 47 66 75
-6.89081 11.0797 -6.46072 30 31 33
0.148585 16.6733 8.37708 54 70 76
-5.3816 9.39739 -12.3532 47 59 66
-13.2759 -8.15849 1.78894 45 70 80
-9.7595 6.32642 -3.70903 28 31 31
-0.355986 10.6792 2.44668 42 34 37
1.72108 -0.8112 -12.0674 52 68 81
-12.5813 -4.49054 7.78708 42 60 71
9.84717 -6.43717 8.93647 6 26 13
-7.11621 -7.72277 13.3514 47 69 79
-3.67962 16.9359 7.59016 46 61 67
3.51947 5.42734 -3.70182 73 35 6
-12.9047 -4.14214 -6.97252 54 75 83
-8.10692 8.20355 -10.2291 29 28 31
-5.90133 -7.38411 13.4703 50 66 74
7.45157 -2.04303 -6.24347 59 63 73
-6.14521 11.9931 -7.23408 29 26 30
6.03969 0.871128 7.28135 26 33 34
-10.181 4.5208 13.8475 38 45 43
-4.62447 14.2719 -3.00166 21 20 23
-0.592702 11.2133 13.4105 45 46 51
-1.49232 6.428 -12.1577 50 60 67
4.36497 7.52238 -2.34363 59 38 14
-13.0585 -5.00214 -12.0964 54 71 74
-10.8162 3.66338 13.767 36 37 44
-5.15403 12.8967 7.17937 13 17 22
-9.0615 7.06643 -3.05505 25 25 29
-1.75754 13.4767 5.29297 68 75 84
-11.7942 -1.80309 12.7071 49 70 82
-0.173776 4.02511 -12.175 52 61 71
-2.92997 0.894684 12.5356 36 60 68
1.87653 -0.165243 12.5032 37 61 70
-5.62724 10.2135 -13.0099 52 59 62
-6.49162 6.74153 12.6012 41 60 67
-14.04 -11.1063 -3.80356 31 45 50
2.35682 -4.02978 12.9749 40 58 65
-11.7801 2.30127 8.11185 7 6 12
7.91817 2.23597 6.49367 63 36 1
8.542 -9.13481 13.4215 27 48 42
-3.16234 14.1387 13.7681 19 19 21
-5.82464 12.5156 -11.3931 30 31 37
-2.30258 -1.03978 12.811 46 60 68
-9.11817 -8.07586 -12.7171 55 75 87
-12.3709 -4.03725 9.79467 45 71 83
-5.63822 -8.87357 -15.73 48 65 77
-6.67542 11.2509 -5.08224 25 27 28
-11.35 2.87949 5.59286 16 16 21
-3.38163 14.732 -4.09349 32 19 17
-2.77579 -0.495881 12.5948 42 64 73
-4.06391 14.7359 -3.05807 29 29 27
-9.80396 5.68963 13.6606 25 33 37
0.507358 14.7166 6.21239 62 73 79
-2.13265 1.56402 12.6313 45 64 73
7.63415 1.55677 7.13753 52 44 39
-12.7659 -5.57593 9.2734 47 67 72
0.105181 -11.0665 -16.8655 18 8 5
3.97194 -12.0327 13.5726 11 14 14
-8.70202 -4.33671 -15.2149 57 75 80
3.67172 -2.01214 12.9839 45 60 69
-8.52046 -6.08069 13.4145 55 72 78
-4.60588 10.3514 12.6032 38 55 59
1.21163 2.66782 -12.3209 52 63 67
-12.4993 -4.46795 12.2991 45 68 79
-13.9193 -9.91402 -11.5341 61 74 77
4.45374 3.5363 -5.67519 70 39 0
1.21672 6.57814 -12.4757 30 22 22
-9.01836 6.97898 -1.01554 28 29 30
-3.74556 7.3425 -12.0704 52 65 74
-9.7105 6.50399 -6.97191 37 38 40
-5.96108 9.58873 13.4486 39 59 68
5.51851 0.201608 -7.16547 46 47 58
6.23359 0.846559 -7.69378 58 47 33
4.11989 7.98328 -1.63728 71 39 6
5.47115 5.47115 3.65783 68 42 7
-6.95834 10.2983 -7.14602 21 23 26
-1.03975 -9.84633 -16.3379 32 42 34
1.73654 6.55972 13.5176 37 42 44
-3.26053 11.1994 -12.7744 47 59 65
-0.777852 -1.34936 -12.4454 54 59 68
8.14582 -5.28738 -9.7571 30 20 8
-6.85546 10.2629 12.6474 17 21 27
-0.790857 -2.15432 12.5518 39 61 74
-8.39632 0.836273 -15.1638 60 61 51
4.30107 1.3635 -7.9552 35 14 17
0.0779686 16.8911 7.45132 53 67 72
-4.74539 13.9488 -7.13643 17 17 20
-0.490173 -1.00501 -12.2934 56 59 65
4.55752 -5.63725 -13.2195 25 16 3
-10.7414 4.3112 -7.1097 18 16 22
-9.85133 6.14551 -6.99836 22 24 26
-4.59154 9.71368 -12.1193 47 58 63
3.84129 5.5625 3.23044 48 30 11
-8.65799 7.61638 0.0592117 28 26 29
0.519947 2.15711 -12.076 54 64 73
-3.13068 7.58652 -11.9169 52 64 72
-13.4478 -7.78748 -5.48696 60 75 84
-3.23206 -8.93854 13.5402 43 65 74
4.33071 5.70015 3.21902 49 34 12
-2.85648 12.8428 -13.4485 52 55 62
7.5854 -5.18813 -8.72875 32 28 24
0.701391 7.93591 13.7555 29 34 39
9.21598 -5.84724 -9.31519 32 30 16
9.64359 -5.56721 -5.76989 50 51 58
2.91239 1.69168 -13.3443 55 60 64
-7.61408 9.03872 7.73533 16 16 21
-8.1209 -0.30069 12.8483 52 71 76
-1.92815 11.2667 13.4091 28 44 51
-8.84782 7.50325 -2.98938 24 25 25
-9.5535 -8.4648 13.7165 53 72 79
-8.17913 0.51618 12.5294 52 72 82
-10.4357 -0.85145 12.918 55 69 75
-12.533 -4.56754 7.31674 45 71 82
-2.88665 -1.71424 12.6653 39 64 76
-12.9334 -4.50063 -6.57602 51 75 84
-1.35389 11.7338 -12.3699 45 33 31
-10.9005 4.08113 9.93383 24 27 35
-13.2008 0.735615 2.39857 10 15 20
-1.73889 -0.450747 -16.1627 74 43 6
-11.7516 -10.717 -12.6931 18 31 37
5.20641 1.63511 -7.21371 76 46 5
8.91107 4.01475 -5.86395 76 38 4
-2.79586 0.502146 -15.1518 76 45 4
1.44781 -6.80484 12.9461 34 59 69
-5.64608 -3.88599 13.2447 53 70 77
7.94181 -6.86952 12.5851 20 36 27
0.673911 8.3346 -7.61767 41 25 27
-0.0549202 1.68916 -13.6479 55 57 59
-9.20931 -5.59995 13.0921 52 73 82
-2.5367 16.0435 9.20843 47 66 70
-8.24796 2.7 12.6265 45 64 73
9.06695 -7.47746 12.6658 7 21 7
7.92567 -1.54523 -6.34561 62 62 66
-9.12323 -8.7159 13.7843 56 72 78
-6.14088 11.8935 -13.1644 52 55 62
4.50046 5.34238 3.74115 72 44 7
-1.36066 11.8148 -12.8598 42 28 27
-0.335941 -7.44051 -15.9254 20 29 18
-13.4021 -8.28688 2.81433 47 62 70
-9.004 -10.6997 13.9298 52 70 79
-11.952 2.39884 -3.58897 16 19 22
-11.4644 -7.41053 13.4365 55 77 83
-11.8298 -10.5236 13.8252 50 74 83
-0.393661 14.6474 5.11655 71 79 84
9.42715 3.89807 -5.27988 68 37 4
1.66611 6.19957 -8.44272 38 24 26
-5.1286 7.82427 12.1755 42 65 74
-8.40037 2.13309 -13.322 49 59 61
-11.0077 1.71576 13.9655 49 64 72
-3.77325 16.6422 8.8343 47 65 71
-8.44384 8.47563 -12.5187 27 27 32
-9.94788 5.56692 -7.59973 18 18 22
-6.67286 -5.62474 -15.7347 51 66 74
-12.4512 -3.00163 5.27373 42 59 69
-6.97106 10.2034 -2.75273 17 15 20
-13.0166 -4.15637 -9.82245 54 72 79
-5.80421 -9.03791 13.6634 46 69 78
2.69403 3.91533 -9.37986 30 14 13
-9.18506 -10.5082 -14.5477 45 56 59
-10.9358 2.09536 14.0401 51 68 75
-0.836468 17.2757 6.54213 40 48 56
-2.46959 0.386098 12.4179 41 64 76
-3.2082 7.58015 12.0087 37 63 76
-0.287841 9.80983 -13.0416 44 40 39
-0.840249 8.19242 12.5363 33 54 63
-6.95611 10.9044 -10.0507 40 39 42
-11.5026 3.31647 -3.97251 22 21 26
-8.13756 -2.31359 -13.8924 58 75 81
2.23756 4.76134 -13.3484 49 51 53
6.11495 4.29259 4.63167 60 33 1
-7.52707 9.82101 8.4327 22 23 25
6.49791 -7.18398 12.7114 9 28 22
-11.889 2.54322 3.86498 20 22 26
-11.276 3.70048 0.555302 32 36 38
4.13582 -1.02353 -9.70091 35 25 30
4.73099 -7.48858 12.9641 18 30 18
-3.56159 3.36801 -12.5123 59 45 22
4.15458 2.01472 -10.8765 37 28 28
1.32416 -0.615366 12.6523 40 57 65
-0.0911508 9.47191 -7.0686 39 27 26
-3.79831 14.7411 0.570658 29 32 28
-0.333092 1.31274 -14.6226 63 44 12
2.68956 -5.37534 12.73 37 58 65
8.53448 -8.33934 13.2307 19 34 23
-12.4192 1.82833 -13.0538 47 56 60
-4.90454 13.1513 0.425415 16 19 21
1.94775 5.36713 -8.52861 32 17 18
-10.0275 5.30574 -1.59864 22 25 28
-7.49249 -0.0182285 12.9053 51 69 77
-13.2209 0.695123 9.09877 24 26 29
-5.53186 -10.9923 13.8427 41 59 68
-6.1299 12.2842 -10.0052 37 39 42
-7.62191 -5.41147 -15.5974 52 75 85
6.9506 3.37092 5.72058 69 39 4
-8.11809 3.99429 -12.0651 54 65 70
-8.64904 7.8427 -10.9347 17 20 25
7.46263 1.39957 7.32832 42 51 56
-9.37329 6.6622 -10.6272 23 27 29
-8.8063 8.2048 -12.5197 34 34 36
2.51171 -3.95493 -12.3676 25 25 18
5.72908 -8.59996 13.1426 9 23 13
-7.56268 4.89151 -11.9281 48 62 70
9.35523 -6.52075 9.34799 18 30 24
4.17138 7.79586 -1.95998 67 34 3
-2.79426 1.06185 -14.6511 76 45 9
2.44647 -4.87326 12.7906 40 59 65
-7.01499 10.7721 -7.79783 32 32 36
-0.897959 -10.7138 -16.5711 21 26 13
-0.464867 10.1293 -5.99575 39 25 28
4.65336 -7.68591 -16.4081 35 39 29
-2.57 -7.13382 13.4145 46 64 69
-13.4721 -10.8504 8.27177 40 49 53
-1.94567 13.0685 -0.384007 40 30 30
-13.6062 0.458454 -3.53512 27 25 29
6.20526 -6.46014 11.5551 7 23 16
-12.7566 -4.29424 5.4254 43 61 69
-9.14184 6.4787 12.6691 15 14 19
-10.4302 4.36445 5.2709 14 16 21
-9.25226 6.797 0.543524 27 30 33
-6.00481 12.1731 -0.0973148 29 31 33
-11.7957 2.69419 13.4093 27 29 34
-6.04272 12.2989 -6.18291 30 30 33
-5.69748 -7.86017 13.4163 47 66 72
-3.44493 14.6502 -7.7067 35 14 15
-6.72055 11.2592 -6.32914 28 29 32
7.95336 -2.01541 -6.32917 63 63 69
-3.577 1.70078 12.51 40 63 74
-1.40381 11.344 -10.2765 35 17 20
-0.227903 2.77214 -12.8805 58 57 59
-9.61881 5.59992 8.0169 12 14 20
-1.33955 10.7247 -13.4919 48 42 50
0.85277 7.67223 -6.59119 35 21 23
-3.47809 7.0225 -12.0641 54 63 69
-0.653319 13.619 5.09304 68 79 87
0.964962 -11.8165 13.6738 21 23 22
-8.50673 7.62273 11.7946 21 25 29
6.04201 4.02283 4.85716 53 30 4
-4.50079 -10.2672 13.7806 46 63 73
-2.47001 12.2765 -13.4441 52 56 62
-0.0504022 2.54392 -12.6024 51 56 65
-2.89735 17.4267 7.44669 41 56 64
-5.52078 9.3097 12.8938 42 60 66
-3.0986 -7.05235 13.4705 49 65 71
-7.43575 9.25005 12.2981 24 24 28
4.56498 0.877427 -13.4725 50 40 40
-13.3179 -9.29626 8.62405 53 76 84
8.34288 1.03093 -7.60679 65 53 35
-3.60645 7.73467 -11.9363 53 67 74
3.75632 -6.72504 -15.6152 29 26 12
-12.114 2.18862 0.37315 20 21 25
-13.647 0.439426 -4.19419 38 36 39
-2.99025 10.797 -12.6055 50 62 68
-1.16101 5.80509 -12.0777 48 59 65
-5.63341 9.67312 -12.658 48 59 63
-13.6915 -9.39707 -4.50971 60 81 89
-8.03302 2.33505 12.5468 47 70 78
2.19842 5.49373 -4.45653 38 21 23
6.50199 -5.05178 -7.9066 25 35 36
-9.55 6.3746 1.23977 31 33 39
2.15136 8.50833 0.206371 36 28 9
-2.93877 1.9212 12.5992 37 64 72
3.48581 2.90383 -9.33694 32 18 19
-1.5893 17.4741 7.23776 53 59 59
-5.88696 -2.88276 12.8984 47 68 77
4.01552 2.0704 -12.3464 32 18 20
-0.751214 -5.6546 13.2018 44 62 67
-12.9365 -6.83032 9.88988 48 67 74
-13.7507 -11.2544 8.4357 30 39 43
3.39412 3.09223 -12.2518 34 25 26
1.62656 6.18964 -10.9246 34 24 28
-3.03603 14.5861 1.09694 33 16 15
-10.5466 4.39356 -1.05341 15 14 19
-7.17382 -4.60652 13.1 51 69 78
-4.57315 3.94366 12.3817 38 63 73
-3.61635 2.36948 -13.6542 56 45 13
-13.3053 0.63442 7.36181 23 26 29
-13.4322 -7.27673 -3.53163 58 76 82
-1.88155 10.6861 12.9885 25 44 52
-8.18315 1.90725 -14.0405 56 58 41
-9.62802 5.70665 2.55233 21 22 27
-0.769749 -3.44919 -14.1258 59 66 74
10.1372 -6.86575 11.1836 6 21 16
-6.79817 2.38983 12.6798 44 65 75
-2.16965 5.05588 12.2245 38 59 70
-5.5823 12.4968 12.1456 19 23 27
-1.88432 12.3016 -4.78227 33 15 15
-1.10108 5.04785 12.0322 36 60 71
7.39547 4.90427 4.40473 73 42 5
-9.59449 6.64742 -5.50847 28 35 37
-4.97947 13.3538 0.200512 19 23 25
-10.9292 3.92706 0.880634 23 28 31
-10.1569 -11.1021 -12.8889 26 39 45
-0.0523868 -0.921714 -15.7708 58 57 57
-5.32326 3.92665 -12.0382 55 57 70
1.96055 5.38298 -8.24807 34 15 19
3.65826 -8.06751 13.3486 25 42 35
8.98308 4.59719 1.04148 61 37 2
2.27917 5.04098 13.673 27 31 39
-10.9098 -2.56381 12.7844 51 74 84
-9.86767 6.18358 -6.25345 29 29 32
-12.089 1.84979 13.0667 14 14 18
-12.2965 -3.69855 11.678 42 66 77
-13.3392 -5.91666 -11.9605 53 71 77
-12.7388 1.1477 9.53426 14 16 20
-13.8817 -10.1195 -4.82643 58 76 80
-12.8058 -5.19464 1.57641 45 71 80
9.32104 -5.39431 -4.94975 66 72 79
-0.715153 -2.16171 -14.413 56 62 69
-3.66402 14.7747 -3.62855 30 26 31
-5.90492 12.2652 -5.68479 23 27 28
-13.6478 -8.74453 -2.4014 57 80 89
-11.6063 3.28587 -12.1736 25 25 30
-5.44358 1.69465 -14.1114 72 42 8
-5.25184 12.6333 -0.604 23 26 32
-2.27827 12.1813 13.5749 25 34 39
-13.2259 -6.24839 -1.75315 49 72 82
-1.73524 -0.714841 12.7171 45 61 66
-8.76604 3.34532 12.9208 42 61 73
-12.6402 -3.94498 9.01893 47 64 71
-12.1022 2.25868 -3.14579 15 16 20
-9.87458 5.59418 9.76753 20 24 27
-10.791 4.03207 -0.504736 16 21 23
-3.26278 14.6914 1.7043 40 17 15
8.78018 3.03035 6.44277 59 41 11
-11.5759 3.74107 -12.7357 31 33 37
7.86961 -5.13866 -7.28561 27 28 26
-5.17481 -0.807364 12.6382 42 67 76
0.0377941 -7.15746 -16.0264 29 36 27
-11.1827 3.51241 7.36714 21 20 23
1.65011 3.31993 -12.7985 55 58 64
0.184215 5.91816 -12.6943 51 58 65
-5.42509 12.6871 3.34053 21 26 30
-7.91227 -11.1888 -16.3888 19 31 37
-13.3042 -5.3061 -10.4422 54 77 85
2.06471 -11.4612 13.6312 44 52 55
-12.971 0.822927 12.1364 21 17 23
-5.74666 12.4534 -6.4375 27 28 31
-4.80262 11.1148 13.2438 41 57 66
-5.06621 12.8371 -4.02165 25 25 29
-13.3366 -8.95541 7.57711 53 74 82
8.58672 -4.88199 -6.41412 62 61 68
-12.3429 1.65287 4.9082 19 15 20
4.83145 3.24926 -5.79515 79 45 0
-0.463851 10.6785 -3.7843 43 29 33
-4.55874 14.3411 -2.488 20 17 19
-13.936 -10.6152 -3.5934 37 46 51
-7.92981 8.5295 -7.24379 22 24 32
0.143152 5.51063 -12.4659 53 62 70
5.55304 3.83162 4.93382 58 30 7
9.92746 -8.44115 12.6022 17 35 24
1.98265 -7.56148 13.2222 39 58 63
0.568912 7.89134 -8.59845 37 27 29
-1.73529 3.90669 -12.0996 53 64 70
4.6193 -7.23699 12.9365 27 41 33
-7.8045 8.96477 1.96268 21 18 22
7.08701 -10.792 13.7471 24 39 27
-2.64264 1.59349 12.6312 41 64 74
-4.68537 13.84 -3.63923 14 14 18
-2.72979 14.4176 1.32553 32 13 13
-7.88907 8.71163 -0.112457 13 20 20
-6.77567 10.7383 9.97461 22 24 27
-2.52173 14.037 -3.07481 36 17 14
-13.7366 -8.54429 -6.15815 61 80 86
-3.78927 14.748 -4.79233 23 22 22
1.21856 5.53839 13.406 32 43 54
-10.6793 -7.49984 13.4103 52 73 83
-0.731719 -6.73215 13.0043 40 62 70
8.12145 -2.65421 -6.22301 58 66 76
-9.41437 6.74628 -8.35074 31 31 35
-11.5588 -3.78893 13.1549 55 77 88
-13.4857 -6.61755 -9.83762 55 78 89
-2.04637 12.5704 -7.78236 39 16 18
7.52148 6.27793 2.98458 48 45 24
-5.22149 12.6781 -5.64173 24 27 32
-9.88205 5.94454 -11.2682 26 30 31
-11.3109 1.10369 13.8987 48 63 69
-1.07712 -0.601876 12.7199 44 59 65
5.10323 -11.2212 -17.2389 18 15 8
-13.3476 -8.6492 -12.2601 53 74 82
9.21248 2.40925 -7.26714 72 44 14
-2.49115 13.8252 -0.458483 43 19 19
-0.0402961 7.67964 -13.4357 51 57 66
1.32365 -10.0953 13.4732 40 56 60
-11.6081 3.33686 -11.6572 26 26 30
1.31538 -4.25529 -12.209 46 57 65
9.81562 -5.47095 -5.59566 56 55 61
1.10865 -2.78214 -12.3081 56 65 75
-4.68819 14.163 -1.00008 23 24 27
-3.30015 5.62752 12.2089 38 62 72
-3.64631 16.7072 5.7047 47 66 70
-6.91198 10.5396 -2.40287 27 20 25
-12.94 -3.21911 -9.45118 53 73 82
-0.581896 8.92116 -13.5309 51 54 56
0.37072 8.61074 -8.82802 39 29 30
-0.0575767 -1.13589 -15.3179 58 57 60
-11.1315 3.04452 7.24308 20 17 20
4.58773 -7.65418 13.1382 19 34 24
-13.1243 -7.18054 6.86287 48 69 78
-3.05194 0.910023 -14.748 72 40 6
-5.06719 13.6243 -2.83515 29 27 31
-1.18891 -2.42656 12.7645 38 61 70
-1.23264 2.26349 -13.6929 66 43 19
-12.037 2.39604 1.9007 18 19 24
5.5422 7.32259 1.73716 51 39 25
-4.6972 -9.20693 -15.7055 53 69 75
8.22052 3.69377 -6.00723 76 42 6
-0.771935 15.7981 5.18843 70 81 90
-2.18436 13.0894 -8.90477 35 21 23
-13.2749 -6.43542 -2.6423 50 74 82
-1.21452 11.0095 -10.5283 37 23 24
-2.88272 10.5776 -12.5293 51 60 68
-9.87172 -11.4292 -13.1124 31 44 50
4.16515 3.17661 -5.83183 81 45 2
-9.59783 4.97471 13.9705 29 38 39
-4.62647 14.4915 -11.6872 30 24 27
-3.70186 0.938271 12.5741 40 62 71
-3.36976 14.7566 12.8654 20 14 20
-7.2226 9.78713 -1.02891 22 26 28
-6.85279 10.0214 1.35663 21 21 24
-0.250169 0.0623946 -14.1638 60 60 59
-2.70059 4.56594 -11.8893 48 57 61
-0.580972 12.2811 8.99883 44 57 65
-4.42527 -4.42972 13.1835 47 67 76
-2.81716 10.5805 12.3931 38 62 71
-3.56176 4.74084 -12.0258 51 59 63
-11.3372 2.90135 5.88948 13 13 17
-9.12941 6.99159 -7.28914 25 25 26
1.52637 5.33842 -13.5039 47 53 58
-3.5451 14.7636 2.32436 30 25 30
-6.79 -5.38301 13.119 49 70 77
2.58054 -6.48855 13.1681 43 60 65
-2.21611 -11.3042 13.67 39 47 49
-5.3865 12.6477 -8.51905 26 27 31
-0.23245 15.7985 5.13264 69 78 83
-9.07032 6.9235 -8.49575 24 22 26
-7.96837 -1.50137 -13.793 59 73 78
0.512212 7.51722 -11.9722 35 28 29
-8.17788 2.36117 -12.7242 40 49 53
-10.195 5.23456 2.17683 28 31 34
-13.2691 -4.78772 -7.29461 54 77 85
-3.38742 14.9832 6.84398 40 59 70
11.1405 -8.26772 -0.334728 41 32 32
-11.3046 3.41268 -13.1652 46 56 59
4.24601 -4.01214 -9.68107 32 24 31
5.57122 5.97494 -3.66952 68 35 5
-6.30925 11.3426 10.7759 14 17 21
8.44833 3.34058 6.16038 52 34 3
-13.2319 0.78643 6.87806 22 31 35
-4.93905 13.0905 -2.5475 23 27 30
-9.60601 -6.60847 13.4138 56 74 81
2.4336 -7.81509 13.2684 35 51 54
6.99448 -4.89612 -6.49704 48 52 61
0.402357 8.34412 13.7165 25 31 41
5.29359 8.70802 -0.426523 71 42 3
6.35683 5.09958 4.31803 59 35 11
-6.83278 10.3589 4.62632 21 24 26
-10.6616 4.49666 -9.54632 39 41 36
-1.06523 10.5734 -13.4906 44 39 40
3.50333 2.65987 -7.40898 37 19 19
-1.96854 11.7597 13.5918 30 39 47
1.24687 7.11368 -10.2595 38 29 30
-4.99144 13.6339 -1.6295 26 31 33
-4.49186 14.4889 -2.29685 21 22 23
-8.21485 8.46335 7.65165 29 29 33
-13.6065 -8.5085 -4.59704 58 81 89
-2.31919 -6.61392 13.4008 46 62 67
-0.295623 1.45279 -12.9354 62 66 74
-11.42 3.63839 -3.70728 32 36 38
-13.4391 -9.03039 5.8019 49 70 81
-2.96335 14.4745 0.381851 35 18 18
-4.0469 -1.70428 12.843 43 67 74
-4.5638 14.4312 -5.48563 18 14 22
-5.91666 12.1783 3.23011 34 33 37
5.92076 -10.4379 13.7731 21 34 23
-4.69582 8.46116 -12.0003 45 60 70
-3.2037 -6.40781 13.3315 45 66 74
0.92254 7.7238 -5.30853 34 19 23
-6.59738 11.1762 11.959 29 34 37
3.35067 2.24414 13.8008 35 56 62
-8.00075 -6.83713 13.3963 52 70 78
-8.05434 3.1155 12.6298 46 64 73
-3.57189 1.19481 12.5456 40 63 74
-4.79333 13.0965 4.30524 24 19 23
9.44257 -7.36407 12.5463 36 45 36
-0.432757 3.15393 -12.7806 57 61 67
-3.73931 16.2664 8.52457 46 63 72
-12.3204 2.20288 1.37833 29 31 35
0.315767 8.38302 -10.8416 46 35 37
-10.2781 3.58559 14.001 40 46 51
4.02992 2.23583 -10.498 36 22 24
0.463265 0.959645 -12.1257 55 63 71
-12.7392 -4.14197 4.31396 44 64 75
6.33515 -5.4025 -9.10569 26 31 22
-11.2818 2.94057 12.7361 13 10 19
-12.652 -3.94143 8.57304 42 64 67
7.21958 -5.18706 -8.98344 42 32 23
8.46711 -3.56503 -6.29942 58 68 79
-1.41278 11.6547 -10.0844 43 31 34
-0.986345 11.2975 0.319984 34 24 25
-13.0445 -9.73006 12.3899 48 65 73
-12.9972 -7.21305 9.65932 49 67 73
1.39764 -4.53893 12.8514 36 63 75
-8.14184 4.11903 12.8193 48 59 67
3.40752 -6.69341 -15.7993 34 39 31
-8.31109 5.19832 -12.1808 47 55 61
-6.27892 -7.67207 -15.6915 50 70 79
-6.47518 11.3404 -2.63112 23 25 26
8.28036 -5.27834 -8.68809 27 30 22
-7.13431 10.0135 5.90407 22 28 31
-13.4861 -8.24657 0.966879 50 68 76
0.307062 -6.94242 -15.9495 31 34 22
-9.57155 5.92237 -1.2477 21 25 24
-13.427 -8.242 -1.01041 49 73 83
9.67002 3.38269 -6.45821 79 45 5
0.419622 11.5165 5.6546 66 78 86
-5.3715 -8.17668 13.2712 45 66 73
2.50522 -0.336977 12.7 37 60 70
6.5656 -7.68492 -15.9112 41 43 33
-8.50435 -5.52201 13.1905 53 75 85
10.5738 -6.47677 -7.04942 41 46 33
-0.113121 9.73652 -6.59832 37 28 25
-4.05093 8.07606 -11.9284 48 67 75
5.82519 -8.82649 13.3517 9 23 16
-8.1304 -2.77566 -13.0158 54 73 79
-9.64295 -10.7101 -13.0304 32 35 45
-12.68 1.4846 -11.4649 15 17 22
9.42238 2.68974 -7.18621 68 47 23
-6.29281 11.5116 13.3506 30 35 38
-13.6644 -7.89248 -8.02921 54 76 84
-2.50211 13.5626 1.46362 38 16 13
5.98773 0.26953 -6.97458 51 53 60
-2.63729 -8.43654 13.2066 44 64 72
-6.09373 4.44017 12.309 46 70 83
-10.0141 5.43409 4.84244 27 30 35
-3.69707 14.7693 -4.12128 43 37 34
4.29081 9.14147 -0.0878067 58 30 6
-1.22054 11.8827 -5.20482 44 31 34
-0.641569 -7.79656 -16.0535 28 38 29
-9.21969 6.50003 13.326 20 21 23
-2.77221 11.2714 -13.2228 50 59 69
-6.93183 11.0008 -9.7487 34 35 38
-4.64502 14.3593 -5.92612 14 14 19
-6.85089 11.0869 -5.42756 24 28 29
-7.77884 9.65933 -7.16168 33 35 37
-9.57903 -6.19171 -12.3976 54 71 78
-4.74188 14.1726 0.873089 11 13 15
-0.182488 9.99024 -2.03998 40 27 27
-2.38044 16.4865 5.15767 74 79 84
-0.528187 16.0399 9.16689 46 68 70
-7.40532 9.86117 6.93461 26 26 30
3.54992 -3.21775 13.0725 51 65 70
-12.353 -6.25841 12.5936 45 69 80
2.07092 6.03844 -3.94139 39 22 21
-0.884712 -2.42227 -15.1201 53 61 70
-7.66204 -9.86721 13.8633 46 67 78
-2.08791 -0.727867 -16.2366 70 41 21
-10.1239 5.38918 11.4994 27 28 31
-1.65875 -4.15047 12.9027 41 64 74
4.98259 6.70642 -2.97942 69 36 8
-1.45725 11.2549 -8.98882 41 29 31
-2.89323 16.0928 5.20522 69 82 88
8.00378 5.45794 3.84203 46 40 18
0.0370007 -0.541039 12.6184 37 59 66
7.81252 -5.17161 -6.79583 39 46 48
-2.13143 2.45543 12.3553 35 60 73
-0.247328 -7.76026 -16.5786 32 37 25
-12.7227 -4.96693 5.34651 46 68 76
-7.58036 2.44496 12.6138 44 65 77
-0.239567 8.89286 13.5529 30 41 46
1.21264 -9.27497 13.4253 39 57 64
1.74936 4.10833 -13.4394 51 61 63
-6.43243 11.4277 8.112 25 23 26
2.97887 5.33288 -3.80806 73 42 10
-8.18497 -3.15104 -13.2099 54 72 79
-1.13372 -8.24021 13.4831 44 64 71
-5.98199 12.1663 4.5845 25 30 32
-13.6023 -8.63412 -3.79124 54 75 83
-5.96834 11.9179 -2.34702 16 20 23
-4.12781 9.38444 12.2429 41 58 61
-13.6279 -8.09628 -6.00584 61 79 85
-5.79966 12.3989 0.347309 25 28 31
1.71811 -10.7935 13.5669 43 54 60
-6.98929 10.0185 -3.83599 19 19 21
-1.84689 -8.01414 13.3169 45 63 71
-1.97454 7.53533 12.1133 36 57 69
3.27616 -9.50012 -16.9709 18 24 13
-7.50553 9.78605 -11.7875 23 26 30
-4.91625 13.0646 5.90938 26 25 28
-4.86426 13.5753 5.14704 20 26 26
-0.0213823 -3.01033 12.9444 43 60 66
7.70324 5.82533 3.13377 62 43 12
4.18523 1.7843 -10.2745 35 15 15
1.15246 6.55706 -12.8897 40 35 37
-12.2944 -7.13828 13.2115 53 70 76
-3.05556 6.7299 12.3133 40 60 66
0.982294 -10.0642 13.4571 44 53 59
-0.382242 15.5465 9.1394 52 64 71
-9.44751 6.56136 3.91532 33 31 34
-10.5333 4.43904 13.5224 27 33 39
-2.64883 14.4848 13.2112 34 35 39
4.35623 -4.08886 -6.82815 55 59 64
4.51836 -8.45413 13.2172 27 45 34
8.03756 -9.25013 13.4025 11 25 16
-7.41031 9.62838 0.42539 26 28 31
-8.77346 -7.33022 -13.6822 60 70 77
5.23889 -8.54679 12.8385 2 17 7
-9.04023 6.95715 0.813553 26 25 32
-7.23677 1.46274 -14.5319 60 42 14
1.97499 -7.95402 13.0881 33 52 61
-4.00251 4.44475 12.4693 43 60 67
3.07443 -5.18667 12.8959 43 60 64
7.9737 -7.48236 12.8407 13 27 15
-12.9343 -4.88759 -10.0276 51 73 82
-12.7625 -4.13365 6.48855 46 65 73
-0.597395 -8.9132 -16.5283 34 42 34
-2.90417 14.4813 0.110554 32 12 12
-8.53236 7.56519 9.67138 23 25 27
-12.7654 1.28566 11.9658 18 18 24
-0.148426 -3.90193 -12.3067 51 64 69
-8.81663 -11.1248 -15.9357 19 34 36
-9.83021 5.40778 7.6305 9 11 17
-8.42995 8.03524 -0.179352 14 14 21
-12.0975 1.46725 -13.1509 45 56 60
-7.89041 9.31127 -5.45575 30 32 36
-8.01714 -1.38194 -14.258 58 74 78
-11.2696 3.48811 9.3581 24 29 29
8.50822 -5.17171 -7.40621 40 34 28
-2.2392 10.4279 12.5027 40 59 71
-9.88373 6.00629 -5.92757 25 24 28
-2.05879 12.0242 -13.4483 49 51 53
-9.21058 6.3402 10.8367 16 18 22
-13.4367 -6.5132 -7.65281 54 77 85
-4.05678 1.67596 12.376 41 66 74
4.53943 7.91059 -1.862 69 39 6
-2.79956 9.13722 12.2924 41 54 64
-5.19162 13.6017 -8.57384 26 28 33
4.46558 -6.8322 -16.0266 34 42 32
0.3214 0.0527782 12.4306 35 59 70
-4.59132 14.2747 -7.41683 26 21 22
-3.0402 -11.3855 13.7781 28 34 36
-8.35671 7.8816 11.9591 20 26 29
7.95694 -5.21774 -8.65382 28 31 25
-7.95826 -10.8902 -16.1167 23 32 35
-6.62065 10.8244 13.3384 16 22 23
8.95259 -5.82653 8.10084 1 12 7
-5.22903 12.7544 2.89036 19 26 29
-7.76811 5.58988 -11.993 45 58 64
-8.8807 7.14772 4.34613 26 28 30
-9.10677 -10.2347 -14.5957 54 68 73
-2.9001 5.89838 -11.8197 53 67 77
-13.1847 -7.65745 7.01558 51 71 81
-5.33774 6.3561 12.2931 41 60 69
0.341784 14.0542 5.27354 70 82 92
-12.6999 -7.57307 12.7373 55 73 78
-12.8255 1.13821 1.82812 9 9 14
-3.91605 14.7759 3.02845 29 31 32
-13.7049 -8.37269 -8.77966 56 77 87
5.38578 -4.95 -9.35276 18 21 14
-8.55842 8.13595 6.39901 27 30 37
-9.11362 7.05685 8.39566 23 28 33
-2.5926 14.2219 11.0623 35 38 43
6.58903 -5.07818 -11.089 29 17 10
-12.0418 -1.48784 12.5785 45 66 74
-13.446 -6.49223 -8.45988 54 76 84
5.64125 -6.01018 -14.2685 34 34 13
-3.73333 2.82013 -13.1515 65 44 20
-5.95166 -2.52185 12.6429 46 69 80
6.17171 6.89648 -3.09396 66 38 9
-6.87085 -5.83896 13.3121 51 71 79
-9.14657 6.96659 -4.14184 24 24 26
-12.7862 -6.97769 10.8318 51 72 81
-13.0635 -9.25845 11.5662 47 71 79
5.09611 -11.4482 13.6743 20 36 27
8.20895 -3.08621 -6.14984 58 69 81
-7.35885 9.5416 12.0308 12 14 19
2.73477 4.4408 -5.69155 41 27 29
-3.30341 -0.175591 -15.735 68 38 4
-1.30393 11.5132 -12.5303 40 26 25
-4.99004 13.3749 -2.18668 19 21 24
-4.43905 -0.0620041 -15.9421 70 38 12
-5.84546 12.4342 3.37172 29 32 36
-11.8946 2.40704 -8.31691 9 11 16
-3.27265 0.253691 -15.3638 68 36 1
-7.8687 8.7969 -7.03443 19 20 26
3.9341 -3.35565 12.9463 57 69 76
-9.66172 6.50607 -3.23687 25 25 27
-3.95856 -9.33976 13.6862 45 67 75
-4.8221 14.1381 10.6165 30 33 37
-12.6655 -4.46914 5.25811 40 62 70
-5.36403 12.5985 -2.72002 17 19 22
-13.8184 -9.96776 -12.1186 58 70 74
-3.32527 9.29916 12.1858 43 65 74
7.26785 1.41681 -7.75742 73 42 3
-13.7701 -9.70807 -5.13145 61 80 89
-13.1346 -9.55265 10.7304 50 66 76
-12.0449 2.50819 4.9992 22 22 24
-13.7078 -7.87254 -11.6318 55 74 80
-10.2776 4.80834 8.14579 16 21 25
-4.37033 11.5488 13.0725 38 56 63
-10.879 4.11048 12.7474 25 28 34
-0.745095 9.79241 -13.5371 46 45 51
-9.9583 5.76793 -11.8963 25 26 29
-3.47305 2.06754 -13.9147 59 42 14
2.46368 3.96255 -12.2126 31 16 16
-8.21154 -5.5727 13.2377 50 73 83
-0.380055 -0.630149 12.6991 41 58 64
-0.824452 -3.88925 -12.8948 55 66 75
-4.17316 -2.11253 12.9967 48 68 74
-12.0717 2.40576 2.32127 18 18 21
-0.553128 10.8186 -2.80965 40 27 29
-5.32095 -11.2171 13.8344 41 54 63
-5.33381 12.7129 -6.50241 18 18 23
-12.4716 1.6429 -1.5757 21 20 24
-12.966 -6.93577 9.66715 47 66 73
-7.9201 9.15219 0.97053 27 31 32
-0.89638 11.1629 3.86761 36 27 26
-11.6888 2.68179 5.28756 14 12 19
-10.4727 4.42482 2.48704 10 15 15
-4.42806 5.2624 -11.7326 51 66 74
-13.2243 0.59099 -8.75687 17 14 19
-4.1104 -1.65823 -15.4233 51 61 68
-7.02221 10.6906 -11.0304 29 29 32
-12.4248 -2.36001 10.1381 46 63 69
3.80499 -4.87437 -13.3494 32 21 10
-2.0524 5.96874 -12.0879 55 58 62
-1.3616 11.1814 -9.56499 37 22 24
-10.5555 4.6384 -3.41031 21 24 27
-5.60116 5.38658 12.4338 44 60 65
7.20865 2.48776 -6.99908 71 36 18
-5.58027 -9.36786 -15.9021 49 61 70
-5.89613 -4.34942 -15.4865 51 67 76
5.16167 -6.99961 12.359 3 25 14
1.19426 6.70331 -9.97715 31 23 22
-7.07321 10.1 -5.92772 17 19 23
0.849104 -11.2048 13.5201 42 56 64
-10.6857 4.94067 -5.90263 34 33 36
10.814 -7.29096 4.46248 38 41 35
2.3374 2.12418 -12.8279 52 58 64
0.260632 7.82814 -11.9181 27 19 23
-13.0762 -8.3668 7.53169 46 68 79
-13.1881 -6.15531 -0.288712 48 73 84
3.55429 -3.94145 -12.5719 34 33 26
0.0575824 2.29637 -12.4415 50 60 68
3.45172 -11.4845 13.5323 39 51 49
8.7142 3.46446 -6.60313 70 42 15
-7.46267 8.20744 13.8696 39 57 62
-8.51992 -10.5482 13.978 52 70 76
10.8227 -7.60257 3.45052 48 39 43
-2.4952 15.1081 5.32978 72 81 92
8.37048 -5.01674 -8.03216 48 48 38
3.78583 2.62818 -6.63606 49 24 11
-9.35215 6.83017 -7.4648 26 28 28
4.50843 1.70381 -7.34769 45 21 11
-8.48155 -3.18596 -15.1433 57 76 82
-2.10743 9.06263 -12.5164 54 61 68
-2.47831 -10.9166 -15.9577 20 22 25
-0.909433 11.4103 1.38804 43 26 30
-2.67967 14.1547 -5.61011 30 10 12
4.63348 -3.87942 -6.4699 57 64 76
1.85145 2.62611 -12.6416 52 60 64
0.500374 -0.762972 12.5068 37 62 72
-7.89431 1.89653 12.588 46 71 79
-12.9971 -8.85309 9.41599 53 75 86
-13.0052 -5.6706 3.58875 45 64 68
5.02344 -3.98498 -6.34018 47 61 73
6.11762 -10.0864 13.7507 18 34 24
5.95246 -8.34842 -16.2843 29 31 18
2.77393 0.995577 -12.6828 54 61 66
-4.88491 -11.3364 13.8542 35 40 47
5.65608 1.08875 7.0387 16 14 16
-13.5572 -7.79367 -7.74164 55 79 93
-0.412944 4.77966 12.3829 39 53 63
-12.8703 1.18253 -11.6163 11 12 20
-5.06714 13.6098 -4.36063 26 34 36
-12.278 1.66724 13.3159 20 20 25
-12.4253 -3.67744 9.22214 48 69 79
-2.85585 -7.37019 13.4517 47 65 71
-5.66155 12.4337 -4.59799 21 25 27
-4.08157 4.00173 12.386 38 62 71
8.15416 -5.09034 -6.58929 46 52 58
2.32257 2.42099 13.3585 36 50 56
-5.46379 4.18911 12.3979 41 61 71
-8.74247 -4.65067 -15.167 57 74 79
-9.30473 5.91328 10.8992 14 17 22
0.949857 0.0193167 -12.2413 58 64 69
-12.1547 2.44356 -12.5451 16 17 23
-9.50716 6.15384 4.616 24 26 28
-0.0885038 -0.0572071 -12.3756 54 63 68
-4.00052 2.55006 -13.4019 65 41 14
4.05133 5.25738 -4.03827 70 42 10
-8.21171 8.20717 -7.30169 25 24 34
-4.10391 14.7114 8.65292 25 28 32
5.54866 -4.8568 -8.13196 42 58 66
-14.2804 -11.1011 -7.53573 26 41 46
-6.51304 11.388 9.87785 22 28 31
-10.1698 5.30632 -13.1893 50 60 64
-9.00282 0.0773449 12.6593 49 67 73
-13.4869 0.669537 -0.191557 26 29 35
-3.55973 2.85372 12.5213 39 62 72
-2.65259 14.521 11.4336 34 34 38
-12.9619 -6.07136 7.57633 46 66 74
-13.3855 0.801875 -6.01812 19 18 22
-13.3794 0.624191 -9.12173 20 19 24
-9.16827 -9.56409 13.8514 50 70 80
-8.6088 -1.08223 12.7015 51 75 86
-3.44848 -10.8115 13.8027 45 62 70
-7.39821 9.89177 -6.0509 24 28 31
-12.5165 1.37825 -5.02081 21 21 21
-9.63788 5.78792 4.32645 19 23 24
-0.336597 10.2531 -3.68099 39 20 22
7.45454 -5.15326 -7.46167 177 171 170
-1.72161 3.54263 -12.2592 52 64 74
-9.63609 6.72296 -12.3969 25 31 35
-7.63719 9.33509 8.56254 23 23 26
-3.46485 6.67634 -12.0645 54 59 64
-13.2292 -5.36981 -4.03364 53 74 83
6.1795 1.8898 -7.36279 75 42 4
-12.875 1.07627 1.46573 9 7 14
-4.89386 13.9205 1.9356 20 17 23
-8.34398 -9.07119 -15.7352 48 70 76
6.33363 4.08238 5.03351 50 29 2
-13.442 0.738487 3.14852 36 35 38
9.06774 -6.76871 11.6196 1 25 14
-9.2766 6.27243 8.03508 23 22 24
-11.365 2.80319 6.38417 18 17 20
-7.21043 -7.74381 -15.8038 51 68 75
-3.06446 7.00774 -11.9903 50 60 69
-4.87379 13.5273 5.84404 30 28 37
-6.81227 10.2332 10.6306 17 21 25
1.30992 -10.5425 13.5186 43 55 58
-11.7979 2.43837 -6.51943 8 8 15
3.60723 2.649 13.8064 28 41 36
-5.16812 -3.75624 13.1938 47 69 75
3.26719 1.22933 -13.4743 58 63 66
-12.7094 1.63148 -11.913 23 18 24
-10.3539 4.60973 11.5077 19 20 20
-0.460522 9.38147 -13.5079 47 47 50
-9.84297 5.64437 -5.19948 25 21 24
-4.84881 14.2277 -11.179 33 34 39
-4.32353 14.537 2.82696 24 25 26
-0.939995 7.79931 -12.7157 50 61 66
-12.0879 -3.62172 12.5947 45 68 79
-13.5999 -7.3066 -11.6823 54 73 80
-5.69438 7.22487 -11.8813 44 62 72
-9.40699 4.54385 13.9351 47 61 63
6.36888 1.39646 7.04855 13 12 18
-4.68424 14.3702 -8.23884 17 13 18
-2.35084 8.93632 12.3305 43 59 69
-1.69863 12.8426 -3.11114 37 26 22
4.95006 -1.55066 -6.30847 56 67 73
-2.32058 2.776 -13.1694 58 44 23
-11.4101 3.1601 -1.02601 22 20 24
4.0218 -0.373034 -11.6865 60 59 66
-4.9058 13.2487 -0.361259 20 24 27
-13.0749 -4.87683 -0.69109 48 73 81
6.26883 5.16551 -4.29455 77 41 14
-12.725 -2.69808 0.360275 49 66 74
-3.0484 -11.6928 13.8157 6 9 19
-6.61766 8.95821 13.6928 37 60 68
5.32955 -5.60931 11.0477 34 53 57
-5.63864 -7.24657 -15.7118 47 67 74
-1.65616 12.7742 3.01396 40 30 31
-2.46112 -3.97853 12.8555 42 65 75
-13.039 -11.4534 12.869 12 21 27
-5.66986 9.23561 -12.4567 49 59 65
-10.3321 5.04131 3.47885 27 28 34
-8.54868 0.807213 -14.9537 56 66 67
-11.4376 2.68978 11.5946 8 11 15
-10.4031 4.53446 10.7872 16 17 19
-10.372 4.69274 4.85122 22 18 22
-13.1941 -9.25202 -12.5434 59 76 84
1.8774 -3.25897 -12.3933 53 62 70
-3.82083 14.66 4.46871 25 23 28
-1.70416 1.76241 12.5205 41 60 70
-5.7864 -3.44095 13.2106 52 70 77
10.13 -6.62051 10.6625 22 41 26
-2.18064 4.33613 12.4721 39 60 66
-13.4418 -10.6281 7.4945 56 64 73
-6.20125 11.4418 -0.879362 16 20 24
-9.48733 6.74444 -7.97484 29 31 34
-1.13002 17.3435 7.65263 46 60 67
-4.79311 13.8604 6.12347 28 31 38
0.0695105 12.3409 5.0516 58 71 79
10.6721 -6.49147 6.02158 25 38 34
-3.24546 4.69044 12.4779 41 62 69
-9.38975 -11.1884 -13.8287 26 32 37
-9.67284 5.29731 13.9586 36 35 44
-13.1015 -6.96878 2.47433 49 67 77
-2.45046 2.09816 -13.7962 61 43 24
-7.91564 9.02498 -12.006 25 22 26
-10.875 -6.50379 13.177 48 72 82
-9.3335 3.2985 13.4499 47 61 68
-9.05462 -10.9873 -15.6875 25 36 37
4.46877 1.09713 -11.0521 27 8 8
-4.85817 13.1868 2.47403 28 29 34
-3.09193 3.33527 12.3163 36 62 72
-4.67127 -11.2173 13.8726 38 46 52
0.258234 4.64796 12.391 39 57 63
-4.86025 4.79112 12.2247 38 63 76
0.811355 8.63893 -2.39 44 28 30
-5.4145 6.28329 -11.9178 48 57 63
-10.7499 -3.44799 13.1979 54 77 86
-11.9412 -5.90027 -12.376 48 69 78
-0.560046 5.42044 12.1572 35 56 68
-12.5994 -5.38247 9.9297 47 71 80
-13.1917 -7.97235 5.91627 45 64 73
-9.14608 -9.18818 13.8481 53 70 78
-2.70698 14.2079 4.62458 53 54 64
1.87624 6.54671 -3.20076 40 26 24
-5.84462 8.80215 12.9374 43 59 67
-0.410207 4.61449 -11.877 55 68 76
-4.8206 -3.25369 -15.3513 52 69 76
6.39732 7.40199 1.87388 46 41 11
-9.50761 1.26043 12.9326 50 65 73
-13.1645 -6.18715 0.681652 47 68 75
3.96712 -8.17335 -16.3856 36 44 40
-12.892 -8.51198 10.2783 52 71 81
-1.07154 -1.84074 -15.4962 60 70 76
8.14151 5.45632 -3.42493 63 37 14
-12.8832 1.02193 6.58503 8 12 17
-13.2258 -5.49061 -3.66773 52 75 84
-3.52896 17.1751 7.42002 45 63 70
-1.01691 -3.63914 12.6167 41 64 74
-0.689545 -4.20069 -12.6517 54 66 75
7.23596 5.41336 4.10138 53 34 6
-0.326735 -3.56256 12.9202 40 60 69
6.95395 -10.3058 13.7327 22 34 25
-3.76979 -1.80637 -15.3351 51 72 77
2.82912 0.323476 12.7894 30 54 64
-12.9546 -5.97122 5.5117 43 71 80
-11.1689 -7.76145 -12.3856 47 71 79
3.04738 -1.4727 13.0674 42 62 67
-8.8161 4.23571 13.4055 47 60 65
10.73 -6.02555 -5.65695 43 43 32
-1.22946 11.3535 -4.47363 59 60 67
3.91161 -6.32566 -14.916 25 22 11
1.77315 -5.70047 12.8989 42 65 75
1.4269 5.76745 -13.4748 45 48 55
2.16097 1.10311 12.7551 31 54 63
-13.457 0.608364 2.04471 26 29 32
1.98139 5.14331 -8.98171 36 26 26
-13.6591 -9.39416 -0.261961 48 72 81
-0.973671 11.6716 0.931942 45 31 36
-11.3782 -8.56197 -12.5793 54 69 76
-10.7167 4.0262 4.08435 14 19 21
-4.04964 0.0464201 -15.8517 70 38 6
-12.9224 -5.35597 -12.1209 49 70 77
-3.77538 14.8658 8.3925 36 50 55
9.74413 2.78108 -6.94534 74 53 29
-13.1019 -6.90864 3.06004 45 64 73
-2.87603 14.6391 12.997 31 30 30
6.96184 5.19778 -4.50907 70 36 9
-10.0983 5.36569 12.9135 25 25 26
-7.35059 6.74263 13.36 43 58 64
8.69534 4.63123 3.84437 55 36 8
-0.718609 5.6864 -11.9712 51 64 72
-4.30631 10.1783 12.3646 37 60 71
-3.02297 -3.31642 -15.5494 50 62 72
-1.35798 11.2251 -6.69012 29 15 16
-8.41218 -8.88645 13.8069 55 72 80
4.79844 5.78038 -3.60673 71 33 1
-13.3457 0.583573 -1.311 18 19 25
-6.78695 1.58113 -14.4354 61 44 9
-3.21048 14.6525 4.94374 40 41 48
-3.70118 -4.09252 13.1172 43 66 73
1.20704 4.94594 13.0384 26 47 57
-13.3095 -8.87398 4.81146 47 70 80
-0.852121 -3.32124 -14.8889 57 66 74
-7.06399 -6.94861 13.3624 49 68 77
-4.82377 13.4235 4.69241 26 21 27
-6.99572 7.82674 -12.5623 44 54 63
-4.96222 12.916 -3.72608 20 19 23
-1.84736 12.9253 2.54016 46 31 35
0.405332 14.3017 7.40319 56 75 84
-0.508343 13.1096 5.07707 75 80 91
-12.9045 -4.79675 -10.8749 51 73 80
5.35953 0.395658 -7.5899 49 49 53
-8.98567 -8.41961 -15.2005 57 74 80
-5.18453 13.7565 -11.6649 37 41 40
-11.1786 2.7781 13.9298 64 72 67
10.628 -6.00897 -6.17012 39 39 29
1.23036 8.07729 -1.58733 39 41 46
9.00903 -6.26098 9.36707 12 21 13
-12.9175 -7.3899 10.5611 51 71 80
5.47061 -1.29517 -6.34844 57 61 72
-8.83797 7.19967 -5.93129 22 23 25
-1.16447 7.95978 -12.6067 53 61 74
-4.5583 -9.95848 13.7275 53 69 79
-13.0601 -11.0363 11.771 26 34 40
-8.07224 -8.44387 13.6376 49 71 83
5.0869 -7.32988 12.6805 10 26 21
-12.172 -2.87506 12.621 49 67 77
1.39685 -7.69995 13.1757 45 68 79
-8.8926 -6.88068 -15.1956 56 74 82
-8.55587 -5.39226 -12.9707 55 73 78
0.151083 -7.17859 -16.3442 34 41 30
-7.02171 9.14834 13.8573 29 42 46
6.51943 -0.525431 6.24269 43 61 76
-6.79237 3.42742 -12.5627 59 45 30
-11.2718 2.77362 7.11022 16 13 16
-9.2971 -9.57055 -12.9624 55 71 81
9.03822 3.23977 -6.77572 79 43 9
2.00045 5.26796 13.7367 33 41 43
-12.5382 1.63678 -4.70593 20 26 30
2.39443 -5.34527 12.6486 38 61 71
-10.3653 4.80776 5.06654 23 21 24
-6.85384 10.9224 1.77644 29 33 36
-13.0077 -5.67764 5.09436 43 65 76
-5.45391 10.7559 -13.1771 57 59 64
-12.5186 0.373342 13.5047 31 36 42
-10.5517 -8.56525 -12.4896 48 71 80
-7.24347 -5.24688 -15.683 50 70 78
-13.4491 0.811619 -2.8035 22 24 24
-4.5634 -2.90918 13.0238 45 66 75
-6.19475 10.4383 13.7887 47 57 68
8.64289 2.23721 6.74226 57 33 2
-0.843932 17.1461 5.43289 58 61 63
-2.73016 -0.922644 -16.155 58 50 40
-13.4546 -8.89421 3.89923 47 68 78
-0.334813 15.858 9.13897 45 68 71
-5.94306 9.20709 13.2225 40 59 66
4.03059 -5.74491 -14.3232 34 33 17
-13.5424 -9.19767 3.22782 44 64 70
1.47554 -10.3405 13.4999 42 57 64
1.39195 3.15168 12.7763 36 53 59
-6.32187 4.49439 -12.0153 54 61 71
-11.4746 3.05512 -4.38603 15 15 19
-1.37483 4.46622 -11.8402 51 66 73
-4.59046 -2.82512 -15.2831 51 71 78
-6.86501 10.2077 11.2768 22 23 27
-0.48551 10.923 13.4812 41 44 48
1.4657 5.80313 13.6604 33 47 47
-4.76964 14.1041 -1.68953 19 17 20
-7.88188 9.19345 -11.5037 25 24 26
3.22573 3.06857 -13.5001 47 47 46
-12.8711 -7.46472 8.36755 48 69 78
-3.32136 14.6712 -5.77421 39 17 18
-7.15402 3.18321 12.4929 42 63 73
-12.2605 2.18135 1.08779 25 26 31
-0.509266 10.6476 -6.27837 43 30 32
-12.6008 1.56322 -9.65031 20 19 24
-10.647 4.16478 3.39278 19 19 22
3.91745 7.72223 -2.06994 65 41 16
-9.39103 5.89545 9.30234 19 21 25
8.52641 -9.63836 13.4391 31 47 43
-3.6601 14.8231 7.95283 34 51 58
-2.33137 13.8175 9.05372 41 57 71
-10.5933 4.92804 -2.64772 34 33 36
-5.31817 12.8383 -7.15196 24 25 27
-1.04174 4.79006 12.1594 34 58 70
5.80246 1.38974 -7.42324 79 42 2
-5.35606 -3.29922 13.0473 44 66 75
0.503097 -0.17938 -12.3208 61 65 70
-0.743582 10.3849 -10.4669 37 23 24
-11.2074 3.78514 1.5554 27 33 36
-10.2572 5.16605 0.954445 26 28 31
-10.0758 5.04321 10.8495 10 11 14
-6.99721 10.1149 7.76317 20 17 22
-2.53258 3.53556 -12.3089 66 51 43
-12.4745 -10.065 -12.6769 51 69 76
-5.07548 -10.8596 13.7587 44 64 72
-13.7165 -10.3179 -12.4404 42 51 55
-13.5081 -7.95351 -1.42438 55 76 84
3.58143 -4.82328 -13.722 35 35 28
-11.0086 4.00321 11.7018 30 32 37
-0.637181 9.9398 -10.4014 31 18 19
-1.3366 -9.15041 13.2822 41 60 68
-13.31 -7.27153 -5.01632 53 77 89
-8.96515 -8.06574 -14.895 58 73 79
-9.22153 6.92243 -2.42874 26 27 32
-7.21222 9.87021 3.22648 26 27 29
1.37211 6.25527 -12.9775 38 35 38
-2.78575 -2.75094 13.0399 47 66 72
-4.78308 14.2069 -6.3683 19 17 22
3.82752 -5.47066 12.8291 47 66 73
-13.0925 -8.03508 7.37631 53 75 84
-6.16957 12.1785 -12.5223 40 41 43
-6.95578 10.1091 -3.49117 18 18 21
-0.742535 -0.650609 -13.2319 57 63 67
2.14319 3.23688 -13.3698 53 58 65
9.07943 2.5742 6.48296 60 34 1
-1.20259 17.392 7.17021 50 57 64
-1.94209 6.64813 -11.9983 58 67 76
1.06308 -1.02898 -12.0682 53 63 72
-9.86076 6.17017 -10.3779 26 27 31
-12.8394 1.19902 8.08123 13 12 18
-7.4827 9.42726 11.2728 16 15 19
-8.19676 8.28976 -7.70052 27 26 31
-5.91156 0.278988 -15.4825 66 40 0
-12.1724 -4.72515 13.0766 53 71 77
-7.16358 1.062 12.7709 45 64 74
-12.9957 1.02273 -5.11664 18 17 22
-3.12577 14.6702 3.97391 52 46 52
-7.2153 -3.48858 13.1627 51 70 76
-11.0794 -3.79632 13.206 57 80 90
-0.0768929 -11.7849 13.7578 22 31 34
-11.4482 -1.65261 12.6966 51 73 84
-7.05032 8.12759 13.6887 39 58 66
-4.4505 14.0415 13.7532 39 45 48
-12.4128 1.35212 6.99553 10 7 13
3.06613 3.42776 13.8478 28 43 52
4.51721 -4.66844 -9.8762 27 21 8
-7.25407 9.79042 -1.78268 26 34 35
-12.6465 1.32433 4.68364 14 9 21
-9.07931 6.92952 0.0466805 29 29 33
0.634704 -5.3335 13.1378 42 61 67
-12.7344 -4.4874 9.15909 51 64 73
-7.67464 9.19405 7.01581 23 21 25
-8.05047 8.62336 -5.29146 21 25 25
-8.42638 8.2541 -13.1739 43 49 47
-7.18955 10.066 -11.2125 34 34 37
2.80578 7.50777 -1.84863 60 34 6
-1.84678 14.8167 9.13758 47 63 70
-11.3802 2.91667 10.5998 14 11 17
-13.0573 1.12595 5.0241 13 13 20
-4.53843 8.16275 11.9512 35 65 72
-8.34867 -9.36517 13.8486 55 70 78
-4.80743 14.036 3.86607 18 14 21
-9.43916 6.04123 12.8155 14 13 20
-7.28289 -5.93624 13.1415 51 72 81
-1.66744 11.9397 -8.63201 37 25 26
-6.14506 3.90581 -12.2236 51 58 61
4.12939 -1.24668 -11.485 56 62 65
8.00489 5.51519 3.59896 49 36 13
4.97238 4.55325 -4.83662 70 37 5
6.61504 -0.980623 -6.4231 57 61 67
-7.44897 9.52908 -8.7946 15 14 17
-7.77129 8.69684 8.58139 20 20 24
6.97727 -7.88953 -15.6154 36 35 28
-7.27524 6.78744 -12.1679 45 61 70
-13.4807 -6.28481 -11.3263 52 74 82
4.86425 -3.01704 -6.47493 52 66 74
-2.69317 3.33312 12.476 40 59 70
-13.2288 -6.60238 0.861155 49 67 74
-13.2839 0.882531 -0.388985 20 21 25
-10.0481 5.4561 -6.4774 21 21 27
4.72408 -6.41963 11.7439 5 21 11
-13.2614 1.01814 4.33731 15 18 19
-9.87489 5.76865 -6.34855 24 25 27
3.87799 -0.72348 -12.5681 60 65 69
-9.08001 6.9201 13.2116 26 31 32
4.71344 1.04467 -12.0465 30 10 11
-7.03258 10.06 7.30567 22 22 26
4.49329 7.31958 -2.44315 63 40 18
