ply
format ascii 1.0
comment Created by Open3D
element vertex 1393
property double x
property double y
property double z
property uchar red
property uchar green
property uchar blue
end_header
-3.43145 15.2394 5.88517 48 64 74
10.3433 -11.6153 -11.9837 20 13 7
-1.3615 11.9757 -4.57804 39 27 25
5.40977 -4.47862 6.54803 45 59 67
-13.9165 -11.2723 1.21514 14 30 33
4.08052 -6.31222 12.385 9 28 17
-8.82674 7.26911 -10.8121 30 27 32
1.3658 0.345485 -12.0375 61 67 78
-6.50416 8.74559 -12.79 48 56 60
-13.2152 -10.1994 10.3856 52 65 71
-11.5809 3.42482 -10.1611 27 28 32
-1.66422 3.97294 -12.0831 54 64 69
-10.0261 -2.51674 -12.2379 50 67 76
-0.0438442 9.98831 12.684 31 32 34
2.08585 8.44846 0.280213 32 26 15
0.961149 7.65278 5.08881 24 22 26
7.83117 -6.81155 -13.9346 47 55 62
9.20278 -6.25005 -11.9079 33 32 20
0.386505 15.7725 5.87255 66 76 83
-12.1655 -0.779613 -12.1894 44 63 73
-11.5331 2.68291 1.25055 16 18 22
-5.56443 12.7134 9.14216 19 23 27
-13.7498 -8.82743 -8.10713 59 80 88
-13.473 0.644299 4.60335 22 17 17
6.38708 -7.03959 12.1949 1 23 9
-0.751442 10.4972 -10.9508 42 30 32
-2.76391 -6.11633 -15.5857 52 61 63
11.3596 -8.74934 3.67778 42 38 39
-7.26679 9.79967 13.7129 37 42 47
0.0418262 9.77181 1.24226 34 27 28
-5.13367 13.2548 -9.06458 18 20 22
-10.3381 -0.132744 12.9595 51 66 73
-2.19852 17.3543 8.54749 42 53 59
11.9006 -12.2727 1.2735 29 20 21
-7.39436 9.89464 8.20582 21 22 25
8.08457 -5.75415 9.28898 16 32 24
0.376671 -4.36105 -12.3478 48 61 64
-8.68944 -5.53664 -14.653 58 74 80
-13.752 -10.5533 -12.4713 30 38 42
-4.42304 -11.1386 -16.1297 15 26 30
4.85152 1.21541 9.64 21 23 27
-1.21839 1.04124 -14.894 68 42 7
-8.46009 -5.55891 13.2032 53 75 85
-7.11895 10.58 -11.6886 33 32 34
-0.761214 -1.26302 12.7374 43 59 65
-6.06867 11.6255 12.6231 24 29 32
8.78614 -4.73523 -3.49538 55 57 65
0.508348 8.58268 12.2274 35 37 40
-13.0966 -5.90051 0.72053 47 68 76
-1.63498 0.921885 -14.9925 66 38 6
-5.50893 6.42805 12.3081 41 60 68
6.60488 4.25431 -5.27931 74 35 0
1.81629 6.38226 9.74194 31 28 30
-8.08168 -10.0219 13.9142 53 67 74
-13.2695 0.9533 -10.9802 14 17 22
11.079 -8.86955 -6.46885 44 45 35
-0.138902 9.59772 -7.28991 41 31 33
-13.4539 -8.96073 2.06616 43 65 74
8.90658 -7.09133 -3.80827 45 47 53
5.83288 4.21623 -4.99245 77 38 2
8.98628 -6.71558 3.73204 52 57 60
-2.32054 5.4817 -11.9767 52 64 70
9.39549 -9.47622 -13.9852 40 52 44
-9.03049 7.10301 -8.25645 22 21 26
2.34512 -8.75593 13.3569 17 37 33
-3.72745 14.1308 -13.2586 56 54 55
-0.804544 10.5134 -13.2482 48 39 41
0.314671 8.46672 -9.88605 41 29 32
8.66403 -4.67689 6.41858 43 60 65
0.252511 9.23389 10.7536 36 44 48
11.3694 -10.356 -3.08105 42 39 38
-12.3037 1.68175 12.8593 13 15 21
-7.0963 -10.9393 -16.2706 23 31 36
3.42199 3.60301 13.599 33 35 40
-11.6106 2.64121 6.28113 18 16 23
-0.562396 10.8395 -2.53556 37 24 25
10.6115 -8.84221 -9.84949 41 46 42
-12.8011 -9.68547 -12.6652 51 72 79
-9.10762 6.84674 -5.02155 15 16 19
8.57799 -5.24156 -6.51628 48 52 58
9.17637 -7.22472 -0.508161 37 6 12
6.86456 -1.06997 -6.35143 52 59 68
-10.3527 5.25748 -6.31727 29 29 34
-4.92372 13.7792 4.27146 23 22 27
1.70235 6.8882 11.3709 42 50 51
-8.41929 7.54605 13.8295 43 47 49
-5.76745 12.5438 -12.0098 30 30 31
-8.45189 8.16578 -3.49186 15 15 21
-10.5427 -5.98895 -12.2175 55 77 87
-8.91021 7.77869 -11.7932 28 27 32
-0.254067 1.18362 -13.262 64 67 69
-6.17551 11.8825 -7.4797 25 25 28
-1.24208 11.8804 2.95469 36 24 26
4.15829 -4.5584 12.4173 60 81 87
-13.6103 -8.4425 -10.1099 51 78 86
3.96438 -2.1705 12.924 51 69 74
-6.88212 10.6621 4.60072 23 24 26
10.5445 -8.7839 10.8523 12 29 17
9.98077 -6.75924 4.41827 60 68 71
8.79217 -0.347477 -5.5842 60 66 73
-9.03821 6.91563 -8.99065 21 21 23
-7.37475 1.9928 12.78 49 68 77
-2.01141 12.9704 11.9954 25 26 29
0.331074 11.6303 6.86116 58 70 78
-0.0776386 9.8394 1.41224 32 25 22
-8.31953 2.25132 12.7176 44 65 71
7.86016 5.72691 2.81717 62 41 9
11.407 -10.1828 7.59905 22 39 30
8.08558 5.42283 1.35692 61 45 28
-7.55754 9.64031 -0.121529 29 33 36
9.44601 -10.5312 13.0458 27 43 36
-6.70485 10.8829 7.32838 19 19 25
11.3079 -8.94955 5.30107 39 46 27
11.4615 -9.473 6.96878 43 57 48
-1.67207 12.1965 -4.38197 40 24 23
-8.18591 5.71543 -12.2907 46 55 62
7.51393 2.36931 6.58557 72 39 2
-8.97117 -8.26863 -14.7974 58 73 78
8.19305 -5.5478 -12.1421 38 29 14
5.47162 -3.9653 6.47994 48 59 65
1.7185 5.57111 -13.3171 41 40 42
-3.83845 14.747 3.84285 25 28 32
-4.56494 14.3662 1.53193 13 16 20
-11.7472 -8.93861 13.6895 53 73 82
0.476716 5.60098 -12.8444 50 59 65
-0.57428 11.3093 5.00233 61 77 88
-8.51222 7.88036 6.94214 22 22 28
-13.1181 -9.44041 9.74859 52 78 90
-5.375 12.808 7.59972 19 21 25
2.5807 3.9052 -13.3564 36 33 35
4.39399 0.897751 -8.24763 28 9 9
2.01287 -3.41636 -12.3509 50 60 67
8.96737 -3.04796 5.26255 60 66 73
-0.468899 2.27716 -13.6709 57 51 47
11.4867 -10.3117 3.10434 42 37 41
11.498 -10.5008 6.92089 33 53 41
0.727732 8.52436 10.2257 36 39 43
-4.70314 6.78826 12.3351 46 60 63
3.66224 2.3724 -13.0914 34 18 19
11.3853 -9.37596 2.41568 46 46 44
10.6324 -7.20551 -8.63005 46 41 32
-4.05942 14.5922 6.98541 36 40 47
3.00336 5.56195 2.79455 18 10 12
-9.87692 5.41915 1.57564 21 20 25
3.67478 3.47178 13.2418 34 38 41
-0.889021 -10.7935 13.6062 42 59 68
3.10197 -1.9773 12.8984 40 54 62
-9.64647 -4.69353 -12.2453 52 70 79
4.73549 0.714836 -8.45075 30 10 12
-4.08952 4.11319 12.4122 41 60 68
-11.7944 -4.05776 13.1173 52 74 84
11.2944 -10.4543 9.79638 37 52 42
-13.3227 -8.71626 5.43414 45 67 78
7.33849 -5.71484 7.91888 43 46 51
-2.08899 -2.6414 12.9864 46 64 70
-12.6122 1.32458 -5.69553 14 13 17
1.68334 6.06352 -11.8989 35 31 30
-6.32113 11.4127 -2.30065 19 19 24
11.0122 -9.37773 -8.9797 42 47 31
10.8306 -7.71713 7.58577 21 42 33
-5.76199 2.00299 -13.9236 56 36 10
0.26026 8.65742 -7.43198 34 28 30
9.31726 -6.53455 -12.3073 35 35 21
8.64162 -5.09906 7.04828 33 47 44
3.43216 3.15817 -9.78973 40 27 29
5.75236 0.212565 -7.00742 42 48 56
-11.3346 3.56074 1.02384 33 33 38
-8.80486 7.546 -3.35485 21 22 24
-8.1102 4.23429 -12.0465 50 60 65
-0.826807 10.6868 -11.1928 43 31 32
-12.7259 -4.38984 8.08666 44 61 68
-2.84889 16.9256 9.28319 47 61 65
4.07801 4.03877 -4.96715 84 53 9
0.223009 12.6514 8.85963 61 76 83
0.46559 13.7854 6.35674 61 75 82
-9.29911 -4.27216 13.2797 51 72 82
-2.37221 13.2927 -12.1472 37 12 13
0.750457 -3.60677 -12.4452 52 59 63
-10.4694 4.81062 -3.02482 12 13 16
-7.71052 9.08912 -13.2601 50 58 55
-7.65708 -2.53308 -15.4379 51 68 76
8.87757 -5.12915 -5.41883 56 56 60
0.423574 10.4971 6.05142 49 47 48
-6.59364 10.6794 12.5441 15 17 24
3.89823 -2.88236 10.3165 58 77 83
-1.27461 12.0337 -3.81306 38 22 21
2.69862 4.34741 -7.66796 39 23 26
9.20952 4.08141 -0.990067 74 39 6
2.37366 -3.51342 -12.4452 42 49 53
5.41589 1.1178 -7.56559 65 39 12
11.3575 -11.0195 -5.95608 47 54 50
1.55912 8.63297 -0.0413885 26 23 19
-3.7643 14.7968 3.37724 24 34 37
-9.22314 6.7303 -9.74054 18 17 24
11.0309 -8.75127 9.4356 9 27 17
10.8699 -8.06551 -6.63834 36 32 16
-1.41609 -10.9217 13.6553 43 57 64
-7.82293 -5.93227 13.2752 49 71 80
-1.0551 11.8215 -3.00575 37 24 25
-3.19135 14.5644 -7.35739 32 12 10
-2.15779 -1.07547 12.8182 46 59 67
-7.78112 -9.36099 13.7356 51 72 82
-1.84616 12.1642 -6.23192 28 18 16
-5.71714 12.1265 9.10371 22 21 26
2.90264 7.61227 -1.6783 68 37 2
10.2778 -8.08792 -2.15155 48 36 37
-13.4685 0.679111 -9.58993 19 20 25
-7.64208 9.49116 4.99245 23 25 29
6.5068 -9.35431 -16.573 42 48 38
-8.09702 8.24407 -9.45965 28 29 31
10.7441 -8.08172 -7.00269 33 33 21
2.07685 5.88089 4.54911 29 31 32
9.42034 -6.31146 8.97948 13 29 20
10.9125 -8.18628 0.347445 48 30 32
8.69207 -3.50008 -4.76242 55 63 74
2.21545 5.94811 9.45854 37 41 42
-6.01853 11.1748 -13.4081 53 61 64
-12.4201 -3.84806 11.6159 43 67 78
1.22943 7.60387 12.9658 30 33 41
4.80006 1.16465 13.2995 28 30 34
-1.40742 -8.08925 13.4658 45 64 71
-4.93845 -8.27045 13.1808 46 67 75
-0.0612664 9.04227 -6.63166 33 18 18
-7.89887 8.90901 -3.3092 21 22 24
7.63654 -5.18879 -8.98109 33 23 18
-7.94871 -1.31931 -13.3111 57 73 78
1.89496 -3.69196 -12.1938 49 61 68
-1.61531 12.9454 13.3732 43 45 50
-8.07539 5.94965 -12.3238 44 55 62
-8.66255 -6.45438 -13.2693 57 74 80
6.88313 6.7135 -2.25559 83 43 9
-3.18834 -11.7546 -16.2961 19 25 27
-2.28989 -0.510286 12.7179 44 61 69
-12.7306 -4.57294 9.33285 51 65 74
-9.51302 5.85242 6.77145 20 15 20
-9.39252 -9.11074 -12.752 55 75 84
-5.96065 12.307 4.24972 28 27 33
-10.3253 -8.8358 -12.5116 50 71 81
-2.01834 1.23366 12.6494 43 62 72
-13.4544 -9.6224 4.04208 50 75 85
4.29346 -2.71885 -7.48876 50 57 68
-2.50875 13.2696 4.43587 54 55 64
8.80533 -0.193323 -2.42235 56 65 74
-1.75269 10.8331 13.3136 29 44 51
3.44576 2.78269 -11.5185 32 17 18
8.6371 -6.38976 -1.36739 36 34 28
4.37357 -3.50426 6.65007 48 62 67
-13.3102 -7.68239 2.27782 47 65 72
-10.4665 5.07743 -1.95426 30 32 35
-0.877563 10.6984 -12.636 44 36 36
-2.12851 15.1782 5.34757 74 83 99
-11.4596 2.80357 5.55534 13 13 18
-2.4877 -0.656513 -16.2207 68 42 17
-2.7411 14.3011 -6.22153 33 11 9
3.01364 3.56228 -11.855 32 24 26
-7.59413 9.63808 2.68416 26 30 34
-11.3122 -11.0562 -12.7863 20 36 41
-12.962 -9.09265 10.5781 48 67 77
-2.78084 6.61478 12.3421 43 57 63
10.717 -7.74391 -9.27088 40 38 25
-1.15052 -4.86377 -15.3536 54 65 71
-7.93387 -10.5013 14.0136 53 69 74
3.21047 3.67824 5.92389 67 39 7
-2.33309 13.2415 13.6785 21 22 24
5.84259 -8.43246 13.0296 12 27 19
4.4809 1.87573 6.41502 7 7 15
-3.87251 14.7298 -6.14458 36 23 24
-5.73515 11.8684 12.6937 21 28 31
4.48897 -11.7055 -17.5949 28 31 28
9.08965 4.40691 0.632215 68 45 3
-12.9213 0.96328 -4.84459 16 15 20
-1.17172 1.21911 -14.7033 68 43 10
-4.51367 14.5207 -6.59609 23 25 28
-5.82224 -8.61077 -15.676 48 68 77
-13.602 -9.22129 -0.236905 49 73 82
-0.528579 9.87322 -12.483 37 27 26
-6.84727 8.43575 -12.8817 49 55 61
-0.957223 -3.12247 -14.998 57 68 76
7.74963 -4.01849 6.34098 51 63 70
11.232 -10.4 -6.78891 39 41 29
0.302125 11.8218 6.89132 58 72 80
-5.53166 12.5122 5.05351 21 20 24
2.41785 -7.10658 -16.2495 32 43 35
11.3761 -11.6606 -5.28892 35 30 25
-4.66091 -1.80596 -15.4178 53 64 70
-9.85181 6.22392 -6.46029 29 31 33
-12.5489 1.3513 7.46571 8 6 13
-9.53546 5.89953 3.48716 18 23 24
-9.32922 6.58078 10.0066 26 29 34
-9.30531 6.82172 -6.57988 28 24 27
-0.31706 9.28799 -9.57344 43 30 30
-1.05176 11.4985 -0.97583 47 27 30
8.60504 -5.83334 8.12888 10 25 16
-2.45992 13.717 3.77446 59 60 66
10.3025 -7.16905 11.2647 12 25 19
-13.4775 -6.38416 -10.053 55 79 90
1.71568 -2.76102 12.828 44 64 78
7.05664 6.53179 0.499076 65 40 3
5.74247 -8.0305 -15.9965 31 38 27
2.94084 -9.80034 -17.0888 27 35 27
-0.82201 17.2599 7.33813 45 62 70
-11.8114 -4.79753 13.2342 55 74 82
2.31592 5.72104 10.2742 40 43 41
-9.90128 5.41338 3.88091 17 14 20
-3.25021 9.10115 -12.0102 56 70 78
9.00595 -0.307642 6.04012 55 65 71
-10.9933 3.94519 2.74333 29 28 33
-3.73448 1.22396 -14.7021 66 39 7
-8.55833 -2.43775 12.9987 48 71 80
-6.43177 8.64357 13.4066 42 58 67
-2.43222 13.1768 -9.49974 29 16 16
-0.972728 11.0176 -3.97835 35 14 23
-1.31533 11.5336 -13.0503 41 28 27
-10.687 -2.19714 -12.2086 45 68 79
-6.11469 12.1653 -6.24036 31 31 33
-5.96512 12.171 2.42345 28 27 30
-8.79484 6.75391 13.992 44 44 49
-4.30057 14.6433 -12.7194 41 30 36
1.91418 5.82172 -10.4129 37 26 30
-9.23226 -5.51928 13.0386 52 75 85
1.77438 6.60988 6.00031 28 29 31
-0.358706 -5.14469 -14.3334 49 56 59
4.18807 -4.90554 12.1393 56 76 84
3.79008 2.89676 12.4905 36 37 37
0.500433 12.473 5.60445 57 69 78
-10.6177 2.72371 14.1033 51 56 68
-0.854822 17.2384 7.94676 41 60 66
-1.66208 12.2248 -1.61052 31 15 16
-4.94348 13.2231 3.22891 26 31 34
-12.6261 -5.13049 7.79189 42 60 69
0.41172 13.4811 7.53737 61 83 88
-6.17593 12.2466 -10.4432 37 38 41
-0.626065 5.75624 -12.0083 53 66 74
-6.39928 -2.9213 -15.2024 48 72 80
0.470343 1.45774 -11.9863 55 70 86
-7.67819 9.71581 -6.63376 29 32 35
4.0642 -9.21055 -17.194 31 43 28
-11.7654 2.45786 -8.22941 9 11 16
-12.5434 1.4616 13.0922 16 15 18
0.0665646 9.50907 4.18909 39 31 33
8.62972 -1.83712 -4.34586 57 68 74
9.96249 -5.99277 5.44199 39 48 44
-0.321955 10.5822 -1.29062 40 28 31
11.2465 -9.92328 9.98317 31 53 45
-13.6309 -10.4816 1.41893 40 59 63
10.5459 -7.60384 -9.88607 30 29 13
-7.23385 10.0902 13.4113 26 29 30
2.32894 -1.18337 -12.2608 55 68 79
-9.49391 6.5204 4.98671 32 30 34
-12.7769 -11.4537 13.2986 10 20 27
-1.68507 -11.1865 -16.2555 13 7 10
3.0689 4.23922 9.23182 37 33 34
6.64596 -7.46369 13.0025 17 32 23
8.91741 -10.9598 13.3545 34 46 40
-12.7702 0.857346 -8.72955 16 17 24
2.46814 4.54996 -11.53 40 31 33
-13.1398 -5.34607 -12.0355 52 71 76
-6.30511 11.3636 6.88138 19 18 25
1.83721 6.09943 -9.57829 39 30 31
6.54009 -5.04094 -8.08557 24 31 29
-11.1597 3.41624 7.6541 14 14 17
-4.14905 4.75527 -11.9878 55 58 64
-0.440794 10.6657 3.8024 37 30 35
-0.837681 -2.8269 -14.4454 56 64 72
8.35723 -5.61742 -10.7394 29 11 0
-10.2711 4.52784 8.28837 11 13 19
-1.71403 17.2986 8.40142 41 58 65
-3.15772 14.6211 -5.21164 37 14 16
-13.5605 -8.43296 -1.66472 54 78 88
0.0489435 9.75625 -4.00623 41 32 32
6.66095 -3.80769 -6.24257 54 65 73
-4.36823 14.5896 -11.3165 18 36 32
-13.0409 1.13715 4.8602 11 11 19
-1.92755 12.3488 -4.84216 32 15 15
-0.832518 11.8957 9.05964 44 58 65
-13.1718 -4.66986 -8.58384 57 77 85
8.89078 0.056488 -1.02505 60 65 74
-7.69534 0.551159 -15.4938 63 43 17
8.8988 -6.4153 -3.68815 50 53 60
6.04211 7.64725 1.44581 59 35 8
0.774789 8.44586 -3.75694 33 19 20
-5.39382 12.5874 2.41496 23 28 31
-6.88194 -8.02086 -15.8247 51 66 74
-9.01324 6.85902 -11.5219 22 20 21
5.61632 1.16441 -7.60072 69 41 15
-2.22757 13.4587 5.17518 60 69 82
-4.84629 8.70528 -12.0577 47 62 70
-14.3275 -11.0008 -7.9623 30 43 49
-13.2082 -9.03716 -12.4761 57 76 85
-3.06909 14.61 9.63469 48 62 68
-1.96045 -0.24896 -15.9815 72 41 10
0.447836 8.6855 11.5377 33 37 38
11.5358 -11.059 5.48904 51 59 49
-11.6503 3.07857 -12.4059 19 19 24
5.56621 2.57589 5.90354 60 32 0
-1.22889 4.52134 -11.8497 50 65 72
-8.52324 -5.16932 -12.8045 54 72 78
-3.77907 14.8385 -0.997686 22 32 27
4.17155 -4.38678 12.2563 57 78 87
-6.70541 0.625401 -15.3291 56 42 17
-1.10705 1.86635 12.3577 36 59 68
0.996596 7.22248 -12.9288 42 40 44
3.04511 5.28681 3.4408 32 18 10
-5.43699 -7.17084 -15.6978 45 66 71
4.185 -6.49249 -15.4278 30 31 16
-5.50902 -6.42614 -15.5161 45 64 75
-1.00542 -6.90484 -15.4109 14 24 17
-5.21541 13.815 -9.67422 31 33 37
4.76213 3.47264 -5.75828 71 40 1
-0.71537 10.7913 -5.06981 39 34 34
-9.71234 6.5463 -11.2127 29 33 37
0.0976963 9.67543 1.81935 37 26 27
-13.4079 -6.38799 -9.52712 53 77 88
-5.08318 -3.54559 13.0578 44 67 75
-6.97208 10.212 -7.55381 28 30 33
-0.110021 9.33081 -6.92519 38 23 22
-1.13006 16.0061 5.23053 66 76 86
5.96339 6.15038 3.12611 47 33 7
-6.57436 11.3466 -13.1526 39 46 50
1.41111 6.41063 -6.38683 34 17 19
-10.9115 3.99138 7.29847 27 27 30
-1.5276 11.953 9.93206 32 34 40
-10.3684 4.98223 4.87288 31 29 33
-14.2074 -10.7924 -10.0131 25 43 50
4.07176 6.79696 2.1618 50 32 12
-11.586 -6.85666 -12.4902 51 70 79
-13.7981 -10.8316 3.10679 33 44 48
9.33944 -7.67824 -12.8678 51 61 64
-9.86615 5.56524 -5.10045 27 23 26
1.64278 -11.0978 13.5903 41 56 58
-8.49754 -7.54972 13.3065 52 72 80
9.88037 -7.956 -12.3687 44 51 52
-8.6545 3.06807 -11.9053 50 65 75
4.86606 9.13332 -0.347513 53 34 14
-0.640733 6.01913 -12.1087 51 64 72
9.16694 -9.01011 -14.1407 39 44 36
4.499 -2.36453 -6.5539 56 64 73
-6.55591 11.1157 -10.719 17 18 21
3.93917 -2.12383 -8.94879 42 16 19
-7.54961 9.75128 9.77732 22 25 29
5.82822 1.05265 -7.74245 63 43 24
8.87642 -9.76497 13.2772 16 34 26
2.39435 4.56081 -11.9749 35 29 30
9.9357 -7.45574 -1.80844 42 36 36
3.38238 3.12845 -11.546 35 26 27
9.97693 3.01048 -5.91555 64 50 38
9.75894 -9.76574 -13.3871 29 37 26
0.00165939 -9.10774 -16.7285 36 48 36
0.601824 1.4424 12.4136 39 59 69
-10.3636 -11.606 14.0559 19 31 36
-8.41216 0.775261 -12.0161 39 57 65
5.23757 -11.181 13.7028 20 36 25
5.85896 6.53373 -3.25154 73 47 20
-0.587322 -6.34172 -15.2072 24 29 18
-14.0247 -10.1891 -10.3182 52 62 67
10.1507 -7.33276 -11.1776 29 23 7
-2.79062 14.6626 12.3467 27 31 36
-4.84354 13.8038 13.41 41 43 49
0.752608 -10.4181 -16.7564 32 38 23
-0.869425 -3.57827 -13.2195 55 64 73
-12.1941 -6.37671 12.9671 46 70 79
-2.04968 -6.26638 13.208 43 63 70
-6.67945 -2.10132 -15.4123 54 67 68
-2.4049 -7.48206 13.3558 45 64 71
7.08829 -7.97889 -15.5737 41 43 39
-14.2522 -10.867 -8.61876 31 44 48
-0.0269156 6.74974 -13.0946 50 56 65
-4.69872 13.6185 9.78531 18 20 25
10.7134 -8.82423 -9.65775 44 49 46
3.62967 6.40975 -3.14659 64 39 13
-6.96854 -9.48949 -15.7452 53 72 80
-7.96548 0.77084 -15.3654 62 43 17
-0.659514 5.58606 12.1357 35 57 68
-1.54867 -11.0098 13.6782 43 55 61
7.87577 -5.18888 -9.34723 34 24 10
-4.25291 14.5868 8.21129 21 20 28
-11.2947 -1.12987 12.9045 50 67 73
4.49072 2.81858 -6.05126 79 43 1
-1.48119 11.4597 -8.92565 37 26 27
3.95804 -3.87739 -8.17404 43 49 56
1.94193 5.82271 -9.92826 39 28 31
1.53573 -3.64875 13.0119 43 58 64
3.99337 2.25474 7.95513 25 20 24
4.62818 -6.79543 12.0355 6 24 12
0.0729656 -4.83754 13.1098 42 61 65
4.00611 -4.88246 8.63845 46 58 65
-13.6282 -9.91946 0.309252 51 68 80
-2.45617 13.8509 1.42396 38 21 16
-11.1443 3.46733 8.53899 16 18 22
-11.4012 2.79948 -6.67089 20 19 22
-10.2912 3.91891 13.9855 39 36 35
-8.77244 -9.58401 13.8535 54 70 77
-13.6428 -11.0803 7.80054 29 42 46
-13.9446 -9.56524 -8.39121 59 80 86
-2.23396 -0.758079 -16.2295 69 43 25
0.779845 7.80816 -7.64778 35 22 20
0.693906 8.28068 5.20532 28 24 30
0.1521 9.42141 10.5121 26 35 39
-1.81652 -11.5596 -16.6261 18 14 19
-12.3189 2.22831 -2.63104 22 23 29
-7.33702 7.191 -12.4418 46 55 66
-9.69303 5.65828 9.65717 22 22 26
-4.1463 14.7335 -7.8335 28 28 28
3.79995 2.47637 6.165 26 20 25
-12.9051 -5.47364 0.783567 50 69 79
7.052 1.83709 -7.44253 79 44 5
8.39032 -5.82645 8.11934 15 27 19
9.4342 1.42321 -6.47593 53 47 53
-8.99578 6.98473 -1.79355 12 14 19
-11.8609 2.45957 -1.43099 15 13 16
11.4414 -10.1226 6.1214 25 38 24
-6.24368 3.46935 12.5825 44 68 78
-10.0034 -7.17418 -12.5187 57 72 76
-0.0493202 9.69949 2.7051 34 23 25
0.612329 8.66427 4.059 40 38 42
-1.60681 7.03352 -12.1603 52 67 78
-5.65084 12.329 -5.288 15 16 18
-13.3314 -7.61443 3.19282 44 64 70
0.678991 8.34351 -6.2558 42 26 30
3.66421 -1.83022 -9.97125 36 33 35
6.36 -5.05718 -11.8394 37 35 21
8.72067 -3.76041 -6.30153 58 64 71
-13.3729 0.858524 3.59994 27 26 33
-1.49721 12.6342 5.10325 64 72 81
0.914466 8.33271 5.97998 41 44 45
3.93388 4.41219 4.33302 55 29 3
1.23229 7.28789 5.73231 35 38 40
0.696261 -10.8592 -16.7685 18 29 11
8.40143 -3.68303 -2.21611 30 6 9
-7.22972 10.0055 -11.1514 31 31 34
-5.43865 1.39821 -14.4585 70 45 13
-8.76467 -4.70845 -12.2591 55 75 84
-11.6168 3.32365 -12.2843 23 24 29
0.913113 7.48175 7.67253 27 26 30
-4.54515 2.4396 -13.6069 60 39 4
9.43682 -6.69595 11.0181 2 25 17
-1.37652 0.121678 -15.7374 71 40 6
6.99481 6.47789 -1.01574 71 35 1
7.58848 -5.62073 8.62648 49 45 45
6.47214 5.42351 -4.09229 80 45 1
-8.84896 -7.32352 -14.7297 59 75 81
-8.66663 5.96267 14.0145 33 45 49
-5.07037 12.9555 7.97551 20 21 24
-6.70076 -10.3158 -15.9332 48 61 70
10.9907 -8.97235 10.2215 15 32 23
-2.99475 13.9764 -11.6281 32 12 12
-4.17351 14.6426 -12.3529 35 25 17
-1.01486 0.612007 -15.3441 69 38 6
9.67276 3.40362 -6.41369 80 45 3
3.72465 -4.14912 -8.84147 47 55 64
11.125 -9.35587 9.5221 14 33 21
-8.68377 7.56888 4.2415 18 22 25
-10.5463 4.44185 11.0808 21 23 25
-1.84032 12.8228 2.01594 33 19 19
-6.64723 11.1991 5.5682 29 30 34
1.86303 5.36509 -9.5911 33 19 20
-13.5031 -8.94893 3.20432 44 63 69
8.85904 -6.64388 10.9327 3 24 13
-9.85585 6.13072 -10.0739 28 25 31
-10.2672 5.2004 2.92296 26 29 35
6.13479 7.28146 -2.52657 66 40 13
7.5111 -1.07222 -6.25903 55 65 75
5.01073 0.939674 12.1497 28 32 39
6.90903 6.39059 -3.49268 64 38 2
-9.7915 6.02898 -4.50688 28 29 27
-7.18782 -1.50435 12.9621 52 69 76
-1.97758 7.42583 -11.968 50 67 75
6.6981 -5.25455 -9.07685 39 31 21
-9.27556 6.29236 9.68264 25 27 32
-13.3009 0.847008 -6.57287 14 15 20
-0.028549 9.81506 -4.3278 37 29 29
5.14813 1.87182 6.6197 21 19 20
-12.2899 1.72971 4.92161 20 16 20
-6.06106 -8.71181 13.5494 47 65 74
-7.91083 -0.494171 -13.0752 52 70 78
-4.91923 13.0841 7.7561 14 14 18
8.02263 -4.19957 -6.40877 59 60 64
-11.3454 3.7444 -6.70013 23 29 32
-1.24598 1.41731 -14.5131 66 41 11
8.73121 -1.64966 -4.17163 53 61 62
-2.24501 -6.84041 -15.6686 36 43 35
-3.60059 16.8167 5.68519 47 66 69
4.06591 -5.54134 12.3962 45 60 63
-8.75713 7.2219 2.5439 26 28 30
-2.31269 0.370764 12.4477 41 62 74
-12.191 2.26704 -13.0031 40 49 54
-10.5968 4.27724 -2.99112 22 21 24
2.77782 3.67306 -7.52554 34 15 16
0.62663 8.74424 -2.50756 43 27 28
-1.46184 11.5638 -8.49238 41 28 30
5.40359 -8.21179 12.7466 1 17 7
4.85724 -10.0266 -17.2032 37 46 41
-11.1653 3.87299 -3.74622 26 29 31
-3.5239 17.1735 7.70222 41 60 65
-12.0115 2.37481 -10.9521 19 19 22
-2.17468 6.7023 12.3605 37 59 66
0.490075 -6.51186 13.007 38 62 72
-5.75965 1.79593 -14.0841 60 39 7
-7.78507 8.88304 13.3749 26 26 29
-4.04948 13.2922 13.701 38 51 61
-9.33452 -5.81813 13.2606 53 73 80
5.90504 5.53795 3.60892 69 40 3
1.78261 -6.13445 -14.9985 31 35 31
-3.35558 5.99433 -11.8388 50 64 71
3.38035 7.18042 -2.41968 77 48 16
-8.77643 7.22165 2.70375 25 28 30
4.50488 -5.17837 7.20627 53 67 78
0.192655 9.74585 -0.635032 41 29 34
-5.50317 12.4418 11.7033 15 18 21
5.48282 -9.79112 13.5878 7 16 10
-12.9958 -9.34879 10.0422 44 68 77
-6.93766 6.12631 -11.994 48 61 69
-12.8274 -3.8599 -8.33671 53 74 83
-5.34885 -7.29811 -15.7009 46 64 69
-9.70737 6.40777 -3.28358 26 26 27
11.1694 -9.93669 -5.34097 33 34 23
11.3967 -9.18409 -1.695 42 36 38
0.758251 7.88992 -5.55647 31 14 16
3.74981 2.37292 6.38243 16 18 24
-6.50664 11.3597 12.8574 30 36 39
-11.7885 -5.91836 13.1439 51 73 79
4.3665 -0.482283 -9.50326 50 55 62
-2.26466 17.3983 5.59425 54 55 61
-1.83763 8.69157 12.3683 39 58 67
-10.3321 5.27826 -5.81534 29 33 37
3.69764 4.30334 -4.88153 73 43 12
3.59745 2.22048 -7.58935 33 11 13
-1.40346 6.6638 -12.2111 48 61 71
1.14493 5.53231 -13.4595 52 56 64
5.41902 -8.37689 -16.4203 21 23 6
3.51185 2.74665 -7.30192 39 23 23
-10.3601 -4.31044 -12.2334 43 70 80
-5.5373 12.481 -3.12471 15 21 23
-8.2947 -2.3818 -12.294 50 70 79
-5.41602 6.37504 -11.9142 47 57 64
-7.11482 10.0135 8.44437 22 23 27
4.18328 -5.08553 11.9739 53 74 83
-8.53356 7.31356 12.6606 19 23 27
3.46914 -6.2411 13.1348 42 63 67
-13.0995 1.08783 4.34818 10 12 15
-3.92385 14.0022 13.8186 22 21 26
-0.84462 -1.24417 -13.7062 66 70 77
-8.72678 -5.75042 -12.6294 55 75 85
-3.6664 14.7394 -5.27129 37 20 14
-3.41702 11.5245 -12.9482 44 59 67
-2.17751 -7.11602 -15.6457 35 43 34
-0.0707626 9.85546 -4.59089 40 31 34
0.575619 -6.79231 13.0208 38 61 72
-14.1375 -10.7271 -9.65185 28 42 50
-0.417093 10.6692 1.75459 33 20 22
8.20373 -5.12436 -7.3857 38 34 31
-5.77061 10.1351 13.5432 44 58 67
-1.65583 12.4358 -0.668533 40 24 25
5.76304 -3.9174 6.51841 52 58 65
-1.93654 10.5172 -13.3961 52 62 70
8.83158 -1.30456 -2.91092 57 56 62
-13.2645 0.895123 -0.459686 20 21 24
-9.83989 -8.34063 -12.4248 52 72 86
3.23996 3.69187 8.5319 26 25 29
-0.24458 9.70811 -12.8297 44 39 37
0.427599 8.04017 -10.5716 35 28 29
-2.90346 -2.39786 -15.4663 49 63 68
1.1944 7.37114 3.14633 30 30 31
1.48771 6.22776 -11.8882 33 24 26
7.7625 -8.10397 13.1107 8 20 14
-12.2117 -10.5109 -12.7093 29 40 47
9.36179 3.90392 4.40784 65 40 6
-9.56993 6.79093 -12.6126 27 32 37
-7.47793 5.78823 -11.9695 51 64 73
-13.3441 0.926022 -11.1391 19 17 22
1.82307 6.06388 -9.1288 39 28 29
4.5431 -4.95532 9.42985 40 52 58
-1.96223 17.0322 5.17187 63 65 70
6.0844 6.41154 2.62883 56 34 1
8.6998 -0.499983 -2.96254 56 61 70
-0.306581 8.49442 -13.5704 46 54 58
-4.27045 5.49894 12.2616 46 67 78
-13.6248 -9.18871 -1.9354 56 75 85
11.4571 -9.64521 8.61527 35 50 38
-3.68755 14.8207 8.02364 34 50 58
-13.6707 -10.852 4.42236 33 41 49
1.37421 6.51782 -9.38035 35 20 20
6.1268 -5.64564 10.9807 23 41 33
-0.738285 10.7035 11.7438 26 26 33
-10.5054 5.04096 -11.152 23 28 31
-2.67941 14.3837 -0.455961 33 12 10
-4.35623 4.11366 12.3457 40 64 75
-3.787 7.84021 -11.9348 51 64 70
-2.47929 13.5995 1.22398 63 42 38
-8.39433 -2.97508 -14.7032 59 74 81
4.29046 -0.808685 12.9152 55 71 80
-10.0829 2.7098 -12.5424 41 52 61
7.04471 -6.81874 -14.5773 47 49 51
3.74471 1.25832 13.7615 34 51 56
8.21245 -5.91749 -10.3227 40 36 13
7.58794 3.2148 -6.64967 69 43 13
0.0482931 1.70586 -12.4126 55 58 63
-2.43376 3.07494 -12.8185 63 46 28
1.70961 -8.90035 -16.9447 28 41 23
3.47975 3.36793 6.96762 26 28 29
-5.20105 -3.60396 -15.5648 49 63 71
-1.4809 11.4322 -8.62031 43 29 31
-9.95825 5.51071 4.51525 22 30 33
2.81665 4.83328 9.48604 32 34 37
-4.78601 13.7941 3.44307 24 29 34
-4.9227 13.8231 -2.11049 25 25 28
-1.33029 11.9998 -1.03077 40 28 27
-12.8656 -4.70196 -10.9674 52 74 81
-7.7522 9.66048 -3.39443 25 23 28
2.49752 5.14929 9.8503 29 24 27
-0.598931 0.302764 -12.8541 60 61 64
8.31701 -3.17079 -0.55529 34 13 13
-11.0892 1.59738 13.9591 50 64 72
0.289671 8.26436 -11.3763 36 34 33
10.2706 -9.24794 11.5927 21 33 22
3.88647 -8.62053 -16.8465 25 33 25
-8.09535 -6.41802 -15.6727 51 65 75
3.18944 0.302008 13.0104 27 51 61
-0.229026 9.56558 -8.35681 43 36 35
-12.6447 -4.168 9.37313 48 67 76
-9.49758 5.96136 2.83786 18 16 20
-6.78999 11.0121 7.92721 26 30 33
0.00534487 0.374832 -14.7349 66 58 60
-7.98271 8.57217 -6.2199 21 27 27
-10.3421 4.46199 7.9092 26 28 33
-8.89343 -8.64885 -14.1861 58 73 78
1.35682 6.54541 -9.17249 42 29 28
1.52562 6.78371 3.63853 15 23 23
-4.20909 -5.67673 13.176 43 67 77
4.22069 8.80168 -1.20258 62 38 3
6.96109 -5.21979 -6.96111 28 24 27
0.151739 6.7016 -13.2572 53 59 68
-11.0177 -8.53389 13.6388 52 73 80
3.51436 2.12936 13.8189 30 53 58
-6.52388 11.4395 -7.72074 27 27 31
-12.1549 -3.64382 12.2624 43 67 77
1.06659 3.73253 12.6825 36 54 64
-6.86326 10.3323 -0.800055 29 28 30
-4.53257 -8.13742 -15.6531 50 69 77
0.38642 10.4907 5.13441 48 53 53
-7.96514 8.3632 -10.644 25 28 28
-4.05301 12.7763 13.538 34 52 61
8.03334 -5.25135 -9.26204 31 19 9
-0.418581 -1.2933 -15.8416 55 56 61
10.8922 -8.12289 2.55376 50 36 39
-8.74045 0.757111 -11.9436 42 63 72
-4.60836 4.50372 12.2218 43 69 84
-0.348163 10.7151 4.79743 36 48 56
9.6815 3.70712 0.768765 68 39 4
-4.73112 14.1734 4.07094 17 13 18
-10.3883 5.23399 -4.05871 27 34 38
10.7962 -7.93076 9.24976 29 43 35
-6.29401 4.74897 12.3201 42 64 73
-3.73931 16.2664 8.52457 46 63 72
-10.7202 -2.55949 -12.2255 47 69 77
-4.94507 13.0065 -3.62883 22 23 27
-5.38049 12.1949 13.6317 27 36 39
-13.2024 -7.10427 -12.4117 56 71 77
-8.55762 7.85006 6.16386 21 28 32
0.923416 8.014 -3.09994 47 38 49
-6.911 10.6845 -2.03818 26 26 29
-4.67146 5.13893 -11.6488 54 71 79
9.78159 3.64284 0.897774 64 42 5
1.32844 7.01274 -9.58067 38 28 28
-8.01651 8.62458 1.7258 26 25 31
-4.89892 -3.46861 12.9041 43 66 76
1.08984 7.64481 -3.70912 37 22 27
-0.594188 15.2415 5.17462 75 80 89
-4.79587 -2.01727 12.9735 49 67 76
2.00871 6.10139 8.74904 36 37 40
5.53699 4.6404 4.5623 65 39 1
-13.6993 -8.32364 -5.27111 59 81 88
-12.7461 -7.55623 11.7809 45 67 75
-3.37217 10.2309 12.1994 39 64 75
-8.13081 8.47133 8.12503 28 27 31
5.72601 2.34106 -6.84374 85 50 16
-13.3705 -6.72821 -11.7441 49 72 82
6.90195 -5.05846 -10.6188 16 30 17
-3.86726 14.3463 13.7313 28 24 27
-4.90158 4.5929 -11.7707 47 57 66
-8.46081 8.23702 4.41414 29 33 37
-3.78487 8.74876 -11.9484 58 68 78
-5.57852 11.9918 11.6381 17 17 22
8.9122 -6.85799 -13.0769 29 28 19
0.948486 7.91435 4.36916 32 28 28
8.71019 -4.6858 4.33454 57 69 77
-5.22507 12.5404 1.09481 21 23 29
11.4092 -9.45448 2.2899 44 44 42
-8.43462 -7.0687 -15.7028 46 69 71
-7.23491 5.67317 -11.9332 48 60 70
3.30988 6.10814 2.66226 57 37 16
-1.97531 13.1308 -5.00957 38 22 26
-4.67327 14.2048 -3.08786 23 23 26
10.8108 -7.64332 6.04188 18 33 22
-12.5512 -8.86999 13.2827 47 68 75
-0.371944 8.89493 -10.1063 33 25 27
2.6877 -4.38826 -12.6468 26 22 10
3.79314 2.18736 -8.26895 32 11 15
1.1717 6.45515 -13.3329 40 42 46
-6.2335 11.8092 -10.227 36 37 40
8.31525 -6.69431 11.2738 3 14 5
-12.9098 -2.92323 -7.32225 57 72 78
-13.0171 -7.46721 10.1424 50 68 76
-2.84423 12.1625 -13.4283 55 59 64
6.31194 3.2098 -6.16222 73 34 3
10.7072 -7.72392 -8.32675 41 42 32
10.9364 -8.48466 -6.79971 30 24 14
6.98663 -8.1305 13.1341 16 33 25
1.70568 7.02184 13.3145 46 49 51
-0.300978 16.2648 5.15497 73 77 82
-7.48918 9.25809 13.474 26 25 26
-13.5162 -6.56667 -10.0799 55 78 89
1.25522 -10.047 13.4638 42 56 60
-13.6084 -11.0575 -12.6597 28 39 44
7.78314 -1.79648 6.24638 50 61 70
-8.4745 -4.51149 -13.8659 57 73 80
-0.90661 -3.87999 -15.3108 62 73 78
8.82801 -5.97858 -11.3983 26 16 3
-3.71816 14.6532 4.6808 28 27 32
-5.46323 -4.69362 13.0909 45 68 78
0.340292 7.72649 -11.5435 34 20 21
9.72657 -7.99419 12.6111 11 28 22
-11.5306 3.35456 -4.25029 24 22 28
-8.84084 7.81403 -11.3088 29 32 38
8.31315 3.71423 -6.02863 74 42 8
-7.3498 -2.48877 -15.4331 57 65 72
7.24664 -5.09652 -11.2879 29 27 10
-12.4286 2.06095 -0.856443 21 23 26
8.9272 -3.15186 -2.75252 47 40 42
-5.39356 12.936 9.44356 17 22 26
-11.3438 2.84836 3.18228 7 5 15
-10.6725 1.59039 -12.432 37 54 62
-1.87103 6.0055 12.3551 40 58 67
-1.50612 3.48278 -12.3228 54 62 70
-11.1378 2.92873 12.497 10 7 16
-7.84287 9.17922 -5.18591 17 18 24
-2.58913 -4.87015 -15.5347 50 67 74
-0.953081 11.7907 12.7955 34 38 41
-12.6044 2.06804 -11.2957 26 30 33
0.889143 8.30322 5.59543 41 40 43
-12.4736 -4.37352 10.9047 44 65 74
5.97292 -1.28044 -6.34 57 62 73
-2.47838 14.3245 12.6201 37 39 45
4.24687 -2.92245 10.6558 63 82 88
-9.79397 5.44576 -1.50295 18 19 22
-13.4117 -5.79791 -10.3946 54 77 86
6.47937 5.26533 3.93128 56 33 9
-13.0946 -6.23608 4.58001 45 65 75
-2.57456 13.5621 -1.17461 62 31 36
-2.51733 12.6915 13.6157 21 22 26
-6.07687 11.7565 1.13918 21 23 27
-1.37928 10.1342 13.2943 28 45 53
8.85075 -3.42952 -4.32925 58 61 70
-10.3317 4.49982 6.96957 12 14 17
-9.09478 6.92467 -0.249235 29 29 32
8.55709 -6.4514 -0.431993 39 20 20
1.85234 6.27648 7.0901 32 30 33
-5.44116 12.5325 1.90124 21 23 28
9.97835 3.22783 5.44775 62 50 24
5.1392 1.08811 -7.49586 64 39 9
-9.48452 -5.90727 13.3004 54 73 79
1.01766 8.01934 9.05147 41 43 46
-0.576334 14.3544 5.17154 72 82 88
0.171815 8.66251 -12.5193 44 34 37
3.6566 -3.31585 -12.7652 57 63 69
-12.5845 1.1777 2.73938 10 13 20
1.24491 7.62132 12.3648 39 37 42
-1.54997 12.2879 1.71375 41 25 25
-1.65628 4.95257 -11.7863 51 62 71
-0.382693 -1.1137 -14.5009 69 69 73
4.0189 5.32365 3.73193 62 39 9
-10.594 4.12639 4.86622 15 17 22
-5.04751 -0.0310001 12.7755 45 65 74
1.66354 0.505908 -12.0357 54 69 76
1.25066 7.00061 -10.096 33 24 25
-6.17635 11.8996 -6.39504 25 27 31
7.17303 5.04762 4.42699 69 44 0
0.315536 9.30816 4.60036 34 31 38
-4.77706 -1.0131 12.5786 43 69 77
-4.78225 -9.07579 -15.6605 50 67 75
-1.49189 -10.993 -16.1653 14 12 9
4.98607 3.15203 5.71686 60 34 2
-0.347271 10.3561 1.85135 35 19 27
-2.5981 14.0061 -4.93321 38 22 23
10.7903 -6.46455 -5.59867 35 31 15
-8.6938 -5.85862 -14.3329 58 76 83
-12.8535 -5.28226 1.70102 42 70 78
2.28935 5.51161 12.8537 38 38 37
-5.25193 12.8645 -9.59729 22 20 24
11.2012 -9.29848 -4.96193 44 46 44
8.79701 -6.75135 -2.64507 33 24 26
0.628144 8.02938 -8.11056 31 18 20
-3.70233 14.7363 -6.11456 37 25 25
-12.2079 1.79919 4.63749 18 12 19
11.3213 -8.74117 5.96087 38 51 42
-8.32248 8.07997 12.93 20 20 23
-6.3903 11.3925 -2.77203 25 26 28
-0.466501 10.4048 -5.22869 34 19 21
-2.94738 14.0969 -9.73739 26 11 12
-4.20192 -5.40007 -15.5726 47 61 71
-1.46206 1.08565 -14.8565 63 37 7
-3.81598 3.43943 -12.4101 60 42 25
0.98223 -4.91553 -13.4541 47 56 58
-1.4156 12.0399 -1.73668 36 19 21
-13.32 -5.25539 -8.42042 55 78 86
-7.58548 9.07484 9.04874 15 18 20
-2.69898 0.550842 12.4354 40 64 74
-9.54202 6.4061 1.00304 30 33 37
-1.03619 17.3381 6.95023 44 57 65
-1.95538 0.46837 -15.3817 73 41 5
-2.81856 13.3408 13.7112 17 17 21
3.45875 4.11833 -5.06342 74 42 11
-7.45736 -3.26932 -15.3262 43 65 75
-1.18078 -0.59996 -16.2444 68 44 16
1.49767 -3.64783 -12.2779 52 61 70
5.0065 6.97842 2.26536 56 38 12
-3.58121 0.948083 -14.9122 65 38 7
6.24868 -0.776537 6.22661 42 58 67
-9.37656 6.71416 0.00109482 32 32 37
8.62545 0.117374 -6.36351 56 66 76
-4.28295 14.7027 9.53923 33 40 44
3.15449 -0.141249 -12.6789 61 59 67
-7.84613 -8.76834 -15.73 52 69 77
-2.08828 9.96058 -13.1278 53 63 69
4.15932 4.46245 4.34781 55 29 5
-0.779076 -3.65856 -13.973 60 67 76
4.2282 7.31889 -2.43548 66 42 12
-4.25661 14.6555 -12.496 36 27 31
8.33889 -4.46655 1.71936 33 10 11
9.46064 3.73408 4.29105 62 38 0
8.99594 -3.37035 5.83146 57 68 75
-4.31834 11.2877 12.8725 36 57 65
-4.30205 6.92199 -12.0453 51 60 65
-12.72 1.26538 -3.91144 13 13 16
-2.61379 -8.55824 13.2161 43 64 73
-6.21474 11.552 11.3691 23 26 30
-7.18878 9.97578 8.06066 21 20 23
-3.90344 -9.14581 -15.8272 52 59 64
-8.33097 -7.24506 13.3154 52 71 78
-12.8743 0.602154 -13.0673 44 55 61
1.53068 7.25143 -4.11754 39 28 29
-0.860442 11.0265 4.96887 58 74 82
-5.48821 12.3403 -13.3511 54 59 62
-13.3662 -5.56969 -10.1808 52 77 86
-7.65273 9.03028 13.5713 33 32 33
-12.435 1.47168 5.61045 10 11 17
-2.1288 12.8773 -9.13703 38 26 28
-13.3233 0.840858 -4.39224 19 22 28
9.48554 -6.47188 -4.23947 51 49 58
-2.90198 14.4583 10.2679 38 45 48
2.01647 6.13541 9.06232 37 38 41
-3.67751 -4.79464 -15.4322 51 71 76
-8.44981 0.790413 -14.2483 57 65 66
-8.83431 7.76497 -5.92325 31 31 32
-11.1851 3.43885 6.3408 20 24 27
1.70618 6.93414 12.9993 43 45 46
8.24447 -3.76321 1.04039 35 12 8
-1.41989 11.7359 -8.30888 44 34 35
8.09858 -9.64333 -15.4154 42 44 35
6.19898 1.20753 7.22108 18 20 23
-1.67732 -11.3789 -16.4997 16 11 18
6.76152 -9.06286 13.5284 6 28 17
-2.47254 13.3535 -6.78989 33 14 14
-1.62491 -0.752395 -16.2661 62 47 30
-6.47763 1.7752 -14.2486 61 44 14
7.56166 -8.36808 -15.7402 41 44 37
-2.84235 14.4066 0.79261 31 17 17
-10.2284 5.21096 5.59472 32 37 39
-5.15105 13.4051 -11.0512 30 33 35
0.301905 -6.91605 -15.8827 31 35 23
-1.40212 11.8068 -10.7561 44 33 34
-12.8849 -5.9472 7.96677 51 73 82
-8.04019 2.66991 -13.1654 56 49 36
-12.8281 -3.18382 -3.00997 48 70 79
-11.2973 3.791 -3.99398 29 33 36
6.0789 -5.11913 -10.7228 34 36 24
8.0938 4.19759 5.52173 61 44 18
2.50694 -8.74883 13.3339 9 29 23
11.533 -10.8118 -1.25333 43 35 41
-10.716 -2.49319 12.8606 50 72 81
9.63279 -6.79601 -11.2164 28 14 2
8.63059 4.68229 0.209457 67 35 10
-11.1425 -9.79531 13.9318 54 75 83
7.69186 5.67265 -1.70999 68 35 6
3.95071 2.07517 -8.18572 33 12 15
-12.7768 -4.7684 3.49706 39 63 71
9.35804 3.84254 1.02271 72 35 4
-5.38653 -4.65817 -15.5545 52 69 77
-3.7828 -7.92792 -15.7579 51 64 71
-2.65999 3.81909 -12.0226 50 60 69
11.2034 -7.89437 5.2022 44 48 47
-13.0427 -3.21303 -5.87095 53 74 80
-6.21489 11.5437 9.70753 17 22 25
0.131638 5.38709 12.4156 34 56 65
10.4841 -8.20338 -1.81074 42 28 30
7.60347 -3.15583 -6.20177 56 66 76
-3.24734 -2.591 -15.4269 54 63 74
-2.28997 13.199 1.56682 33 17 17
11.2794 -8.77557 7.41698 17 33 28
9.23371 4.175 0.568884 77 43 3
1.49203 -6.10514 -15.0781 33 39 32
-8.64339 -6.37577 -13.4967 58 74 79
3.40881 -5.34137 12.8993 42 59 65
-9.16882 2.02102 -12.0483 45 61 69
-13.5007 -6.40065 -10.3277 56 79 90
10.161 -7.70077 -11.9936 40 41 33
-13.1859 -7.25211 3.32025 42 63 71
10.1972 -9.73763 12.0607 24 39 28
-0.36445 9.027 -9.74573 34 24 25
6.89471 -10.0928 13.7141 15 30 20
9.6646 -11.1884 -13.5182 33 38 27
10.0888 -5.87027 7.80432 27 43 38
8.95941 -2.65664 2.73908 56 57 62
1.02933 -6.91153 -15.919 29 35 17
-12.0833 2.40162 -1.5899 18 18 21
-13.499 -7.16398 -11.3351 51 73 84
8.31362 -4.25392 1.56565 34 10 8
-13.1522 -8.41232 8.03334 47 70 81
-0.961107 10.7517 13.6182 21 34 39
-7.6128 9.7013 -11.523 32 35 38
-11.5817 2.59766 -3.14028 18 16 21
8.8644 -6.03792 4.36177 56 65 75
-0.460018 10.5453 -5.11029 40 26 27
-6.45556 11.2079 -0.378532 20 21 25
-2.22939 -4.84915 -15.5281 51 70 77
-10.9776 -8.11502 13.5924 54 73 82
2.0777 -6.77522 -15.4188 26 26 16
8.70446 -5.32978 4.08102 57 61 69
1.05266 7.38154 7.16834 28 28 32
-2.66441 13.6669 -6.49093 31 6 7
-13.9112 -10.8893 -1.49605 23 32 36
4.4656 -4.45695 10.2748 34 48 48
-0.876032 11.0256 -2.48209 34 20 21
-6.56 11.2049 -0.968369 25 29 31
-13.4791 -10.8647 8.51038 43 51 55
3.37095 3.12658 -6.32651 46 22 11
4.05619 8.03851 0.752199 61 32 2
4.21597 -4.81686 -11.4027 27 17 5
-13.686 -9.00904 -9.10431 56 79 89
10.9221 -8.21055 -0.353884 44 30 31
10.614 -6.1188 -4.87456 59 54 61
1.04679 7.77822 9.41722 32 32 34
3.8448 5.36117 3.65806 55 34 7
-8.54891 8.41815 -12.6584 31 27 32
7.56194 -8.70889 13.1833 2 15 2
-6.05742 11.5992 9.62596 15 18 21
-4.63945 -7.06319 13.2968 47 69 77
1.35822 6.64851 -6.38703 36 19 20
6.48891 2.32721 -7.06503 73 40 0
-7.13087 -5.10985 -15.6781 51 69 77
8.35497 -4.72885 0.680431 31 8 13
1.72492 6.2074 3.35835 22 22 31
-12.7922 -3.69324 -7.6808 53 74 82
-2.80751 14.8712 5.2016 63 69 77
5.38151 -6.2234 -14.5953 30 22 6
-1.12631 5.20156 -11.8514 47 60 70
-7.48101 -9.94935 -15.7416 54 72 83
-11.1275 3.80646 -1.8264 28 32 36
-3.66515 16.6513 7.37756 43 63 71
-1.70331 15.1154 9.07421 48 66 74
-8.70773 -2.10233 12.8388 50 72 81
11.3709 -11.187 -5.82125 44 57 53
-7.43983 9.31214 11.109 13 11 16
6.91246 1.42991 7.23912 26 36 42
-6.3271 3.09012 -13.0353 63 42 15
-4.54418 14.2017 6.96984 26 34 35
-10.3423 -3.61493 13.22 53 76 83
-13.9103 -11.1532 2.00989 24 39 43
8.90081 -5.91937 -3.74074 55 53 62
-2.08514 -5.67659 12.9389 45 66 76
-4.27838 12.4702 -13.3167 48 58 61
-9.55313 1.44772 12.9641 49 64 71
-2.26904 4.69577 12.2725 37 60 69
8.40596 -6.12577 10.4914 17 32 22
7.1764 -7.67768 13.1166 25 39 30
4.34298 -3.60177 -7.93733 47 48 54
-0.972548 11.4769 10.8715 39 45 47
3.05465 4.13691 5.87265 67 41 6
-11.1049 3.73732 6.36972 25 28 30
1.68417 6.27406 -4.21957 31 11 12
-6.44415 -2.24409 -15.3938 50 66 71
-2.69614 11.5815 12.798 29 54 63
9.04524 -5.95984 4.55485 62 74 80
-13.3968 -8.88981 5.55829 49 72 82
8.70202 -2.02917 -4.05506 54 61 65
-4.92463 10.6577 -12.773 51 58 63
-8.79971 -6.25899 -14.8623 58 75 82
7.6877 -4.49022 6.27373 46 61 64
2.38714 -5.66016 -14.5394 31 32 26
3.05438 3.84617 12.4609 26 20 26
5.15431 0.905651 12.7244 33 37 44
-5.51409 12.459 -4.20699 23 26 29
8.34363 -4.5447 -1.10085 30 12 13
-1.01253 11.641 -1.39561 41 25 27
-8.26022 -5.82523 -15.5445 46 68 74
-12.7591 1.07995 -9.46177 10 10 17
11.5899 -11.2519 -1.85309 40 39 37
10.2037 -9.35694 12.2192 28 43 32
-13.6384 -11.2909 10.3285 26 37 45
-5.6935 2.92527 -13.1081 60 37 9
-12.9204 1.15409 -1.73287 16 11 19
-3.58589 14.7673 -3.44701 41 21 21
-0.282498 1.68174 -12.9154 64 66 75
4.54559 8.873 0.330076 54 37 5
2.60579 -8.07673 -16.3062 27 30 21
-13.4177 -7.10623 -3.42282 57 75 81
1.58608 -0.629217 12.6694 40 59 66
3.77651 2.79207 10.4366 29 24 30
-6.62843 -8.62679 13.6246 48 66 73
-3.47827 14.7777 10.7161 30 28 31
3.7938 7.69247 -2.11369 63 40 14
1.09915 7.99342 11.3345 37 38 44
1.22845 8.24777 0.447174 24 10 24
-4.84279 13.3259 9.95439 21 27 29
-5.61967 12.6933 12.9717 22 27 30
-6.94498 10.9529 -13.0305 44 55 60
4.30984 -4.56169 -6.96274 50 54 62
4.4351 -10.2899 13.3528 24 34 29
9.91853 -7.52586 -2.59941 39 35 35
-7.02283 10.0795 6.04278 19 26 28
1.05009 8.19192 10.8705 42 49 52
11.0125 -9.02538 -7.50985 40 40 34
1.93229 7.31443 -1.93723 60 41 30
-3.2492 6.90866 12.2452 40 63 73
6.13134 -2.2077 -6.33948 57 68 77
-1.99973 13.0809 0.317324 36 22 23
-4.10174 14.616 -9.9488 23 20 33
-4.1826 10.885 12.5411 36 58 72
-2.2808 17.4631 7.966 40 54 61
-3.91514 14.756 -7.40277 40 26 25
3.20428 5.4277 3.00852 21 11 8
5.23197 -5.22823 8.58103 33 53 62
1.30167 6.53871 -8.04961 29 13 17
9.97854 -7.41955 -1.02333 39 24 27
-4.02853 11.2824 12.6412 35 58 72
-2.96203 -2.6532 -15.4181 51 62 70
-13.8525 -9.30033 -10.8199 59 79 85
-0.162177 -7.48128 -16.2879 24 31 20
-9.7368 5.71943 6.8246 26 25 29
6.56117 7.21918 -1.26341 70 42 10
1.81694 5.21959 -12.9936 28 22 25
9.96556 3.44543 2.46289 62 45 14
-13.0355 -3.8992 -9.75652 52 72 80
-9.18707 3.11009 -12.0644 43 58 60
10.8584 -10.2733 -9.16348 42 51 38
-4.91009 13.9241 0.990362 16 18 22
4.95757 1.08585 13.1256 27 29 34
-8.32472 8.2563 12.4063 27 29 32
-0.262115 2.44236 -13.3136 60 60 59
-8.86635 7.11502 0.394205 25 24 28
-5.73379 12.5573 10.5804 27 26 29
-9.14067 -8.61583 13.7781 56 73 78
-0.207809 -3.29985 12.9677 42 61 69
-6.60821 11.1589 -1.55535 23 27 29
-9.87175 6.1653 -9.49916 31 33 37
5.57003 7.04866 -2.69506 73 36 0
3.62921 -10.0736 13.4116 29 45 31
-2.29745 -2.45678 12.9283 43 64 70
9.23777 4.17917 0.81546 72 38 1
4.54095 -4.46095 -9.60477 34 27 19
-7.04549 9.95502 9.27795 11 12 17
-14.1758 -10.6194 -10.7872 28 39 42
-12.3701 -10.7345 13.478 46 64 69
1.18293 2.13246 12.5768 37 55 64
2.03871 8.96694 -0.57832 51 40 15
10.6559 -9.98378 -11.2153 35 40 24
9.62661 -7.56697 -12.4977 47 57 59
8.75303 -7.63378 -13.9575 37 42 37
-13.2063 -10.9143 10.4969 36 45 52
11.112 -11.95 -9.72447 26 8 8
2.37025 -2.5801 12.8051 36 56 67
9.65068 -6.5255 -9.92485 25 18 10
-9.49655 6.34292 3.65965 24 23 26
1.74714 -1.46175 -12.428 58 64 74
9.08716 -6.67011 4.02676 54 64 69
-4.476 4.45798 -11.9204 46 62 71
-7.27387 8.83264 13.8573 38 46 53
-12.3156 1.52103 2.9867 13 16 23
-1.37955 6.40364 12.3938 42 54 62
3.0449 3.91975 5.77828 72 43 3
2.31931 5.69418 3.84201 23 29 25
9.25986 -7.24473 -0.933926 35 10 14
0.990538 8.24168 10.3977 45 50 51
8.42559 -5.52014 0.0447845 33 6 8
-13.1817 -7.53989 6.60454 50 70 79
-12.1024 2.37118 5.84702 23 30 33
-1.18154 17.4068 6.23697 45 52 54
-9.00777 -4.14908 -12.1989 51 71 80
3.613 7.13258 1.72068 71 40 3
-4.53143 14.3951 2.59817 16 18 21
-2.80251 -0.960877 -16.12 57 51 45
-7.4552 9.45518 12.4836 22 26 28
10.9521 -10.1813 -8.76792 37 43 36
9.66474 -7.26297 1.80786 45 24 25
-13.0099 -4.49067 -1.56704 49 69 77
1.61213 -6.75359 -15.4384 27 35 30
-1.39511 17.4649 6.63792 48 52 56
-3.61387 2.32035 -13.7106 57 44 13
-1.78042 -3.55353 12.8756 39 63 74
-10.4099 0.428955 13.1022 49 66 72
-10.3614 -4.04992 13.3041 55 75 81
-3.91039 14.7946 12.601 21 26 30
11.1938 -9.11806 -4.98558 42 45 39
0.751685 -4.6846 -12.2161 51 62 71
0.188134 -2.59793 12.8243 40 60 67
-4.84007 13.4198 6.94819 27 29 33
3.1075 8.62627 0.296099 51 37 15
-3.64545 -5.4363 -15.4652 54 71 83
5.60884 5.8538 -3.86992 62 35 6
-5.07023 13.5769 -2.80313 28 26 30
0.0708694 9.51801 9.56495 34 43 47
-8.77327 7.27528 0.237387 17 19 21
9.89507 -6.46459 -9.23719 30 26 7
-4.9198 13.1237 0.36686 16 19 21
-6.39154 -10.5362 -15.9692 40 49 55
-4.28949 6.1549 -11.8736 52 61 69
10.5286 -6.1283 -6.6419 40 40 28
5.47112 -1.08638 -6.35478 58 63 72
-2.59533 13.1712 -10.1215 26 9 10
-0.383888 -1.44531 -14.5676 63 64 69
-8.17043 -1.56936 -14.717 59 71 78
-0.726933 -0.746686 -13.4834 60 69 72
0.213125 -11.7625 13.7347 30 35 39
1.67796 -8.60397 13.2787 36 56 63
0.284931 9.13485 4.27156 35 25 32
-2.30111 4.6438 -11.7715 52 63 74
11.4268 -9.54648 -1.08803 44 39 39
4.2149 6.93608 1.9712 53 33 8
-13.3959 -5.54433 -11.1365 55 74 81
-6.97884 10.0683 4.64698 19 22 25
-0.16473 -10.258 13.4733 39 60 68
8.70587 -10.1543 13.412 28 39 30
-1.47779 12.338 11.1774 36 34 39
0.452717 10.7484 5.26724 59 65 70
8.81806 -1.3968 -3.81142 58 59 62
-2.18129 13.1328 1.05644 31 19 19
4.32955 -4.40141 9.60913 38 37 36
5.129 7.47107 1.55965 57 48 45
11.2727 -8.78637 5.00576 38 47 35
3.15213 7.57559 -2.00627 61 38 11
11.325 -10.6965 -3.79726 41 48 38
-12.1292 -2.0179 12.4604 44 67 76
-1.80218 -4.07673 -15.6648 48 62 71
-13.5943 -8.44154 -7.49047 54 77 87
3.6883 3.50703 -5.37655 79 42 4
6.07707 1.87803 6.67154 35 23 21
0.345741 15.5356 7.83804 59 76 81
-7.78674 -0.0111656 12.8236 51 70 79
-11.5145 2.77509 11.1398 15 17 21
-13.9438 -10.6656 -3.604 35 44 49
-8.55637 8.05968 -7.60664 27 29 35
2.41129 -4.85296 -13.5726 29 38 34
2.98447 4.65281 12.8217 36 35 42
2.77262 5.40633 3.07759 22 13 20
0.193374 -5.65231 -14.8523 38 44 41
-0.271502 -3.47326 12.9607 42 61 70
0.373358 9.5481 4.91885 40 39 43
6.03433 7.85778 -1.77911 71 40 3
4.61413 -4.64075 -8.89509 31 31 29
2.4861 -9.94044 -17.0769 30 41 32
0.238844 8.01877 -12.1572 32 29 33
-3.51608 10.4143 12.2347 38 62 73
-2.90094 -11.2321 -16.1022 18 27 27
-13.276 -11.1414 11.5355 29 38 42
8.75447 -5.65004 -2.4991 31 12 13
-12.8034 -4.84881 2.25804 45 67 75
-7.75215 9.26858 4.13376 19 21 24
3.77683 2.41426 -10.9811 31 19 19
6.64271 -5.0964 -11.9128 31 28 18
0.350999 -6.10695 -15.0915 34 41 31
-0.588474 14.8148 5.17274 73 80 86
-0.840187 10.9973 13.5902 33 36 38
4.68019 0.882515 -13.3181 54 42 43
2.7736 1.21209 13.141 35 53 61
-8.92881 6.53211 13.9716 40 46 47
-7.09871 -10.2138 -15.8465 50 66 73
-6.54501 10.8495 13.594 33 37 40
10.6199 -6.86709 9.29009 23 42 29
10.2341 -7.20068 -10.7942 30 36 23
-8.89021 -6.82394 -15.0653 57 75 82
-13.0588 -4.88668 -5.04102 52 74 83
3.89772 3.61547 -5.23942 81 43 1
1.78887 6.37348 6.53407 28 26 29
9.17689 -5.99325 -9.57054 29 26 13
-8.95425 -0.425854 -12.0833 45 57 67
-8.62136 0.918015 -11.895 47 68 78
6.11212 -4.38898 6.41403 47 68 76
9.98487 3.35255 -1.37208 70 41 5
-5.66383 -2.22027 12.6203 47 71 80
-7.68405 -6.51603 -15.5188 46 69 80
-5.53622 12.4894 -5.71015 27 30 34
-11.1545 3.14272 13.3104 14 16 21
-12.7228 1.78064 -12.015 21 19 23
3.31415 -6.74469 13.1687 35 52 50
9.15282 -5.97058 -7.74331 26 27 16
-10.9768 3.93167 7.52155 28 28 32
-4.16417 9.65682 12.2689 40 59 66
-7.96461 -3.01107 -15.4174 44 66 71
-13.1925 -4.97748 -3.96967 54 73 81
-12.0477 2.41707 10.8236 25 23 28
8.83929 -4.32468 2.46384 47 38 41
3.39737 -11.9082 13.594 26 30 28
10.5517 -8.57041 -11.2861 32 30 19
-12.7761 -6.33437 10.107 49 70 78
-10.2757 -8.7856 13.5117 55 74 82
8.91795 -3.33107 -3.42237 55 60 65
0.051796 -8.11108 13.4683 38 63 73
-2.71777 -0.400866 12.5892 43 64 73
5.52956 2.2093 -6.98358 83 48 22
-8.62963 -6.21473 -13.5946 58 74 78
2.57751 2.21744 13.4671 36 51 57
-3.19604 14.1658 13.763 18 19 21
-1.987 12.624 -6.15062 37 18 17
-5.25482 12.7011 3.80231 19 20 24
-11.1275 -11.1781 -12.83 21 37 42
10.6015 -7.54131 -3.583 36 30 34
-0.44638 10.216 -5.42327 35 19 22
-4.0821 2.07291 -13.9146 59 40 14
-11.643 2.55564 -3.57428 12 13 17
4.09891 -4.82806 -12.1569 33 22 9
7.92657 -5.01421 -7.60842 33 48 44
-3.66031 -2.59164 13.0606 47 66 76
0.384874 14.5909 7.00424 56 75 81
-9.58417 5.8803 3.71653 17 16 19
8.26434 -3.67482 -1.33818 34 12 11
-0.0612111 -11.2619 -16.9913 15 9 8
1.44149 -4.87962 -13.6344 33 47 42
3.94797 6.76565 -2.54028 77 38 1
7.16552 6.43413 1.06968 60 35 9
9.60504 3.60262 -6.22668 81 41 0
-12.8906 1.20669 5.27159 12 11 18
-3.82276 1.06785 -14.8893 66 38 7
-0.0761375 0.166943 -15.3818 66 50 26
4.419 -4.6705 -7.60565 46 51 56
8.64232 4.74181 1.44411 69 33 0
4.37165 -4.81927 9.28901 46 56 64
-6.88352 10.8526 -1.84103 31 32 35
-2.6391 1.33073 -14.4946 66 45 13
10.223 -7.13441 -4.13555 43 34 41
4.22878 8.47044 -1.45426 64 42 8
-2.18899 -9.17909 -15.8643 45 55 55
-11.4412 3.11899 -1.61445 10 12 17
-11.8401 2.64698 9.27992 22 22 26
9.73213 -6.21425 -8.45416 34 29 18
-6.4441 11.2443 -13.3033 52 54 60
-2.9178 14.4319 -2.60574 31 11 9
-2.64863 17.4717 7.69093 41 54 61
-12.6282 -4.98357 11.3314 46 68 75
-10.1526 5.1819 -3.1141 14 13 19
5.9491 4.74117 4.52155 65 38 6
6.35784 7.44029 -0.116526 65 35 3
-9.69003 -9.51229 -12.6571 53 73 82
-1.93918 12.4013 -13.0795 37 23 23
-1.37222 6.8351 12.3057 37 57 69
1.39112 -1.17183 -12.0418 54 72 79
-11.3834 3.25845 1.66788 22 25 28
-7.58163 7.73599 -13.1311 50 55 62
-1.17351 10.9478 -10.8148 35 22 23
-4.51302 14.4375 0.704125 15 16 20
7.63849 4.32787 5.10925 49 33 5
-1.44174 17.4545 7.1111 53 56 61
10.7451 -7.06428 9.28707 33 50 39
8.76471 -10.5712 13.4261 30 42 35
-13.0494 0.912216 11.0175 23 24 29
-6.15414 11.9707 -7.08583 30 26 31
-4.76985 14.1337 2.16268 15 14 20
-5.79414 0.963802 12.5494 46 66 75
-0.179796 10.1253 4.11721 39 27 26
-8.64334 -6.27838 -13.2437 55 73 79
-0.467922 -0.191209 -12.4406 53 61 66
8.06418 -5.12593 -6.63115 45 51 57
-12.2243 -4.22899 -12.1952 48 73 84
-1.30212 15.6666 5.21656 67 79 86
-3.46846 14.7076 -5.97386 44 19 21
-1.67464 11.74 -13.4239 54 52 56
-13.1577 -8.43486 8.30648 48 72 82
-5.71278 0.504822 -15.259 70 43 8
10.2131 -6.51538 7.14454 27 46 38
4.58648 6.65136 2.48832 64 41 9
6.41036 -6.4744 -15.1879 36 41 31
-7.33478 -11.0797 14.3318 49 59 66
-10.742 -8.11266 -12.3913 50 72 80
-6.935 10.2893 -9.18614 33 33 34
8.13345 -0.32844 6.24436 48 60 66
-5.02871 13.5389 -3.25553 31 35 37
-0.36051 -5.28396 -14.5348 50 59 60
-0.226956 3.70108 -12.2339 52 62 67
5.67414 -5.23745 -12.3843 30 24 12
4.95797 -4.98248 -6.82573 53 54 61
6.04626 3.80833 -5.79438 66 38 4
3.97374 -3.50662 -12.2528 54 54 55
-13.0446 -5.72615 4.58737 46 65 75
-2.08462 6.81093 12.3294 39 59 68
