ply
format ascii 1.0
comment Created by Open3D
element vertex 1393
property double x
property double y
property double z
property uchar red
property uchar green
property uchar blue
end_header
1.45686 1.06861 12.5877 35 57 66
-6.88961 10.5979 1.34083 24 27 28
0.0591469 9.75218 11.6862 31 32 38
9.34101 -5.99504 -9.36031 28 25 10
7.7007 -6.46502 11.8733 10 37 30
1.36115 -3.41671 12.9747 44 58 60
-0.448422 -0.40368 -16.0843 64 40 10
5.82592 1.7095 -7.31617 78 45 2
2.45839 0.968319 -12.499 54 63 65
-8.76068 0.822657 12.7819 51 66 73
-10.7277 4.07365 9.17178 18 25 30
-4.55301 5.14283 12.2804 42 64 73
-12.5985 1.99912 -9.68039 27 29 32
-5.1355 12.6426 2.18764 21 25 29
0.723301 -11.515 13.601 44 52 63
-2.13313 13.4851 13.1652 24 24 32
-1.32058 11.135 -6.64916 31 17 18
0.900537 8.43641 11.1639 38 44 51
-3.80764 14.7297 -5.41432 22 19 19
-0.653101 1.29656 -14.6817 67 42 9
-0.829071 4.23793 -12.0715 55 63 66
-1.49634 11.886 9.42224 43 58 68
2.9813 -6.58624 13.17 43 61 65
-2.82156 10.1962 -12.3281 52 63 70
0.521882 6.33825 -13.3991 52 59 66
-4.08974 14.7415 3.37561 30 31 34
-7.86435 8.86964 4.48606 28 28 32
-12.722 -7.40614 11.8012 45 68 77
-9.86903 6.10458 -6.03108 27 26 30
7.25328 6.32356 3.07429 51 46 31
-4.36195 1.00586 12.7011 45 61 70
4.82183 6.97089 2.21411 55 37 11
-0.255102 10.4518 -0.522928 42 25 29
-0.206055 7.03158 -13.0671 52 57 64
-7.28245 -5.64769 13.0717 50 71 80
-13.0736 1.04264 -3.90491 12 13 19
-3.2054 -10.1679 13.7226 46 65 75
2.28974 -11.7176 13.6628 36 44 43
-13.715 -9.12556 -10.9791 55 75 82
-0.989619 7.28738 12.3501 34 58 67
-2.54831 5.15956 -11.8693 46 64 72
8.43654 3.75169 -6.04237 72 40 8
-4.63418 -1.69923 -15.4202 52 64 71
5.07284 0.901348 9.26899 24 25 31
5.94802 0.300765 -7.07244 50 50 56
0.671618 5.27701 -12.8616 51 60 67
9.73263 -5.67821 5.51994 43 50 48
-12.8375 -5.03199 3.97444 43 63 71
1.70961 6.79801 7.24227 42 42 43
5.16589 -5.04903 -9.86165 28 21 10
-11.3713 3.44237 -0.984163 34 31 35
5.55006 3.35598 5.68047 63 36 5
8.97327 -5.15086 7.05011 35 50 48
-0.329895 -1.64631 -15.2115 55 57 62
-0.659921 -3.36892 -12.8074 54 63 73
-3.28937 17.2542 8.57395 42 61 70
5.91342 -6.90705 -15.4651 26 27 16
-0.884131 11.4868 12.1758 36 39 41
-4.62449 8.38115 12.0301 37 62 63
-7.59524 -4.00711 13.0227 50 72 80
9.42675 -5.83935 -6.56441 34 28 11
7.08074 -1.87537 -6.12418 58 67 79
2.3339 5.73991 9.60648 42 41 43
-6.59072 11.164 -1.74393 24 27 30
-8.52722 8.16253 2.02297 32 35 37
-1.008 11.742 -3.02604 38 25 26
9.92525 3.51163 0.489095 68 41 1
5.61058 2.29934 -6.87947 85 50 20
-10.1971 5.26126 9.1764 24 29 37
-13.1763 0.913036 -7.02146 10 12 18
10.8356 -11.6866 -10.6684 27 16 14
8.58563 4.68079 2.89973 63 42 28
-0.853543 10.8899 4.7936 44 50 57
2.88608 -9.37411 13.4499 16 33 22
8.36543 -5.41484 -8.87638 26 23 13
0.394349 9.39236 7.27413 53 55 55
-6.78687 10.2691 10.6381 17 22 26
-2.11753 -10.4713 13.6045 46 62 70
1.27601 -4.87612 12.8742 43 67 79
2.20639 -7.12771 13.2379 42 62 67
0.720117 4.8836 -12.6745 52 65 75
3.11037 -2.75479 -12.6774 57 64 72
-12.0511 2.44592 6.58232 27 30 35
-4.92013 -6.41709 13.4401 47 68 77
8.33596 -5.4928 -9.00124 25 19 9
-10.6825 -2.88968 12.895 52 73 84
-10.7745 4.09477 5.20885 26 27 29
-1.28233 3.42964 -12.386 53 60 68
2.57412 -4.29022 -12.4989 27 24 10
-2.68791 17.3102 5.48282 57 57 58
0.104285 9.75506 12.362 29 33 35
-9.88419 6.02813 -11.3131 26 29 31
-8.52942 8.06409 -7.53739 27 28 35
-1.66195 -1.78686 -15.5521 60 65 71
-2.66791 13.5003 -11.9617 30 9 9
-13.3544 0.846428 -4.33092 21 24 29
-7.12886 1.19562 12.7973 47 65 73
-6.28714 4.46854 -12.0278 53 61 71
-1.57112 12.0851 0.842276 37 23 26
-0.860362 -5.28664 -15.1513 51 58 64
-0.19084 10.4543 1.19596 42 27 32
0.339651 -7.34776 13.4021 38 61 69
5.16073 -7.57699 12.6828 16 30 22
-5.23989 13.1982 -12.9417 33 29 36
-12.2128 2.31404 -6.03992 24 24 28
-7.88778 9.10694 -11.1444 22 24 26
7.49462 -8.0961 -15.4717 43 49 43
5.69503 7.91605 -2.05668 63 39 2
-13.312 -7.97307 2.18722 45 65 73
-2.07029 -7.03076 13.3126 46 64 70
-8.02157 -10.641 -15.8186 31 36 39
-6.06651 11.285 2.80211 16 13 19
-9.18983 6.79012 -1.83265 14 16 22
-4.30914 14.1965 13.7557 33 35 38
-13.0585 -5.00214 -12.0964 54 71 74
2.31845 0.58636 -12.4055 60 61 71
7.43404 -0.459579 -6.24576 57 69 83
1.74305 5.36633 -12.1271 32 22 24
2.25974 -0.389234 -12.3673 59 61 71
-10.0375 5.40713 -11.112 27 26 31
-2.86988 14.5298 4.03506 49 47 55
2.85717 -3.40766 13.0485 46 58 64
-2.08987 6.52141 12.3829 39 61 69
-0.335883 9.40393 -10.1803 39 28 30
0.534808 -1.00742 -12.26 54 61 71
1.92708 -3.69468 -12.1971 49 60 67
-10.3078 5.28368 -5.72982 28 33 37
0.897719 7.29169 -12.9876 39 39 42
0.490114 10.5047 5.64615 64 62 65
4.33264 1.88655 6.38537 11 10 18
0.372695 12.7977 6.042 58 75 83
-12.8265 -3.80002 -8.21227 52 73 81
2.63246 7.42253 0.989481 26 14 7
-8.54123 -2.97572 13.1479 52 71 79
-7.15133 9.89427 2.90282 25 28 30
9.87574 -7.25648 1.01076 34 19 21
9.14836 -5.8028 8.05893 2 15 9
-13.6807 -7.87064 -10.5742 58 79 87
1.1013 7.53254 10.6434 34 36 37
-4.839 13.3197 9.64389 20 24 27
9.85213 3.59381 0.012074 63 42 5
8.85315 -6.47329 10.5096 5 19 12
-3.80675 -2.8087 -15.4431 52 68 73
0.343197 15.665 6.41148 60 75 81
-1.29119 11.4059 -12.1566 42 26 26
-1.78953 17.4943 7.35486 52 60 57
10.8107 -11.718 -11.0407 30 19 18
-4.67502 6.30183 -11.7858 50 68 75
8.36081 5.13644 -2.61648 72 39 1
-10.5171 -4.69604 13.3434 55 73 81
-5.87085 7.37854 -11.9175 44 61 69
11.2137 -8.14303 3.05258 39 31 32
-4.60882 -2.67724 -15.2994 48 69 73
-8.69086 -5.89369 -12.8642 55 74 83
-5.87436 10.0059 -13.079 52 59 63
-0.534389 -4.09066 12.8065 43 64 73
-11.5527 3.54443 -8.19045 31 35 36
6.08348 -11.3525 13.7915 22 36 27
9.47519 -6.57164 -10.1395 18 7 0
6.12889 5.16608 3.91088 56 34 9
0.72593 7.31491 -13.3015 37 39 44
-9.16096 -10.0361 -13.4331 51 68 72
10.0277 3.25258 4.4443 67 43 8
6.43042 -10.0101 13.6601 2 22 7
-1.35709 -10.956 -16.2266 14 13 12
8.15517 5.38462 -2.54731 64 37 1
-0.771205 10.1839 -9.04127 32 17 17
-0.191341 9.93326 -3.39332 35 20 22
-6.42711 5.90835 12.4786 46 60 67
-3.17233 14.3696 -10.5274 27 12 11
-8.54354 0.811344 -14.5299 56 67 67
-3.73326 16.8269 8.71459 46 63 69
-8.81734 7.32668 10.397 23 24 29
-0.883119 11.0188 4.78586 45 53 59
-8.54982 0.866379 -14.8416 54 70 67
6.30302 0.289251 -6.81527 50 53 62
-0.267855 10.6627 0.264757 47 34 35
-8.21929 -2.10555 -14.5577 57 74 80
-1.54505 3.39276 -12.4037 54 62 68
11.1321 -8.12626 6.80331 12 29 24
3.25778 -7.23721 13.3133 17 37 24
10.7841 -7.43193 7.18758 17 34 30
-3.5635 2.85207 12.5238 39 62 72
6.56706 -5.58044 -12.6111 19 15 5
-1.99522 12.4944 -5.85612 35 17 20
4.20895 7.13889 1.74482 60 36 4
-2.94525 -9.67346 13.672 45 66 76
-11.2721 -11.1987 -12.8562 23 37 43
-0.170039 10.0344 10.9178 39 39 42
-9.2612 6.27303 11.4018 9 13 18
3.46023 2.77689 -12.5076 34 17 18
0.428133 9.25243 10.0569 41 48 49
4.10468 -3.98842 -11.297 34 27 20
-5.51937 12.4859 -4.73178 22 26 27
-4.22321 -8.42506 13.3177 46 67 75
8.03169 -6.63311 11.9584 9 35 22
10.1465 -6.68251 10.9035 12 30 20
-8.46179 8.06346 9.84338 26 28 31
5.0009 2.39086 -6.74075 73 42 4
3.55992 5.81063 -3.30628 79 44 7
0.822935 -4.96073 -12.8737 26 38 46
-4.67287 14.3451 -6.44925 20 20 22
-3.70234 14.7961 12.6469 19 20 25
2.15782 3.06544 -13.3162 54 59 66
-1.79416 12.8474 2.45042 45 30 34
-2.17352 12.8618 -13.1927 44 38 37
-2.89039 12.4554 13.3004 27 48 58
4.06692 1.73866 -13.6527 45 40 37
1.51938 4.91099 -13.4989 54 58 67
-1.19141 8.1951 -12.8106 54 59 70
0.641839 4.3692 12.4708 40 58 66
-0.773027 7.11758 -12.511 53 62 69
-2.49666 14.0336 -0.785778 37 17 16
-2.97186 14.4724 10.4725 32 37 39
0.160201 9.75689 12.8016 28 33 36
2.52604 4.69025 -9.36736 36 23 26
-0.447016 7.54387 -13.1989 55 58 63
-9.23249 6.84095 8.93512 22 29 35
-5.86226 11.8448 -13.3374 53 58 58
-10.5105 5.3005 -12.7148 30 38 38
-3.54014 -6.61049 13.4549 47 66 75
-3.56936 6.09316 12.2217 37 62 74
7.11798 1.49819 7.23051 30 40 47
-4.58898 2.45035 -13.6124 59 39 5
-0.591325 13.8245 5.1217 65 77 83
7.8691 -5.29838 -12.2934 39 31 16
-5.25196 12.704 -5.8894 19 19 25
-0.189819 9.30154 -12.8647 37 25 24
0.0736961 7.65125 -13.4164 49 55 63
-3.22868 8.36719 -12.0611 57 60 65
-6.19177 9.68401 -13.1068 53 58 64
-5.00554 13.3155 -3.34117 22 29 30
2.21234 1.67326 -12.5234 52 62 66
-1.68771 12.8841 0.148005 40 26 25
-11.8924 2.49131 1.38571 18 20 26
10.604 -8.16432 -0.197336 47 28 31
-9.58825 5.79634 6.75519 22 18 23
-3.80625 14.6571 -8.52234 40 19 18
-1.29168 9.9609 13.2649 23 43 48
10.1813 -6.24676 -7.62476 37 36 26
-12.943 -4.60634 -0.324562 44 69 81
0.955394 -1.04869 12.6493 34 56 64
5.82577 0.582466 -7.53707 53 48 51
-10.7181 4.77452 -8.50034 29 31 34
-2.57951 13.4066 -6.69914 32 11 12
7.27903 6.40068 0.197989 63 42 19
-11.2551 3.66197 5.02004 24 28 29
-0.52725 -7.60914 -15.9463 21 31 21
-5.9077 12.361 -4.18903 28 32 35
10.8381 -7.4779 -4.0401 35 29 33
3.63671 2.43338 -11.8056 31 19 20
-7.90707 9.10131 -3.06085 20 19 22
0.332986 -11.439 13.6502 40 52 57
0.636149 3.03255 12.3893 35 55 66
-9.93598 -9.29866 13.8298 48 69 78
-8.55762 -1.75903 12.7627 49 70 79
-8.75811 7.59062 -11.0371 21 23 29
-7.74802 8.79571 12.1213 20 22 27
-12.745 -4.92594 4.35677 41 65 75
-1.17431 11.8352 2.51409 39 26 29
1.31784 6.39637 -6.84799 38 22 23
3.71851 -1.18453 12.9917 42 63 65
-5.57941 12.6093 -7.07894 24 26 30
-5.95759 12.3457 -8.72125 29 33 39
-8.73521 7.84111 -8.74563 35 35 38
7.16145 1.62046 7.11121 32 36 43
3.29989 3.35086 -11.8025 37 33 34
0.180018 10.2187 8.79243 53 70 75
-8.65427 -10.1776 13.9252 52 69 77
-4.57 2.37017 -13.7225 60 39 2
-13.0648 -6.49588 -12.3787 57 72 78
2.47777 8.7158 -0.0175381 60 36 0
-11.3804 2.54094 13.9061 51 56 62
-0.748201 10.0569 -8.47141 35 21 19
-0.740183 9.98234 -9.71428 33 13 18
-0.381998 10.7818 0.0180016 45 32 36
-1.74766 -3.23076 -15.5602 51 66 73
-8.35119 -2.42165 -15.0159 58 72 80
-11.5414 2.99375 -10.989 25 25 28
-7.80592 -7.55091 -15.7911 52 70 77
-5.51598 -8.48936 13.3134 47 66 74
-4.84801 13.3938 5.87095 34 33 41
-11.5281 2.8382 12.5318 15 17 22
-0.831501 10.9568 2.36764 41 25 28
-4.29915 13.4091 13.7575 37 48 55
5.36086 -4.42927 -6.56495 53 63 73
-3.47605 17.1642 8.5865 44 62 70
-8.61971 8.00345 1.85417 32 35 38
1.5784 -4.83562 -12.7559 37 46 45
-0.3127 5.21415 -12.0301 49 60 71
-8.71427 6.23279 14.0423 23 30 36
-9.13724 6.63046 12.1098 26 25 29
9.84678 -6.92514 4.22346 64 80 91
-8.89092 7.40673 -13.1481 43 44 48
-10.2085 5.14422 -10.7618 21 19 26
-10.3548 -6.61703 13.171 51 75 84
-12.6246 1.16361 9.89292 5 8 13
8.26604 3.83392 -5.84535 78 46 9
-13.5689 -7.92755 -5.62042 60 77 85
0.868343 7.72971 -7.99456 37 23 23
-9.73086 -11.4477 -13.2838 30 42 48
9.89161 -7.0693 -11.8404 31 31 8
6.09626 -8.2702 -16.3191 31 32 22
-0.0591297 9.84311 0.513371 40 20 19
-8.64913 8.13419 -2.996 29 29 32
10.6498 -7.92731 8.02815 4 26 21
-3.05249 -1.87242 -15.4637 54 63 69
-9.81756 5.57713 5.17681 25 27 30
-4.06331 13.4356 13.7408 38 50 58
0.236192 10.3646 7.60139 53 72 78
-0.979225 16.0323 9.18136 49 66 72
5.54269 -5.13708 -9.68517 17 21 11
-6.7855 10.9669 0.243073 31 35 39
-9.09115 7.04499 -7.7416 23 23 25
3.47592 -6.56374 -15.2571 31 29 13
9.22105 -6.54473 10.4094 8 23 14
-9.50593 0.179724 12.8182 50 65 72
-2.07278 12.1953 13.6417 19 21 28
10.4875 -5.72971 -5.49518 54 52 50
8.06871 -5.84729 9.56376 11 27 20
-8.20426 2.45683 -13.0469 48 55 50
0.415579 8.66602 -6.49249 40 28 31
8.84249 -6.05783 -10.3344 34 29 8
-4.85761 13.9609 5.63611 26 25 31
2.29371 4.92177 -11.1078 35 23 24
7.462 2.48743 -7.08633 71 38 7
-9.86649 -2.54585 12.9403 51 70 77
-2.71477 8.50196 -12.1358 55 61 62
5.69589 5.94801 -3.77548 66 35 8
4.16365 -4.38377 -8.71256 48 56 64
4.59388 8.8673 -1.21602 69 36 1
-10.4231 -9.11317 13.7563 51 71 78
5.4611 -10.812 13.7275 12 26 11
-7.61801 9.62762 2.8234 29 32 35
-10.6949 4.88939 -7.75416 34 36 39
1.38236 7.38652 -4.36836 37 26 26
11.2173 -8.39391 6.17913 24 37 33
1.91433 5.66954 -9.04084 32 20 21
9.17275 4.38556 3.60469 61 41 18
4.90821 1.00029 8.75175 20 17 24
-12.5359 2.09818 -8.5644 26 29 33
5.15726 8.90367 -0.633001 66 39 3
-4.58529 14.3618 1.09947 12 12 15
9.02515 3.31285 -6.74557 78 44 11
0.48545 8.80504 8.35962 41 40 40
-13.5036 -9.87624 2.44846 42 62 71
10.9729 -8.36184 -6.49961 46 47 32
-6.23593 11.9924 -12.1895 37 39 39
6.14504 -7.61275 -15.9304 27 33 25
0.362303 9.5955 13.2886 41 45 48
-5.58062 12.571 -7.788 22 23 28
0.821759 7.42649 -10.0603 34 20 23
-8.96257 7.00828 -1.08923 26 28 29
3.09714 5.63049 -3.41286 85 51 10
-0.874657 10.9303 4.1444 29 19 20
-7.14942 9.80688 -1.00711 21 25 27
-3.80374 11.9908 -13.0755 48 59 66
5.59853 0.483139 -7.51654 54 49 59
10.677 -6.5535 -6.74591 35 39 23
-3.82275 -10.8638 13.8233 46 60 70
-8.27397 2.30463 -13.0068 45 59 61
10.4824 -7.51562 -10.3531 28 22 2
0.305779 11.21 6.24045 58 72 83
-11.7721 -6.13002 -12.423 50 69 78
-4.82041 13.5782 -0.527449 21 26 30
-2.43064 17.5038 7.25704 41 54 62
-1.00028 11.7688 2.99762 44 32 37
6.40162 -0.78932 -6.40351 58 60 64
-2.84398 -10.9489 13.7412 42 56 63
-9.33223 -10.609 -13.4705 35 44 49
3.11366 2.02385 13.7057 36 51 58
8.07539 -5.61288 -13.3305 44 37 25
-8.86472 7.22707 7.31907 20 22 26
2.59616 -9.06591 13.412 24 43 37
-10.7898 4.24735 -13.0793 42 47 51
-0.13676 10.1241 12.2597 41 47 43
-5.92794 11.6428 4.17781 26 28 28
-3.75395 4.00966 -11.9384 45 60 70
-7.24401 10.0199 11.0581 25 26 31
1.75403 6.70681 13.2062 38 41 41
-4.47568 4.31604 -11.936 46 63 74
-0.249886 9.04935 -10.836 36 23 25
-3.65449 16.5299 7.10486 44 63 75
-0.263135 9.69422 -8.19784 42 33 33
-0.73839 -10.5209 -16.6009 28 37 19
-1.51372 12.6417 5.0911 61 69 78
6.69614 -6.11615 -13.5798 30 26 11
1.26634 1.35154 -12.0295 55 64 77
0.768206 8.37901 1.75411 29 24 28
-7.87434 8.97498 -2.99023 21 21 22
0.265527 9.49223 2.15978 44 27 28
-8.48125 -5.23435 -13.1485 57 73 77
-9.65691 5.74646 11.1559 20 25 27
-1.13138 11.8754 1.03861 42 31 34
2.22477 5.7995 3.71565 25 27 21
-9.97989 5.47612 4.18958 26 28 32
-3.5029 14.5325 -10.5586 25 17 18
0.103043 8.97689 -5.81935 33 19 22
-5.5844 12.148 11.9613 13 18 21
-12.744 -3.31596 -7.78969 50 74 82
-0.944474 11.7031 2.78995 42 31 35
-6.70838 11.1517 -11.0356 30 31 33
0.307192 8.84545 12.068 37 37 40
0.877949 7.61514 -8.3198 41 28 30
-3.46795 3.0572 12.4089 38 62 72
-3.58799 -0.269258 -16.0191 60 37 0
-8.51535 -5.32301 -13.0585 56 73 76
10.8194 -7.334 -6.62115 48 47 41
-6.20821 7.12118 -11.9761 45 60 69
-13.1504 -5.18613 -6.81814 54 76 85
-1.00971 -10.8588 -16.5346 23 20 8
-1.12412 -1.1531 -16.0895 53 49 52
7.15382 5.15742 -4.65599 69 38 16
2.14897 -0.317869 -12.3351 58 61 73
-1.83708 14.484 9.14303 45 62 67
0.771827 -6.5353 12.9589 40 64 73
6.41463 -5.18842 8.50852 59 74 83
-7.99332 -6.35203 13.3947 54 71 77
-10.5827 4.58167 -13.1545 53 56 62
-2.40003 2.24976 -13.6451 59 44 24
6.63638 1.3105 7.29708 24 30 35
8.58411 1.71009 7.29024 50 42 20
-6.87098 11.0589 -4.87391 29 29 31
3.01811 1.30763 -13.2467 56 60 66
-8.53977 1.90899 -13.4424 47 63 70
9.73762 -6.79325 -11.9876 35 35 21
-6.07772 12.0536 -4.02147 24 24 28
2.76044 4.42302 -6.61392 39 24 27
-4.56814 -9.82254 13.7055 55 70 80
-3.94287 -11.0935 13.8478 45 54 61
-8.49663 3.77422 -12.0634 51 64 73
-5.2781 6.93288 -11.8075 43 62 74
2.44605 -5.86264 12.8817 38 58 68
11.0933 -8.2273 8.66973 28 45 35
-10.8883 4.02456 -10.3611 16 17 21
-11.2454 -6.3201 -12.2923 49 72 81
-12.6345 1.22205 -7.68264 16 11 18
-5.15862 10.8951 -13.0384 52 59 60
-6.64246 11.0243 -6.9448 18 18 23
1.54754 7.06092 -5.18625 48 34 37
-6.10857 12.1545 -7.38803 28 29 33
-5.50091 3.11538 12.6727 45 68 79
-13.4552 -6.18797 -10.1677 54 78 89
-1.7791 12.4686 -2.54179 42 25 26
8.1515 3.52681 5.76847 59 35 5
-10.2939 5.12718 6.96862 32 34 40
6.47228 1.305 7.2479 19 22 27
-7.3369 9.82688 4.20214 27 29 34
1.59905 6.86735 -4.73648 43 27 30
-8.06118 8.55337 -3.69763 20 23 28
-7.51926 9.05804 12.2808 22 22 26
-0.525524 9.95751 -12.9881 34 27 27
-1.09307 10.9146 -7.38865 33 21 22
-9.06076 6.86744 -8.90097 17 16 17
-1.20487 11.8224 0.648589 33 20 22
2.73247 4.81609 -4.46373 64 40 19
1.29377 -3.67893 -12.3522 52 60 66
-8.30453 8.14253 -8.87524 20 27 27
1.12206 7.16985 -10.8616 42 33 36
-0.913903 10.989 11.5848 39 32 38
1.5095 0.468975 12.55 36 54 65
0.908723 7.04268 13.6523 30 41 47
10.8727 -7.52821 6.53755 21 32 24
-3.82665 14.6218 -9.25112 25 23 21
-6.31782 10.2513 13.7882 44 59 64
-0.241438 17.0629 7.26031 48 61 67
7.28969 6.38081 1.02185 58 37 12
-11.7315 2.60008 6.37201 20 20 27
-0.38865 9.64116 -10.0632 37 31 32
-7.96656 8.7504 0.998934 27 31 34
6.37359 -5.36793 -9.41763 21 29 17
3.3431 3.36858 -8.44298 42 27 31
5.27147 8.40137 0.506387 58 35 8
1.34619 -4.82442 -12.5272 36 48 51
0.81591 7.74034 -8.1598 37 23 24
6.61328 -5.07582 -11.1867 28 17 10
-0.858787 4.02616 12.3405 33 55 65
-8.92036 -8.50798 -13.2566 53 71 77
-0.836966 -10.7971 -16.6175 30 20 10
-2.10331 12.5815 -8.37637 38 17 20
2.06631 -11.1702 -17.1213 17 10 8
-1.45009 11.8794 -7.22154 38 29 25
8.58672 -4.88199 -6.41412 62 61 68
-1.7292 16.261 5.24987 76 86 96
1.18468 7.41806 -7.34713 43 29 30
-0.858733 -9.7141 13.4217 37 57 66
-2.82466 14.6745 12.4473 27 31 35
4.66154 1.14746 11.5989 20 17 23
4.4493 8.16923 0.687321 71 37 2
10.5057 -8.1148 2.50859 50 37 34
-0.180142 10.0235 10.63 34 37 39
-6.73086 8.05193 13.398 43 55 62
4.03013 -8.57561 -16.9781 31 39 30
6.16192 5.32058 3.70941 63 38 7
-12.5037 1.29116 0.223573 11 9 15
0.95648 -2.23977 -12.2303 55 70 81
9.00787 4.12047 -5.65764 75 35 14
6.24623 7.60683 1.36612 53 35 10
-8.64457 7.50452 7.07305 16 17 22
2.43353 4.93801 -7.02478 41 26 29
-11.3677 3.34332 -0.505086 25 22 25
-4.78739 14.1159 1.82243 15 14 20
-9.22332 6.58945 11.5366 17 19 21
-6.20406 12.0123 -9.36191 30 29 33
-3.11563 0.102009 12.5894 44 65 73
-8.34071 -9.03339 13.8126 54 72 80
10.6884 -7.44439 3.80305 42 42 50
2.88171 4.85457 -4.36016 74 52 20
-3.18724 -1.21228 -15.8609 47 54 57
9.36005 -7.88808 -13.3969 41 43 41
-0.145336 9.93588 -4.03788 32 22 23
5.46236 8.28121 -1.25506 69 36 4
-2.10746 -11.6779 13.7158 14 19 24
-8.02769 8.58498 3.2766 24 27 31
-4.81198 14.0131 8.8068 20 26 29
4.34725 -11.4676 -17.5731 24 24 20
2.34643 4.88176 -4.81434 42 14 10
-5.49221 -4.40493 13.2264 48 68 77
-2.01335 1.04558 -14.8502 72 44 10
0.794285 -8.06436 13.4288 37 61 72
-0.0334649 1.56304 -13.5659 58 60 63
10.5169 -8.09948 1.14749 42 26 29
4.40308 -4.32593 -9.20518 50 49 51
-5.07577 -6.88404 13.4135 45 67 75
0.360776 -3.75415 13.0289 39 59 65
10.2012 -7.96161 -2.53094 48 41 41
10.848 -6.95932 -5.02179 43 44 46
-3.50926 4.76163 -12.0291 51 59 63
0.205441 0.52791 -12.4368 60 70 80
4.3266 2.56723 -6.59068 66 36 11
6.02856 5.20799 -4.216 85 47 19
-8.38021 8.22183 6.83597 24 28 33
2.53089 -3.37722 -12.5755 48 54 60
4.65447 0.644527 -12.9852 49 40 42
-0.776699 10.7219 13.6021 24 26 31
-0.826562 10.9393 3.19555 41 39 43
-8.14504 -8.62691 13.7052 50 71 82
-5.03865 13.4368 12.5772 16 21 22
0.252975 9.70988 13.1029 32 37 40
8.15466 3.47384 -6.34107 74 36 0
-11.4823 2.6985 -3.7344 15 14 18
-12.2397 2.25124 -11.0067 17 19 22
-5.66536 -1.59054 -15.3626 53 68 74
-9.51512 6.53476 4.78047 34 33 36
-3.6692 14.7811 -3.2227 38 24 21
-2.21126 13.0813 3.27123 35 25 29
1.06779 -4.933 12.976 43 64 75
2.61679 4.84515 6.51631 22 24 27
0.448591 13.6971 7.81992 60 81 88
-8.94596 -8.35882 -13.1351 52 69 78
-4.67279 14.2316 3.91401 17 14 19
1.2246 6.1584 13.6328 36 42 50
4.07266 -5.81917 12.5991 34 54 53
-1.53243 17.2273 8.51862 40 58 66
-4.30042 5.48042 -11.714 53 67 78
4.37371 1.17294 -10.2468 29 10 10
3.57787 -7.60436 13.2992 30 48 41
-1.24094 11.2842 -4.5903 54 57 63
2.01674 6.55809 -3.04305 52 35 26
-10.0748 5.4463 -9.39588 20 22 26
-0.0167561 9.85142 11.8923 31 31 35
0.259385 10.5367 6.59799 57 65 71
-6.0086 11.5797 1.94263 20 20 24
-1.04704 -8.16004 13.47 43 63 71
-0.772749 10.8745 2.90306 42 36 39
4.53397 2.72921 -6.26545 73 39 3
2.46668 4.12648 -10.6881 32 20 20
-13.557 -7.2056 -11.5885 53 72 81
-8.16143 8.30003 -8.45656 21 21 22
7.95756 4.67835 4.50504 58 34 5
1.59144 7.07227 1.92419 29 31 38
-6.82977 2.54716 -13.503 64 43 16
-13.488 -7.24729 -11.0751 51 74 83
-9.35109 6.82933 6.27226 21 26 28
-5.8643 12.4096 2.3168 32 32 36
7.20954 -9.56664 13.6845 29 39 35
3.37842 3.53891 13.6986 32 37 40
-4.91335 11.345 13.4539 39 57 65
-2.49312 13.2396 4.61868 53 56 66
-5.39425 -9.11898 -15.7777 43 60 71
0.487934 7.7637 -9.71472 34 19 21
-2.18127 12.585 -10.0709 30 15 15
2.44534 4.16916 -12.1481 30 18 17
-8.43052 -4.68486 -13.1802 56 72 76
5.65396 -5.83036 -13.1665 33 23 21
-10.5097 5.14242 -8.47192 28 29 34
1.78828 -4.88796 12.6838 45 67 75
10.01 -5.79207 -6.22734 40 38 28
-6.8437 -9.96766 13.8307 50 67 77
0.339923 -6.93938 -15.9966 33 37 25
-5.13555 3.17176 12.6222 43 66 77
-7.24655 9.96776 -10.0563 27 27 30
10.3714 -6.79246 5.20645 44 57 62
-13.208 -4.5475 -7.33192 53 77 85
-0.0914459 9.73399 4.44547 30 22 22
9.02793 4.22448 -5.44291 73 39 4
-3.97792 1.20694 12.4957 42 64 74
-0.947286 8.15056 12.4686 34 55 65
-1.12288 -11.4201 13.6728 38 48 52
1.78453 6.28488 12.7026 31 31 32
-0.408717 10.5043 -4.79863 43 27 28
0.398451 3.24495 12.3629 34 54 67
-1.56858 11.9247 4.76617 50 50 59
5.45008 7.17129 2.11473 51 40 24
-7.94068 -7.61377 13.2375 49 70 79
-1.10927 11.7931 4.57844 45 44 53
-7.59437 -6.87157 13.2403 51 73 80
-2.34902 6.51169 -11.8372 52 72 84
1.7256 6.18744 -5.86895 35 25 31
-2.23508 10.4609 12.5116 41 59 71
-5.84122 1.81308 12.5185 45 64 77
2.76972 4.07367 6.61057 16 15 19
-4.4992 12.1087 -13.2027 53 60 64
-4.682 4.87716 12.237 42 67 79
-7.03546 10.0873 -2.36038 18 20 22
7.49569 -5.67954 9.901 14 31 26
6.53168 7.4325 1.08026 57 40 14
4.12928 2.05338 -11.8336 39 26 28
-1.32379 12.0598 12.4961 35 37 37
9.82644 -6.7039 -10.0433 27 20 10
-9.16904 -7.82907 13.4768 51 73 83
1.23461 6.39664 -10.2267 33 22 25
0.226381 14.3234 8.77791 62 77 82
-1.54924 12.2866 1.70193 41 25 25
0.581152 2.59212 -12.0896 54 65 72
-13.2713 0.958046 -2.51005 12 17 21
0.403408 -1.92952 -12.2526 54 64 74
-12.7282 -5.69561 -12.2255 48 73 82
0.00670052 0.329383 -14.9056 60 50 45
7.6694 -5.13262 -8.138 32 36 31
-13.2331 -5.96424 -0.484087 48 74 84
0.0919383 -2.82648 12.9116 42 59 66
-6.84075 7.04991 -12.0524 45 59 69
-9.48686 5.86232 2.13768 20 20 24
9.3002 1.17304 -7.51118 60 51 49
4.2816 -7.43581 -16.047 24 28 14
10.2943 -7.48977 -11.3252 29 27 10
-10.3752 -2.66209 12.894 52 73 81
6.65919 3.46844 -5.89996 78 41 4
-2.38526 13.2174 -3.72469 30 12 12
6.74798 -5.71536 -12.6901 16 13 0
0.280782 12.6755 7.95674 58 74 86
2.32527 5.69608 12.8393 43 47 45
-5.91487 12.1236 3.05234 30 29 32
-6.76168 -11.0967 -16.3122 22 31 37
7.90708 0.126859 -6.25171 53 63 67
-1.5341 12.1027 -3.40494 36 16 16
-12.2255 2.08278 -10.5659 16 14 17
-1.83161 4.80055 -11.7193 52 63 72
-5.83019 12.4804 -12.6234 31 36 35
-12.404 1.50824 5.51488 11 11 16
-3.82788 -1.70323 -15.3726 50 68 73
1.07224 8.0832 11.2039 38 42 47
-10.9774 3.87529 1.76616 23 30 33
3.12311 3.39104 -6.6027 34 17 15
-0.854744 5.85472 12.2235 36 57 67
1.80424 6.1316 -9.48613 38 28 29
-8.72058 7.43222 -2.21629 30 33 31
0.428735 5.11296 12.4703 36 54 65
-3.6056 -0.723202 12.7556 41 64 73
-7.80056 9.46591 -9.27176 31 30 34
6.82628 2.88458 5.91017 53 29 0
-3.04196 14.0873 -12.5866 42 21 19
9.33645 -6.00865 4.65982 69 80 89
-3.01496 14.5444 9.88633 46 57 61
-0.69947 10.6472 -7.42985 39 26 29
-7.57559 8.83364 10.2024 23 25 29
5.28163 -6.74571 12.0249 16 33 29
7.18418 -1.66056 -6.18352 56 65 77
-4.03166 -6.91415 13.4702 49 68 73
-0.633996 -1.28609 -15.9178 57 54 58
-10.9422 3.96751 -5.75768 22 16 20
5.38185 -4.77562 -8.74484 45 49 47
-8.28734 8.403 4.23849 30 34 38
10.7785 -6.76092 -6.51336 38 40 27
6.87419 -5.23486 -7.31103 38 31 35
1.79396 6.35921 6.7617 24 22 26
-13.0432 -11.5203 12.9891 15 24 30
-13.2783 -6.61269 -3.22023 55 75 81
-0.649006 10.8643 0.7927 38 25 25
6.2369 -5.4011 9.92807 23 38 41
-3.49393 14.8296 12.0212 21 26 30
-4.80719 -1.86934 -15.4265 54 65 73
-13.8995 -9.19118 -7.80253 62 81 89
3.91393 -1.82277 12.9343 55 63 73
-7.94477 1.23083 12.6277 46 69 80
4.03349 1.1724 13.8468 37 53 58
-8.60268 3.55339 12.8881 43 61 71
-11.3631 2.89639 -2.99908 19 18 21
2.75086 -11.3081 -17.415 21 17 16
-1.13931 11.5218 -3.72926 45 22 26
2.88273 3.62037 -10.6054 33 19 21
3.81222 2.39265 8.14178 25 21 25
-6.85207 10.8379 5.21458 27 26 29
5.44194 8.41285 0.376128 52 38 13
-10.8525 4.16917 9.98414 22 25 33
-6.7317 -5.9908 13.3991 52 71 79
-5.9048 11.9736 -2.2657 14 16 20
5.18503 1.99945 -7.09402 69 37 2
-9.63176 5.80626 -1.75792 22 26 27
4.52726 -5.05032 -11.7457 38 19 3
-1.65591 11.7755 -13.3966 55 51 54
-10.5018 0.107786 13.0515 49 66 72
3.86335 0.316793 13.6282 35 49 56
3.85709 2.39148 -11.1523 32 20 21
-0.887794 11.0746 -2.82979 38 24 25
1.90269 5.6463 -10.6712 35 25 26
8.92209 -6.8068 11.8736 3 26 14
-12.8147 -3.72342 -7.95271 52 73 82
-1.2913 12.025 -4.06483 35 22 21
-12.6415 1.34499 -9.90146 17 16 22
-5.11336 11.3597 -13.2596 54 60 60
-9.00692 7.01982 3.66927 24 25 27
1.70655 6.8443 5.50194 46 50 55
2.3519 5.20738 6.56439 24 20 24
-13.4615 -10.6641 7.42506 53 60 68
-8.23662 -11.2476 14.0359 38 52 58
7.18304 -5.5766 -12.5104 21 21 13
-8.84916 -6.8909 -12.8124 55 73 81
-0.758113 -2.33206 -14.9696 53 59 67
7.55879 -5.41175 -12.9283 29 37 23
6.184 7.07004 -2.87558 68 36 0
-9.34058 6.67165 -9.84694 16 20 24
-4.95913 13.0014 -3.87481 24 23 27
-9.1486 6.97721 -4.41808 26 27 29
-7.25961 -1.49207 12.9553 52 69 75
-5.97937 12.221 -3.54806 31 34 37
-9.40149 6.95356 -12.584 24 25 32
2.62912 6.73555 1.76711 30 20 10
6.46738 3.27678 -6.06976 72 37 2
-12.9748 -4.00869 -8.07092 55 75 83
7.57627 6.20788 2.585 50 41 17
-6.79616 10.4138 -0.295502 17 19 21
-13.2993 0.724129 -8.22863 19 19 21
-5.76365 12.2387 1.62054 15 15 20
4.48335 -1.96994 -6.49184 52 63 74
4.25819 4.69401 -4.2237 77 38 0
-12.6372 -3.79659 6.83698 46 66 76
11.048 -7.84843 7.42084 24 44 37
-6.90926 10.8389 0.562932 33 34 36
-12.2266 2.37513 -11.4208 18 17 21
-9.84647 6.1171 -5.28821 31 29 31
-3.70919 4.88662 -12.0465 51 60 63
9.95181 -5.54069 -5.04957 51 56 61
-7.51072 -9.52208 13.7599 49 70 81
-2.46626 8.27256 -12.1354 53 60 64
-2.87045 -6.95414 13.4532 48 65 70
-10.501 5.07351 -2.28545 31 31 34
-13.4276 -7.22898 -3.38922 57 75 81
-3.59169 14.5795 -9.59252 25 20 18
8.70566 2.43848 -7.19076 78 42 1
-6.25561 11.7649 -11.1024 32 32 36
5.08254 0.961933 10.7437 28 31 37
-10.4599 4.67723 2.06021 15 15 19
0.869618 -7.85019 13.4179 37 61 71
-7.63783 8.97627 -13.2983 48 56 57
-6.34644 2.29988 -13.7956 59 45 11
-5.08122 13.3293 -4.74174 23 22 25
1.08366 3.62506 12.666 37 53 63
-13.2021 -5.61406 -6.44727 56 75 81
-2.07449 13.037 -12.2218 43 25 25
3.12631 3.80333 12.1923 27 22 26
-6.93049 -5.76434 13.2516 49 69 78
-1.36795 11.1493 -10.8003 30 15 16
8.54571 -2.85969 -6.25746 60 66 75
-6.29606 11.7812 -9.37642 30 31 35
0.391925 15.4368 7.20874 61 75 79
-0.493179 10.6811 2.06655 39 26 28
-10.8179 -10.2765 14.0678 58 74 84
-12.5388 1.96043 -3.52157 25 26 28
0.395941 13.4979 8.52452 59 78 85
-3.63495 11.1643 -12.6302 46 57 65
-12.2007 2.26639 -7.16603 20 22 27
-2.12446 -6.15279 13.1663 43 63 71
-0.916839 11.6938 4.12521 40 33 40
0.607152 -2.7116 -12.3354 54 61 70
-10.8748 3.97075 -0.409588 17 22 24
-13.9153 -9.32331 -7.86896 61 81 89
0.256222 10.3997 7.87012 53 69 73
-2.89593 14.4942 0.976175 31 16 16
5.31423 -9.59428 13.4926 3 16 8
-4.07025 1.13882 12.5617 42 63 72
10.6807 -11.7347 -11.3748 29 17 16
-2.47547 14.8607 5.30883 66 73 84
-7.52084 9.54735 -8.52788 20 18 22
-13.1765 -8.44154 8.14209 47 71 82
-0.586665 2.76384 12.4311 37 55 65
0.477345 7.47229 -12.7346 39 38 41
3.86428 -4.81687 -12.7675 31 30 9
-2.33032 13.2346 -11.4637 32 12 12
-11.3567 3.34413 -0.242493 25 22 25
6.15559 -5.3556 -9.55283 23 36 23
-13.9851 -10.9158 -3.31359 30 44 47
-0.0636616 5.22447 12.38 38 56 66
4.77117 -5.33745 9.88382 52 73 79
-13.6975 -9.53188 -1.75341 55 72 81
-0.730992 10.3119 -9.33212 42 28 28
-9.54721 -2.07052 12.9748 53 71 78
-9.85187 6.04136 -7.21103 20 22 25
-2.74152 -11.1666 13.7126 39 49 56
7.30903 4.65031 -5.00991 79 44 7
-1.14108 11.7179 -4.27046 45 36 37
8.56484 -6.20724 10.411 11 27 17
-2.61511 -3.30479 -15.4899 51 73 79
10.5344 -7.75014 -10.9648 40 46 32
4.10129 -4.3099 -8.4834 53 58 65
-2.83181 17.4169 7.16159 39 56 64
3.63456 8.64818 -1.01132 58 38 6
-12.7001 1.78688 -11.8695 22 19 23
-0.424418 10.5806 1.86301 34 21 24
-12.7801 -6.78012 -12.4772 55 71 75
1.56539 6.28201 -6.03399 32 20 25
10.8239 -7.8452 8.43871 23 41 37
-12.2964 1.97579 0.967226 26 26 30
11.5346 -9.35169 8.36276 52 66 56
-2.92448 -11.313 13.7518 31 38 41
-4.29214 9.52628 12.2647 40 60 64
-8.04763 8.61091 -0.790083 26 31 33
0.346725 14.7604 7.74796 59 78 87
-5.28397 12.7817 -6.61775 21 23 26
-13.6377 -9.49373 1.24307 46 69 77
11.2791 -8.41687 -1.46046 37 31 32
-2.49074 17.4863 6.97746 40 54 61
-8.13206 -9.57214 13.852 51 68 77
10.5958 -11.7171 -11.5955 24 14 11
-4.59138 14.2597 0.274027 19 21 26
-10.97 3.95155 -3.58605 20 21 23
7.75359 -6.92717 12.5973 4 25 16
-8.91005 -7.8955 -13.0695 57 68 78
-13.2147 -10.9251 9.71906 34 45 52
3.31059 3.70617 10.7596 30 24 26
3.41432 -3.93274 -12.5738 32 31 25
0.0403004 -11.8423 13.7748 19 26 30
-6.38919 11.5697 -12.6204 26 26 30
0.442047 -10.8743 13.4975 42 60 69
0.728408 -4.96958 -12.7346 38 52 56
9.30087 -6.51011 9.9008 14 35 23
-2.32311 13.3657 11.2561 28 29 33
1.07093 7.54595 -6.74128 40 25 27
3.54951 2.52613 -12.5227 31 14 15
1.57889 -4.02285 12.9917 42 61 69
-1.83855 12.2891 -13.0597 44 25 26
-7.31136 9.16654 13.8116 29 34 39
0.302986 -4.97141 -13.0165 36 59 63
-8.82013 -7.00846 13.5364 54 73 81
-11.4421 3.83446 -12.5203 26 28 33
10.0376 -8.54136 12.5485 17 37 25
-5.45465 12.4305 13.5169 25 25 29
1.8211 6.43802 9.98004 26 27 29
1.12707 4.10043 -12.6708 54 61 67
-2.44877 13.5863 11.2569 33 34 35
-4.37483 -1.40823 -15.5376 53 60 67
-8.85551 7.26684 11.3847 25 24 29
-0.0519667 0.461778 -14.5029 68 61 65
2.65393 4.65051 -5.32903 39 25 18
-4.64728 14.4102 -8.12003 14 14 21
-13.1809 1.05749 4.95058 14 16 22
-8.41434 -4.22721 -12.6419 54 74 82
-2.86649 10.768 -12.6802 50 60 68
-12.1598 -9.26241 13.6276 52 73 83
4.58811 -5.48312 -12.5036 29 22 5
-11.5908 3.36365 -10.1718 26 27 30
7.80148 -0.930401 6.17155 47 61 72
10.5879 -8.14875 0.354269 47 28 32
-12.9942 -4.27295 -4.64744 55 73 81
3.81579 2.21214 -12.3327 29 17 18
-3.23271 17.3243 7.3853 44 55 65
-14.0173 -10.9616 -4.00595 29 43 48
-12.3349 2.28432 -5.67825 26 25 26
-0.0189486 8.7869 -12.4428 37 25 28
-4.22899 6.74123 -12.0484 51 61 67
7.71018 -1.11967 -6.29787 56 63 69
3.12994 -2.29038 12.9175 36 57 64
-6.57456 11.3763 -11.9797 24 27 29
-4.84762 14.021 -10.8047 18 21 26
1.65163 5.97604 -13.1804 43 41 46
1.88751 -4.74052 -12.7855 43 49 43
-1.0508 10.8307 -12.3309 39 27 29
-6.01529 11.5233 4.66284 21 23 26
4.53868 1.33654 7.48462 23 22 25
7.26023 4.24918 4.96401 51 32 5
-12.9534 1.12012 -5.98618 14 9 17
0.289765 12.1355 6.86579 60 78 89
-10.9022 4.14061 12.0255 26 29 35
-0.314558 2.35565 -13.5003 58 57 58
-2.93614 6.09444 -11.8356 56 67 78
-1.09414 11.1607 -3.97877 39 21 30
11.0189 -7.69849 -5.31344 27 24 12
-1.16509 11.9595 -3.47668 41 26 25
-13.4012 -6.42973 -8.77909 52 73 82
-5.09308 13.0385 -6.1177 27 25 30
2.57717 -7.01893 -16.0834 26 32 24
-6.09447 8.50335 -12.3582 46 58 65
5.54595 8.21317 -1.4671 66 36 6
-2.06931 13.1223 1.8895 39 24 25
8.59207 -1.63047 6.20824 58 63 70
-12.1902 1.58136 6.86383 16 13 19
-8.53304 -4.28509 -12.3365 54 78 84
0.470389 9.47897 5.03002 51 44 49
10.2779 -8.0848 -1.06451 40 27 29
-11.5698 -6.58874 13.3138 54 73 80
-8.51476 8.21429 -0.825981 28 30 33
-0.06604 1.73718 -13.6061 54 57 59
-13.4538 0.9076 -12.4982 43 43 46
6.53135 2.55824 -6.81214 76 44 3
2.91784 4.71894 11.6705 37 37 41
1.46425 0.797314 -11.9027 55 70 80
2.85235 2.85229 -13.6437 52 58 60
8.34188 -9.27668 -14.9471 30 27 10
-7.55289 9.23978 9.45318 21 22 27
-8.35471 -9.25241 13.8352 55 71 78
-2.16412 9.30205 -12.561 56 61 70
-1.32572 11.6753 -13.0207 42 30 28
-10.8577 4.02703 -2.63873 19 20 23
-8.82086 7.24189 -11.7855 29 30 32
0.937889 8.33844 4.39628 39 43 43
-2.62695 13.2888 -10.5142 27 5 7
-11.4462 3.46467 -2.1739 30 31 35
-2.92682 14.5323 -0.0590124 34 12 11
-2.87159 14.6022 13.2084 26 29 27
4.45365 6.03794 -3.21877 83 43 8
-13.7002 -9.43919 -11.9596 57 74 79
-0.724575 0.94173 12.3596 37 61 71
4.20877 0.613692 -13.5302 54 52 52
-9.27378 -2.81587 13.0452 53 72 80
-7.74861 9.60137 -8.13107 37 37 39
8.51731 -10.3532 13.5093 24 37 28
-6.63644 10.9516 11.6684 22 25 27
8.31911 5.21151 -2.0324 72 41 6
5.78579 6.04658 3.16695 45 27 1
-13.1023 -4.72976 -5.90549 53 77 87
-9.68186 5.63489 -1.93004 24 26 28
4.00336 7.78857 -1.91238 67 37 9
4.1241 -2.40659 -11.3928 54 63 69
3.21525 8.18128 -1.38685 66 36 0
-0.881049 11.6607 4.58751 46 46 55
0.267457 9.77223 6.6672 39 34 40
-0.215596 10.6152 1.31292 43 28 32
-4.94874 13.8559 -4.41977 25 30 32
-6.40898 11.0359 3.62465 13 17 20
-12.9095 -6.07201 6.9498 45 64 70
-13.0335 -4.78081 -5.30148 51 73 83
-6.8817 10.561 1.72956 24 24 26
-1.59395 12.5223 3.09758 43 27 27
0.950078 -11.6334 13.6239 37 42 45
-0.235476 9.05842 -12.3813 31 16 17
6.36478 7.17699 -2.71501 60 37 8
-6.45194 11.4223 -5.96661 24 26 27
-5.71735 12.4211 -4.7971 25 30 31
11.2899 -8.44384 -2.951 36 32 31
-4.52329 14.4933 -8.95821 20 16 24
0.895601 -1.16785 12.6199 34 56 65
7.51623 5.70295 -3.98312 75 42 4
-11.7222 2.66008 -10.2783 23 20 25
0.346844 9.64072 7.33617 56 57 59
-3.56596 14.7812 -2.82987 39 24 21
-2.13505 12.6225 -13.2775 50 42 42
-2.47279 0.988995 12.6443 42 63 74
2.55121 4.89794 -6.03498 38 26 32
-0.901015 11.0002 -1.49541 33 18 18
-1.52749 12.0125 -12.1797 40 27 26
-8.533 7.68857 7.23791 12 10 15
5.63804 -4.83525 -8.18018 41 57 64
5.32067 -5.89692 -13.0882 32 35 26
7.73762 0.633594 -6.99416 53 57 59
-2.67285 14.7335 5.2026 63 69 76
1.2295 -8.18261 13.251 39 65 74
-12.4392 2.08783 -10.9604 22 26 28
-7.75725 9.42962 2.6615 31 33 36
-4.15914 -6.23403 13.311 45 65 76
-3.08102 14.2941 -10.4307 28 11 11
2.73725 4.14204 -6.44426 36 16 21
-8.15307 8.20472 -7.17935 19 19 28
-9.96117 5.65759 12.1495 24 26 34
4.97839 3.04233 -5.88681 79 43 0
7.25744 -5.23111 -7.25061 30 32 39
-6.77765 10.2252 10.1384 20 21 24
-11.0825 3.21259 10.9511 18 18 19
0.352208 9.59004 7.15123 53 54 58
-3.31571 14.4667 -10.1086 27 14 12
0.221385 -7.58737 13.4582 40 63 72
-0.505591 -4.79525 -12.6323 49 57 68
8.22253 -5.24878 -6.75247 41 45 48
-0.223058 10.4418 1.06907 41 28 33
-9.07229 6.95556 0.635443 26 25 30
3.98052 -3.07252 -12.3548 58 60 65
-9.27436 6.89718 -7.56704 27 27 28
-0.976802 11.2442 -2.52773 36 21 21
-5.71443 3.08014 12.6816 41 65 76
6.9371 -6.70583 12.1888 9 24 17
3.29376 -3.51339 13.0598 49 62 68
-0.534529 3.04821 -12.9544 53 59 63
-7.60138 1.73476 -14.4223 61 47 27
-2.5295 13.5457 4.50045 60 63 75
-3.17143 6.91518 -12.0371 53 60 68
-7.6348 -7.59561 -15.7859 49 67 74
-8.28147 -2.14966 -14.8697 58 73 81
-0.613031 7.1734 -12.681 52 59 65
2.03046 6.12753 8.9127 37 37 40
10.1992 -8.02928 -1.28521 38 30 30
4.35342 9.08363 -0.850168 65 35 2
-11.1321 3.70488 9.68878 13 13 16
-0.119678 9.29251 -6.89688 38 23 22
-7.00374 9.91646 -0.286566 20 21 23
-0.157437 -2.92479 -12.4102 55 64 72
1.3302 7.24478 5.70159 34 38 41
-7.06486 10.0503 10.045 20 22 24
3.79358 2.64038 11.1115 27 20 26
0.963131 -6.52504 12.9149 42 66 75
-4.3868 3.66243 -12.2826 57 42 29
-10.0904 4.99466 13.6261 17 24 48
-4.50814 14.5094 -8.33679 21 18 19
5.11145 6.52521 2.47746 74 40 0
0.171809 9.86246 13.4922 39 41 43
0.345171 13.0707 7.06092 59 77 85
0.851022 8.27885 11.7688 29 31 35
0.279666 -1.98981 -12.3145 55 64 70
0.515247 5.47617 -12.79 50 59 66
0.403965 8.80852 11.5198 35 39 40
-11.0514 3.65149 2.04227 19 23 28
-9.32239 -7.53956 -12.5549 57 76 82
-8.81308 7.47437 -3.78421 20 20 23
3.46562 2.8348 -10.5097 34 19 20
-8.88191 7.05497 9.19575 10 13 18
-7.03232 10.7698 -8.90842 34 34 37
-0.216639 8.97183 13.5985 30 41 46
3.82901 2.07957 -13.5436 45 42 46
-0.304071 10.1098 -4.1493 32 18 19
-7.45053 -5.13958 13.2437 51 70 78
2.46749 3.99332 -12.1565 31 16 16
-13.2433 -8.62597 5.28939 43 65 74
-7.4187 9.8866 -11.9245 18 21 24
-7.47953 9.75694 -11.2608 25 26 28
10.354 -5.69931 -5.26587 63 62 66
-11.2988 3.52494 9.09119 18 24 27
-12.9264 -4.17514 -7.24839 52 73 82
-9.21002 6.36923 10.8988 17 18 23
5.70915 8.16933 -0.528194 66 36 3
-13.6453 -10.6042 1.66063 38 52 57
9.15962 4.24538 -1.33793 75 40 3
-2.67702 14.0474 -6.63404 37 13 11
-0.762466 10.8778 3.45243 35 22 21
4.49983 -4.31891 -9.7186 38 34 31
10.5609 -5.93851 -6.13423 40 40 30
9.70542 3.04719 -6.77225 76 50 21
6.8437 3.79312 -5.75592 71 40 5
-1.79886 11.7219 13.6523 24 33 43
-5.88747 11.9995 7.36318 18 14 19
0.238507 -11.0753 13.5923 39 56 64
8.68791 -6.03311 -10.5105 29 26 1
0.176847 8.7831 -13.2326 42 40 41
-3.69905 1.36852 -14.576 66 39 6
-12.9122 1.13813 11.7502 24 24 29
-4.15561 -4.15422 13.1906 46 65 73
-0.600448 10.7387 4.60947 39 38 46
3.99412 -4.30144 -11.6762 30 26 8
-4.1682 -10.7293 13.8253 48 61 71
7.26851 -5.81075 11.2274 32 56 52
9.77057 -7.30568 2.31401 43 28 30
-8.66276 0.198673 -15.3623 58 70 73
9.42701 -8.2575 -13.4714 40 45 47
-13.2715 0.863342 -7.07462 10 13 19
-7.61262 9.67894 -9.86678 27 30 33
5.20068 5.57815 -4.06438 63 37 9
9.45098 3.72952 3.40849 66 39 5
11.2734 -8.27957 -3.9378 37 34 32
-0.302971 -3.14203 -12.4255 55 65 74
-6.48241 11.403 9.5276 23 26 30
2.78857 -8.93774 13.3594 15 33 26
9.16088 -6.72623 11.3016 5 27 15
3.91259 -1.78693 -12.3152 56 62 73
8.26986 -5.86426 -9.88797 24 26 6
-5.05301 13.3755 -5.72077 22 25 25
5.05775 6.85379 -2.77149 73 35 3
-0.409639 10.7219 2.48608 41 33 35
-12.901 -4.36874 -6.69029 52 75 83
2.38125 -0.899748 -12.2398 55 71 76
-5.54496 12.9741 13.1793 28 35 36
0.767969 -1.08553 -12.1151 57 61 74
2.10397 -6.02037 12.8115 35 57 68
7.16147 2.00072 -7.39056 73 41 3
-4.71724 5.77296 -11.6639 50 66 78
2.40474 -8.99577 13.417 29 48 46
4.43637 1.04784 -10.7569 31 14 14
-1.51385 12.9793 5.19156 70 77 87
-12.119 2.3545 6.76385 29 29 33
4.60966 0.768276 -8.43884 28 8 10
-0.451071 -1.66506 -15.3754 56 60 65
-7.83498 8.57239 10.9293 21 23 26
10.3231 -7.90725 3.0428 47 39 38
0.774024 3.09709 -12.1623 52 69 80
-7.5604 -11.0113 -16.3158 20 31 37
3.8106 -5.97965 12.9656 40 63 62
3.40125 -9.82418 13.4406 12 32 20
-0.650928 10.8454 2.20964 43 28 30
-6.5688 10.0382 13.8267 43 58 62
3.92629 2.02084 -6.95375 39 18 22
-12.2253 1.69418 12.5827 12 13 19
-1.78442 12.7584 -0.730042 33 26 25
9.06704 -7.33133 -3.20668 52 41 52
4.98011 7.42086 -2.41029 74 54 37
-12.2987 -3.69073 11.5203 42 66 77
-11.8731 -8.01835 13.515 61 77 82
-5.99286 12.065 -0.433163 24 26 29
7.36785 -10.092 13.7315 33 44 38
-13.828 -9.08534 -6.40253 60 82 87
-4.96587 12.8769 4.7781 20 21 22
-3.31745 14.7648 -0.564045 40 25 20
-3.82088 14.7635 12.8376 20 22 27
-0.844132 16.759 5.15395 70 74 82
-3.96613 14.8266 -1.48787 27 27 32
-1.64424 12.2883 2.6689 36 18 23
-5.84877 10.6402 13.7105 42 58 63
-3.01817 -0.957321 -16.0734 64 57 51
-11.1095 3.81331 3.94127 29 31 34
-5.89301 4.24922 -12.1045 48 58 67
-2.58417 13.3414 -8.83144 30 9 11
-0.753081 10.9668 1.51062 32 24 21
-9.55754 6.4221 0.26894 31 30 33
-13.694 0.356693 -11.9388 32 38 42
9.04026 1.12735 -7.57462 65 53 46
6.99155 -5.84187 -12.9026 21 23 15
-0.194222 9.05987 -8.24337 32 23 23
-2.38311 13.2254 4.92818 57 63 76
-9.9097 5.45535 -2.9185 16 18 21
-8.78489 6.08966 14.0422 27 36 41
-2.36615 13.7725 5.12837 71 76 88
2.31308 4.87828 -9.17715 33 21 24
5.39051 -5.58141 10.6777 30 51 54
3.93154 2.49941 13.1341 25 23 27
4.28808 6.75741 2.34207 52 35 13
5.25283 -5.60385 11.014 38 58 62
-11.3491 2.82589 4.52598 17 15 21
-13.6277 -9.22902 -4.38367 60 81 89
-4.16282 -10.5398 -15.8633 44 53 60
-11.5573 -6.3154 -12.4271 48 69 77
-6.91748 10.7034 -2.09509 28 28 30
-2.51762 13.9139 0.192703 36 18 20
1.35867 6.63609 -9.26422 39 28 27
8.85262 4.58992 3.07413 53 41 25
1.42562 -6.69338 12.8925 33 58 68
-2.36264 13.2639 -8.20858 31 11 13
-10.8811 3.13046 12.5566 5 2 13
-7.81072 -4.55278 13.2546 52 70 77
-5.31906 12.6856 3.75015 21 23 26
-13.5745 -7.97998 -7.25763 59 76 86
3.84742 7.8742 0.809937 60 31 3
3.74687 2.42326 -10.245 34 12 15
-9.66113 5.75249 5.53394 20 24 26
-6.66321 11.2654 9.44862 25 27 31
-7.37599 9.65838 5.36294 12 12 16
3.25229 -6.56101 13.1571 40 59 61
1.13466 -2.05744 -12.2922 56 69 80
0.940218 8.32648 2.26248 39 38 41
7.37506 -7.55948 -14.8542 43 42 46
0.048275 9.88937 12.8452 27 31 35
-1.99706 6.61493 -11.9717 57 67 77
-3.99182 14.8412 9.45402 37 49 52
-4.93707 12.9698 -0.686213 37 41 45
-10.8303 4.28566 -12.6275 17 21 24
-0.35896 10.6765 -1.70482 45 32 34
-0.211366 8.74711 -13.6089 44 51 53
-3.04693 12.2189 13.0454 31 56 67
-3.7682 16.4319 8.04216 49 63 69
-6.9047 10.0425 -0.858541 28 27 30
-13.2198 -8.46252 5.48765 45 66 76
-11.331 2.72657 7.06646 14 12 16
1.01751 -6.98572 -16.336 39 46 28
-0.965229 11.6577 4.90172 45 53 60
-9.69563 -2.12561 12.9806 58 72 76
-11.3282 -4.83585 13.2912 54 75 85
-10.2896 5.29487 -7.54511 19 20 25
-6.81886 10.954 9.52041 24 24 30
-6.42869 -10.0312 13.8062 45 65 76
7.12845 0.617178 -7.12889 58 53 55
-5.74198 12.591 -10.2155 24 27 32
-12.8746 1.09862 -7.57464 15 11 19
-0.0830564 9.97335 12.0849 34 37 37
-1.81316 15.2626 9.08026 46 65 73
-2.9418 10.118 -12.2377 51 61 69
-8.82592 8.17628 -12.5203 35 35 37
3.75444 -6.65099 -15.4694 26 21 6
-8.57154 -3.75367 -15.0512 56 75 80
10.1391 -7.1162 4.12335 61 75 82
-4.4424 8.15067 -11.9328 52 69 81
-6.602 11.3055 -12.2943 24 24 27
8.72233 -5.91269 -11.3129 29 17 2
0.0750837 -6.75528 13.0028 40 61 69
8.46146 4.93235 -2.74056 71 36 2
-10.448 -6.55027 13.1394 51 77 86
9.61209 -5.71076 -6.01631 47 46 42
-12.7407 -7.4487 11.0598 50 73 83
2.86036 4.46951 13.7508 33 36 35
-3.27136 1.64827 -14.1937 62 37 6
10.8197 -7.8698 7.79856 11 31 22
4.59904 6.94318 2.16113 53 35 12
4.51623 -2.8953 -6.53583 58 62 70
5.89576 3.45794 -5.82564 79 42 3
0.529179 8.8888 6.14712 33 33 33
8.51947 -3.17661 6.19005 55 64 69
-11.618 -9.85915 13.8789 54 76 82
3.71717 2.37117 -11.8953 32 22 21
4.94551 1.07846 10.3147 20 20 27
-2.47196 0.59721 -15.2437 62 40 9
-8.48362 -5.16283 -13.021 56 72 76
1.35652 -4.52951 -12.2304 44 55 63
-10.0794 5.76089 -12.9611 41 47 50
7.04503 -5.22446 9.05316 47 47 54
-2.45594 13.9603 2.15244 41 29 29
-12.0649 2.41385 7.2623 25 26 30
-3.55628 1.0578 -14.8387 64 37 6
4.56353 -5.45499 10.7981 45 62 70
-0.935185 10.694 -10.6144 39 29 29
-5.7349 12.4587 -6.1716 23 23 27
2.43909 2.56385 13.5068 35 50 57
-7.86169 8.63179 13.7329 37 38 41
-8.97951 7.07127 -8.48332 26 25 29
-9.73802 5.43795 0.611673 21 20 24
7.43089 -3.77681 -6.32236 58 65 73
-4.8293 9.57267 -12.089 49 60 69
-12.1665 1.74931 6.0898 27 27 26
-7.88999 9.10017 -0.754396 28 23 29
-4.82264 13.521 3.11639 10 16 20
-5.1418 12.7403 5.36467 16 16 16
0.354845 8.66866 -6.65205 40 29 31
-5.66682 12.1555 8.61133 15 13 17
0.263686 5.39131 12.4546 33 55 63
4.10708 -2.73868 -11.6848 56 59 63
11.025 -8.28118 8.19598 11 30 20
-10.4675 4.45901 2.71082 13 17 17
0.274718 5.89247 -12.8174 51 58 64
-12.3473 2.3265 -11.5142 20 20 24
6.48377 -3.93144 -6.33701 55 64 72
-8.3002 7.69113 12.385 13 17 21
-12.9485 1.17776 5.01005 10 9 17
-11.8518 2.25687 8.07693 9 8 13
-6.94139 10.8319 -2.54446 28 31 33
3.27637 6.68612 1.97231 51 27 2
-0.384629 -4.88261 -12.9719 105 116 122
-3.03711 14.6243 4.0512 52 46 53
10.3355 -6.97748 4.38338 49 58 53
3.97354 -7.76108 13.2726 24 44 41
8.82382 4.64201 0.81503 62 39 4
6.79649 -5.14103 6.49966 43 51 56
-0.893201 11.0535 -2.56345 35 21 21
-0.778322 -7.86697 -16.0211 30 38 29
4.16565 -8.05991 -16.4641 26 33 24
0.158641 10.7715 8.39535 54 76 88
3.45379 -3.43674 13.0667 51 62 68
-13.5832 -7.34166 -11.243 52 75 85
-1.90851 10.6141 12.874 27 46 55
8.73537 -1.10383 6.17265 55 62 69
-9.15996 6.87582 -5.20193 23 26 29
11.1693 -9.91831 -6.33125 36 33 26
-10.0781 3.66286 13.9524 43 52 54
2.09388 6.05695 13.424 33 35 41
0.243176 10.2643 8.58539 55 71 77
10.0481 -6.88433 -10.0197 30 22 10
-9.64457 5.83034 -1.90396 24 27 29
-11.3347 2.40761 13.9618 50 57 65
2.36257 -1.27829 12.8774 39 57 68
0.432908 -11.1684 13.5766 42 58 66
8.36284 -5.93257 -10.5032 29 20 2
-5.09867 13.614 -4.95083 29 30 34
6.09718 -6.65328 -15.2936 31 28 17
-1.26017 12.2982 13.0457 34 42 43
1.28057 -7.01129 13.0991 42 65 75
2.89453 3.69774 -8.40016 32 14 16
-5.13077 2.02987 -13.9474 64 46 24
-3.75722 4.62017 12.4729 44 60 66
-3.39774 -11.2479 13.857 40 47 51
-6.69401 8.65005 13.6295 39 58 67
3.19046 -6.87354 -16.0017 36 43 35
-2.60144 13.9174 -4.207 41 20 19
-2.85605 13.9768 -10.5752 30 12 13
1.35113 -4.33381 -12.2019 46 58 66
1.5737 7.17216 -4.33842 41 31 32
-6.20814 8.29545 13.0104 42 58 65
-2.6859 -5.16501 13.215 44 63 73
-3.47459 -9.54608 13.7188 44 66 76
-0.573605 9.88676 -10.5558 28 18 16
-0.863648 10.9639 3.85612 31 20 18
-3.03565 13.9099 -12.7981 44 24 25
7.32504 -4.54144 -6.45021 53 54 63
-0.347524 8.9934 -10.2932 31 20 23
3.54362 2.57749 -11.6478 30 14 16
-14.139 -10.5472 -10.2118 30 43 50
-6.75131 1.09976 -14.892 57 44 19
10.2774 -7.96125 2.94592 46 34 34
-2.95024 5.69771 12.2948 39 59 68
-7.56515 1.08021 -15.0388 56 45 15
2.00722 -6.2659 12.8867 35 57 65
-13.2373 -4.88061 -7.0886 52 75 84
-7.89554 8.91445 -3.22482 19 21 23
2.06386 1.31083 12.7433 29 54 63
-2.89603 14.5345 -0.20199 35 12 10
-4.80812 11.4907 -13.1409 54 59 60
-9.6092 -1.14264 12.8644 51 71 76
-9.76773 6.44545 -10.3167 33 34 38
6.7364 6.17422 -3.82898 71 39 15
-13.3719 0.854893 -1.96482 21 21 26
-11.4507 2.89239 12.8209 16 14 21
0.289132 10.2655 7.88783 53 66 69
2.80962 -6.74955 13.1947 42 61 64
-0.0994906 9.67332 -7.03981 42 31 30
-1.6208 12.3724 2.95084 40 20 22
-8.42607 0.0331879 12.5718 49 72 80
-10.8763 4.04478 6.9804 26 27 29
1.8097 6.34706 6.37052 27 24 26
-7.58566 9.65402 9.68041 24 26 30
-2.82669 10.3649 -12.4276 52 62 69
-3.92352 14.717 -5.30551 21 18 19
-5.54807 9.59491 -12.5444 48 59 64
0.373889 8.70569 -6.24653 38 27 31
2.96729 4.53497 4.5428 64 34 6
4.92232 -0.342087 -6.48108 52 65 73
-9.04676 4.57904 13.8268 44 60 66
7.86597 5.69581 2.66384 62 38 5
-0.261544 -1.1177 -12.2248 55 59 67
-7.61758 9.09213 13.5318 31 30 31
-3.20005 0.585644 -15.0907 68 38 5
-7.04383 10.2145 -9.70105 20 19 22
-7.6362 1.4473 -14.6925 61 46 23
-6.12551 11.3029 3.8848 21 24 25
-4.26919 1.30678 -14.7147 59 42 8
1.34486 8.63587 -1.01483 34 20 25
0.42358 13.4295 5.39792 61 71 78
1.46901 7.24065 -5.05011 44 31 34
3.74967 -9.07047 -16.9749 22 31 13
-12.4968 1.2423 6.38953 7 4 10
0.236387 -4.60434 -12.3882 48 59 66
-6.58239 2.87374 12.5304 45 67 80
11.0565 -10.9975 -8.31333 46 54 49
-1.36741 11.9316 4.21742 31 28 31
-1.23982 -5.17519 13.086 46 64 69
-13.1869 -7.26636 2.26066 47 66 74
2.51538 4.84365 -7.97447 39 28 29
-5.10913 13.159 -8.36409 25 24 26
10.148 -7.0902 -10.7669 32 36 24
8.3883 -1.79093 6.25344 55 62 69
-12.9822 -6.71517 6.09057 41 63 71
-1.44151 14.3291 5.25929 72 79 88
4.53763 4.4168 -4.76003 67 35 5
-9.87398 5.5756 -6.7162 20 19 24
-13.4112 0.543674 -8.31612 23 24 25
8.31514 -5.29611 -8.71074 26 30 21
-6.98025 10.9177 -11.719 34 37 38
-5.77858 -8.80466 13.5641 48 67 77
-1.94908 12.2392 -5.14059 35 15 18
2.19515 5.92256 12.8483 33 36 40
-3.61963 14.7379 0.750841 33 24 18
-8.58406 -5.49067 -13.8538 58 75 82
-3.03093 14.6357 2.70027 37 27 28
7.85563 -2.4348 -6.2656 59 63 72
1.91888 5.30105 -8.79542 32 20 20
-10.4206 5.11338 -7.01091 20 18 23
-10.1784 4.78473 12.4925 15 14 18
7.206 2.25829 6.65872 64 39 6
-4.24693 13.532 13.7712 38 49 56
-9.84916 5.55433 10.2166 23 30 35
-2.39945 14.1336 12.7847 42 45 48
-7.10421 10.6948 -11.7044 40 39 42
-13.0973 -9.59302 10.0452 44 68 77
-1.04744 11.4458 -1.85251 42 20 24
-9.87918 6.12286 -11.9432 28 27 29
-1.65978 12.3185 0.396851 40 21 23
9.42648 -5.49171 7.11685 32 48 38
6.11644 7.71972 -1.30366 72 42 4
3.33239 3.30202 -12.1597 39 33 35
4.8775 -5.5355 10.6626 44 64 73
-11.1724 3.78534 2.86112 29 27 33
-2.06309 12.3456 -10.3227 29 13 14
5.03024 0.725403 8.4206 24 22 29
3.62056 2.37019 -12.365 28 17 16
1.67037 6.0514 -12.5189 34 30 31
7.97002 5.51137 0.584383 63 36 12
-4.0305 -7.15092 13.4763 49 66 72
-2.56471 -8.65528 13.248 42 63 72
-5.70067 12.6695 7.51457 21 25 28
-13.6707 -10.852 4.42236 33 41 49
-0.356821 3.36395 12.3195 32 55 66
-0.403448 10.4416 9.93027 39 43 46
9.59683 -5.62244 7.23608 29 44 33
6.10902 0.982391 7.30421 24 30 30
-8.87531 7.56343 -6.46148 28 25 31
-2.51099 -7.2624 13.4021 45 63 69
-5.52014 3.30436 -12.6296 64 41 12
-12.4716 2.1749 -11.1819 24 27 30
-11.2055 3.58226 4.53276 22 28 29
-3.18997 4.1039 12.5185 45 60 70
-0.570074 10.7967 -3.78595 40 28 32
-13.5753 -8.99848 -4.16031 58 79 87
-12.1345 -9.73493 13.7446 53 73 81
