ply
format ascii 1.0
comment Created by Open3D
element vertex 1393
property double x
property double y
property double z
property uchar red
property uchar green
property uchar blue
end_header
-3.71059 14.6998 13.1909 21 17 24
9.82645 -11.3967 -13.2524 27 27 16
-0.676148 10.817 3.23714 39 29 30
0.695608 8.49089 -5.63839 43 32 32
-12.0055 -1.4606 12.6147 47 66 76
-9.12295 6.48026 12.4459 14 12 18
-11.9351 -8.5569 13.6419 60 75 81
-5.41887 12.6581 2.95644 23 29 32
-13.3841 -8.49922 -0.500551 50 73 85
-12.05 1.91084 13.1181 15 15 19
-13.1281 -4.35132 -7.53721 53 75 85
-0.132831 2.84324 -12.6389 53 57 67
5.82691 -7.07811 12.0969 23 44 45
-9.56485 5.91726 3.69108 17 16 19
-4.07933 -4.60205 -15.4063 48 68 77
-6.60457 -10.1382 13.8284 46 65 75
2.4034 0.724127 -12.4577 55 64 69
3.58708 2.4993 -12.7147 33 14 15
5.02981 -4.84488 -8.45477 68 43 48
-10.003 5.3007 3.67687 19 19 25
11.0158 -7.73886 3.50521 42 33 39
3.36613 -4.64698 -13.101 29 23 7
2.69794 -2.19854 -12.5923 59 63 70
-13.7206 -9.6733 -0.200415 51 70 81
8.40866 4.88064 -0.885978 75 39 3
-10.5466 4.38454 13.6055 34 33 37
8.43686 -8.55891 -14.6632 27 24 7
9.22617 -7.13862 3.41931 39 33 40
-13.0735 0.914371 2.86884 10 11 16
6.89966 -5.04376 6.42623 46 53 59
-1.64067 12.2671 13.6309 18 19 18
-9.48104 6.5533 2.56938 35 36 38
-2.39052 14.0918 13.4454 34 39 45
-3.56094 16.8979 9.07698 49 65 73
3.81462 -10.8266 13.4024 28 43 32
-5.39918 12.8165 -10.0559 15 17 19
10.6133 -7.20447 6.95882 21 30 25
3.23 3.75382 12.7548 23 21 28
-12.6388 1.23853 1.75113 9 9 13
0.0986097 -3.21077 13.0263 42 60 65
-0.0774209 15.1437 9.04981 51 66 72
8.80574 -7.22352 1.09423 36 7 9
3.95504 -8.3847 13.2786 30 45 34
-5.13298 12.592 -1.40921 21 23 28
-12.6008 1.56322 -9.65031 20 19 24
-8.85292 -11.2931 -15.9401 21 34 37
2.52512 -11.1624 -17.2034 15 10 6
-3.18267 14.6552 -3.22227 39 12 13
2.9287 4.55029 5.71027 45 32 29
8.10879 -5.23414 -9.89034 29 21 8
3.97128 -9.19779 13.2565 13 29 18
-13.5776 -10.2112 1.55904 43 64 71
7.10101 1.07419 7.38203 39 56 56
5.17959 -3.36892 -6.44194 55 62 75
0.407203 9.11851 9.07965 39 40 41
4.79946 1.30869 9.97817 30 29 35
-11.7004 -1.02399 -12.0841 45 64 73
0.76855 -4.56554 -12.2246 52 61 68
-8.59589 -5.46372 -12.8823 55 73 79
-5.11364 13.4028 -6.2189 24 23 26
4.69858 -3.076 -6.47552 52 64 72
-7.89688 9.04771 -6.8493 21 21 27
-0.903461 10.8371 -5.11408 40 34 35
-7.98872 8.64015 -4.10017 19 22 22
-1.62371 12.6395 3.89731 43 31 33
-3.57967 11.0095 -12.5235 49 58 64
-3.60135 -6.31602 -15.5102 53 65 73
-11.7943 2.52584 -5.10518 15 15 19
7.03313 3.96378 -5.7064 68 38 7
9.35817 -7.30075 -1.97571 32 16 17
-6.63868 10.9729 6.82528 16 21 25
1.13351 7.50815 -6.58916 42 26 28
-7.06708 9.95048 2.94962 24 27 28
-1.26372 11.9372 -0.0932865 34 24 24
-4.47843 7.45038 -12.0142 56 67 77
-13.0231 -9.19581 10.5906 48 67 77
0.280161 4.21183 -12.1572 50 63 71
-4.75107 14.1485 2.48843 14 16 22
-8.97841 4.31708 13.6453 48 59 64
10.7022 -6.60018 6.36047 29 48 43
-1.04517 11.2106 -0.168606 33 15 17
8.81204 -4.71301 4.57501 58 66 76
10.4942 -7.24994 -4.06574 38 30 34
-0.458203 -1.41208 -12.2279 47 59 68
0.789606 -8.69014 13.3404 38 62 71
-12.4782 -5.40157 -12.1513 46 70 81
-4.27436 -8.88712 13.5239 47 66 75
-9.90033 -8.3642 13.4415 52 72 81
-6.75057 10.0664 0.620924 24 20 24
-6.79782 10.7478 6.67568 27 32 36
8.39042 5.10639 -0.597034 75 44 0
-5.15906 -3.2926 -15.4718 48 64 70
-8.91711 8.0011 -12.5476 35 38 37
8.29284 -9.11 -15.0701 37 36 20
7.87467 -7.69246 -14.24 51 55 63
-12.0535 2.42966 6.75126 29 31 34
-13.6053 0.607216 -12.4816 56 55 59
10.2349 -8.08334 -1.79309 41 31 31
-2.37663 14.0072 9.19021 44 61 75
-2.59588 -1.07634 12.7657 45 63 72
-0.848085 7.1938 12.3665 35 58 68
-1.64784 -2.08898 -15.4979 52 65 69
-1.28866 -11.6016 13.7169 28 35 39
-12.6519 1.63152 -6.24968 21 18 23
-5.85835 12.3642 5.71162 27 31 33
-8.62363 8.03577 1.1067 30 31 33
-12.0615 -8.34768 13.5818 62 78 83
-4.5767 14.3556 5.47257 18 15 18
-8.08679 -6.82828 -15.6678 48 70 72
0.0573406 -11.4605 13.6607 38 53 56
4.30225 -2.98246 -7.49596 49 58 72
10.517 -7.52775 3.3935 55 41 48
-3.65802 13.9771 -13.2902 57 57 59
5.81947 3.42419 5.69189 65 37 4
-13.4395 -5.70221 -11.3909 54 72 79
-12.8085 1.06276 6.54448 7 8 15
0.944444 -10.1499 13.4658 44 52 58
-4.46952 14.3784 -3.39174 31 31 35
3.64571 -4.55456 -12.7534 32 27 14
-6.95761 10.381 -6.79122 29 31 34
6.89349 6.64849 -0.230785 75 44 23
-1.70452 12.0133 -11.7184 33 20 19
-2.97257 14.2006 -9.25019 34 10 13
-11.9168 2.43973 -1.14475 14 13 20
0.14219 -3.30212 -12.2943 53 60 68
-4.41628 11.1525 -12.7952 51 57 61
-6.14949 11.9611 -7.28711 29 26 30
-0.1682 11.1378 8.97653 49 62 69
6.23484 -7.0327 11.9868 2 18 14
-9.90891 1.06151 -11.9371 41 59 69
5.64747 -5.09914 -11.19 12 16 9
9.13974 -5.9748 -7.64686 28 29 18
1.45143 -6.15671 -15.1272 31 38 30
0.581944 8.39959 -8.2548 45 27 32
-4.89028 14.2879 -12.6735 26 24 26
8.03994 3.15263 6.28519 51 31 7
-1.24337 10.873 -8.97161 37 23 24
3.75617 -8.40328 13.3154 28 44 33
-5.05132 2.4879 -13.5731 64 45 26
-10.1567 5.321 11.8201 25 25 30
10.5813 -7.00945 -8.96646 43 38 28
-13.0267 -9.63989 -12.6414 54 74 81
0.420233 9.24771 7.00197 46 48 51
-11.906 2.38597 -2.87442 11 10 16
-8.51129 7.66956 11.447 24 25 30
-10.1039 5.45219 6.49417 24 30 32
5.57157 -9.15619 13.406 6 21 13
5.54033 -5.38433 9.9014 35 54 61
-10.2105 5.1405 9.55879 20 26 31
1.48298 6.57542 -5.48668 35 27 33
-6.85491 10.9831 6.43643 30 34 36
8.85772 -7.17154 0.513748 35 6 8
-9.84892 6.3026 -9.60842 32 36 38
6.36876 -8.01569 -16.2376 29 30 19
6.27303 -10.5219 13.7434 13 28 18
6.59277 -8.47847 13.0622 0 14 1
-7.18235 1.87891 -14.1776 60 43 17
-12.3945 2.129 -6.77402 13 15 22
-12.8963 -4.69076 -11.2366 51 71 78
-1.6388 -11.0992 -16.1898 12 8 7
7.76852 1.58401 7.05594 58 38 23
-4.11686 6.94309 -12.0677 51 63 72
-12.9786 -4.61137 -5.13606 54 73 82
8.97029 -5.0651 6.96739 33 49 48
-3.06697 4.48773 -11.9425 50 57 68
-12.2479 2.21101 -2.75705 16 16 22
7.69643 0.281555 -6.40245 54 58 66
-9.59524 -3.26304 -12.1149 51 73 85
-5.69512 5.77866 -11.9354 45 57 64
0.490079 8.93645 6.25371 35 34 35
-13.9735 -9.76706 -10.5219 57 79 84
8.25911 -3.21203 1.87999 36 19 19
-6.18169 -0.246418 -15.9501 62 38 8
-11.4263 3.72888 -10.5206 28 31 34
0.969521 8.22774 12.27 37 44 47
10.6804 -8.0335 -7.094 30 31 22
4.79383 1.02321 8.05247 14 12 18
9.86934 -8.44554 -12.9688 44 51 41
-9.74909 -8.89856 13.8019 53 72 79
7.43876 2.1801 6.59855 71 41 4
-9.09476 6.29459 -13.3069 50 54 59
4.8505 -0.790753 -6.29637 52 67 72
0.703555 2.34152 12.366 34 55 66
8.19285 -5.80992 8.0802 22 28 22
8.39012 -1.81356 2.19159 46 41 50
-6.8073 11.053 9.91013 26 30 35
-0.833686 7.97434 -13.0712 52 58 59
-10.1336 -6.54588 13.278 53 74 80
-12.6338 -6.89758 -12.5179 55 71 76
-11.5357 2.66317 6.41538 15 16 20
-10.573 -4.82184 -12.3415 47 69 78
11.1738 -8.28661 6.30942 24 36 32
3.96612 2.47625 10.5932 22 22 26
0.170143 9.49575 10.4145 31 40 44
-12.2058 1.5078 6.57445 14 13 17
-2.07582 12.8417 -12.8522 39 24 24
-13.4323 -6.34537 -5.7626 55 79 86
6.57015 1.8687 6.70472 24 16 17
-4.71436 3.0962 12.6413 44 67 77
-2.34372 -3.20594 -15.4936 52 68 77
-4.80275 13.5523 8.7873 16 18 22
8.89174 -6.13042 9.34199 16 26 17
-11.8091 -8.78801 13.6887 56 74 82
10.176 -7.82438 -12.0072 39 42 33
0.896917 0.840794 -11.9752 54 69 75
7.66076 -5.70655 8.54067 47 42 40
4.55189 1.60735 12.3307 26 26 29
4.95546 1.07528 -7.49205 60 38 11
-2.19314 13.1562 1.99445 38 22 24
-8.31423 2.07337 -12.9545 40 54 59
-13.0522 -5.43269 -12.0824 50 71 78
-3.61902 7.27305 -12.0615 52 65 73
-13.5052 -10.8397 -12.6858 27 37 41
5.91303 -11.4538 13.7758 23 37 26
-11.4427 3.64989 -5.53862 33 35 37
-7.96983 1.25636 -14.9649 61 45 19
-8.8742 7.20262 6.2083 21 23 27
-13.3429 0.791679 -10.12 15 16 20
1.1849 6.70893 -10.0275 31 23 23
-8.76301 7.20928 5.78732 22 25 28
9.80276 2.49501 -7.04737 70 55 43
-7.70688 9.62056 -2.41807 31 35 37
-9.55595 6.36195 0.158375 31 29 33
-2.53234 -6.64064 13.4043 47 64 69
-8.44063 -4.90908 -13.2098 57 73 77
-10.6916 4.06786 9.27866 18 22 26
4.26862 -1.26609 -7.80547 49 57 65
5.9087 1.33268 6.84127 12 8 15
-12.6115 1.49089 -9.87991 19 19 23
9.85483 -7.57021 12.2818 9 26 17
6.59487 -0.318291 6.23675 42 64 73
-3.19471 11.4699 -13.0569 45 60 65
9.02526 -4.98929 6.83701 37 55 58
0.329711 7.78314 -11.0518 39 32 33
2.4861 -9.94044 -17.0769 30 41 32
-7.63227 9.64068 -0.957774 26 31 33
-11.3802 -9.17922 13.627 50 72 82
2.58515 4.80153 -7.56652 41 31 32
-0.248667 9.39679 -12.1394 35 25 25
11.0189 -7.69849 -5.31344 27 24 12
0.792059 -6.91908 -16.4268 33 44 31
-0.281915 9.82027 9.85476 30 30 35
-9.58354 2.92794 -12.2717 43 57 63
-4.92751 -6.79173 -15.478 45 65 74
-9.4619 6.38837 2.39553 31 30 33
2.39851 5.81052 -3.65271 53 36 29
-13.2633 0.574867 -1.15108 17 17 21
-8.58891 -5.0329 -12.5041 56 75 83
8.7283 4.70859 -4.20024 66 34 10
-10.0534 5.4622 6.10222 25 31 33
-13.5076 -9.00281 3.04971 43 63 68
-10.5401 5.06153 -9.15903 31 36 36
1.66494 6.80565 -3.90337 42 26 25
-10.304 4.51644 8.06207 19 21 27
-7.51072 -9.52208 13.7599 49 70 81
-0.58521 -8.79495 13.4943 39 61 69
9.49943 3.70412 1.92733 58 39 20
-11.1503 3.65373 -13.1749 47 55 57
-7.96428 9.46356 -12.385 36 37 36
-9.75636 2.55561 -12.2962 45 58 66
-12.2784 1.59407 8.4093 13 12 19
0.381007 9.30029 11.5599 44 51 53
6.68269 -5.10337 -10.1791 19 33 20
6.54237 -9.31879 13.606 3 21 13
-8.99375 7.07779 -3.76046 23 23 25
7.57699 1.18354 7.35353 45 53 61
3.648 -9.17297 13.3008 17 31 23
3.44303 -2.89279 -12.7619 59 65 73
-12.8163 -6.86163 10.7379 51 71 80
3.73843 0.997005 13.6877 35 48 54
-13.8654 -10.705 -1.03447 32 35 37
-4.19121 14.7781 12.1896 35 45 50
0.317071 16.139 7.22158 62 77 89
0.454142 -2.04753 -12.2916 55 62 71
-8.00656 -6.60368 13.422 53 70 76
-3.29412 -10.126 13.7288 46 66 76
-0.491423 8.43539 13.035 28 44 52
-1.33148 11.9377 11.3193 26 28 35
-2.65945 -1.1991 12.7314 44 63 72
3.69358 -9.72703 13.3874 24 42 30
-5.56414 12.2228 12.6862 18 26 30
-11.462 3.53772 -3.63064 28 31 33
2.38646 -3.38664 12.9496 42 58 66
7.51576 -1.15715 -6.2697 56 65 74
7.66831 0.153445 -6.29679 55 59 68
0.517587 0.760076 -12.1735 58 65 72
-13.1229 -6.93752 -12.4338 56 72 77
7.68189 -5.14837 -6.9913 16 18 20
-4.91687 1.01911 -15.0208 65 38 5
-8.80592 7.10558 0.957543 26 24 31
-2.1631 5.92643 -12.0686 55 58 63
-11.5121 2.87227 9.11892 18 17 22
-12.3786 0.808388 -13.1172 43 54 59
0.434985 -3.5774 -12.342 52 57 62
-3.12505 17.1264 8.98967 45 61 70
9.78774 -6.90263 -11.5552 30 16 3
-6.66214 11.3131 -8.77075 28 28 29
-3.56579 13.3939 13.6396 30 46 53
10.3209 -6.85834 -4.33634 51 42 48
-3.67568 16.1422 6.84585 43 63 73
-0.152818 10.093 4.23232 40 26 26
-9.13445 7.00755 8.13387 21 25 30
10.8818 -8.15253 1.35118 50 34 35
11.1317 -7.86848 3.54957 42 33 40
10.2082 -6.35066 6.72267 29 42 35
9.45434 -7.3456 -3.72918 46 41 49
-4.98487 -6.9684 13.373 45 68 76
-7.05285 8.25997 -12.9635 50 54 62
-13.281 1.10846 -12.3954 21 25 28
6.07521 -9.08336 -16.6645 34 36 26
8.18613 -3.12481 1.31215 35 12 7
-2.68182 4.6815 -11.8935 46 57 66
11.5821 -11.2325 -0.452465 46 43 45
-9.24561 6.81916 0.0299816 30 31 35
-3.97416 14.7499 -3.28325 27 26 32
-4.09211 2.05522 -13.9266 58 41 14
-8.95117 7.20881 6.90287 19 21 25
1.72782 -1.32642 -12.3135 59 64 74
-4.46432 14.4795 9.62094 28 33 36
4.88169 -5.33029 9.82719 51 71 75
0.798292 7.43537 -10.4049 32 21 25
-6.60921 11.0728 -7.17318 20 20 25
-8.10294 3.61708 -12.1777 57 68 71
-1.7803 2.00487 -13.9188 62 47 18
5.33404 5.83352 3.49869 54 35 14
-7.09386 9.94679 -3.90141 21 21 23
-3.97239 7.17595 -12.0751 51 63 74
9.20221 -8.0712 -13.7496 33 34 27
-12.8257 -3.99624 -8.58196 50 73 81
1.66988 -3.64998 -12.2228 51 62 71
-0.137566 10.0165 -0.776999 35 18 23
-1.74113 12.2789 4.63853 45 42 49
2.57742 4.87838 -5.975 38 25 30
0.810141 -8.21059 13.4179 39 61 72
8.53406 -7.14124 1.3584 34 4 10
5.47726 2.55238 -6.71822 76 43 6
-11.7758 2.45859 -3.06876 15 16 20
-7.12332 10.0066 -7.30501 21 23 25
2.28375 -11.2305 -17.221 17 9 9
3.24465 -7.01901 -16.0708 36 43 34
-1.02253 -5.66498 -15.4709 36 42 34
-8.58013 7.89243 0.156662 32 28 34
-8.74673 7.85633 -11.0996 24 27 33
-6.16759 11.7546 -5.31026 20 19 23
7.08344 6.51073 0.533405 64 40 4
2.40452 4.68025 -12.7995 42 35 39
-4.12407 -9.01244 -15.8286 50 60 66
-6.08296 8.73515 -12.4723 47 57 63
-10.3397 -6.50844 13.1513 51 74 83
0.814168 8.43731 6.95363 41 43 46
-0.159639 9.88888 0.736958 37 15 15
-14.0993 -10.3946 -10.3209 35 46 51
-7.20354 10.0001 -11.4738 20 22 24
-3.77656 3.92415 -11.9675 45 58 66
10.695 -7.74222 3.2884 46 40 41
-4.90551 13.16 6.14436 33 31 34
-13.4506 -9.77449 2.31363 43 65 74
-10.5392 4.46074 1.36567 18 15 20
1.47039 6.74256 -5.69077 35 20 24
6.87477 -1.22631 -6.30162 52 61 70
-8.84689 7.47189 -12.0604 24 23 26
8.35814 -6.35754 -12.592 26 16 5
8.83292 -6.94205 12.5431 15 32 22
-0.151921 -1.58689 -12.1756 57 67 76
-0.340158 10.0588 -3.33755 31 14 16
-9.44537 6.62893 -0.280599 33 32 38
1.37411 6.95732 13.6499 36 44 48
-7.37915 9.02618 -13.3405 50 61 63
4.6476 6.98594 2.11856 54 36 11
4.96342 8.14446 -1.70542 70 36 2
0.0257916 9.74263 -4.30077 40 31 30
-1.78235 -7.86673 13.3158 45 63 69
-6.23854 11.8306 -8.73374 29 28 30
3.77612 2.35601 -9.60867 33 12 17
-13.1796 -5.51672 -0.66802 49 73 84
-10.576 4.95557 -3.82436 35 39 44
-4.35492 14.5506 0.162279 23 24 30
-12.43 -7.71716 13.1871 54 72 73
9.33348 -8.39408 -13.6964 40 41 45
-2.01515 12.4203 -12.7349 33 16 17
4.02362 6.15995 -3.2617 78 43 7
-1.36539 12.0426 -3.40527 38 21 20
-0.601007 0.107553 -13.0879 61 60 68
-5.16809 -11.3945 13.8466 32 36 44
-4.18064 0.774364 12.7382 47 64 72
3.54454 -8.29333 13.3485 15 32 22
-3.63431 -9.30061 13.6674 46 68 79
-0.993438 11.3348 -2.49597 37 21 22
3.75315 1.1961 -13.7444 58 60 66
-4.69578 8.40529 12.0501 39 60 60
-0.671274 13.7799 5.11216 66 77 84
3.03492 4.61132 13.0413 43 42 49
4.06674 2.20105 -10.6261 35 24 26
-0.110769 -10.1471 13.3947 38 60 68
-3.20209 14.3909 -10.5742 27 13 11
-9.783 -5.14541 13.0976 50 72 81
2.38217 5.032 6.27154 20 19 24
-6.76985 11.1224 9.45081 27 28 33
-7.9373 8.83196 -2.24834 23 23 25
9.19075 2.94419 -6.98933 75 40 6
-8.17452 -2.50437 -13.7158 58 75 80
-8.75377 -6.3725 -15.5829 56 72 77
-0.086688 -5.01351 13.1181 43 61 64
-1.23952 11.945 -2.15298 40 24 26
-9.7319 6.39198 -3.80602 27 31 30
-4.24745 14.6377 0.333914 20 21 26
-0.764701 -10.7448 13.5692 41 59 68
-0.219827 2.25202 -13.0034 59 60 64
-5.32082 11.3117 13.6541 39 57 62
-7.20166 5.73212 12.6952 41 58 65
7.3896 -8.9943 -15.9419 36 37 29
6.30051 -6.58038 11.6486 7 22 15
-11.5125 3.5178 -6.45524 27 30 31
0.62811 7.41451 -11.1339 35 28 32
-7.04872 10.7664 -9.88418 37 37 39
7.24493 -9.92229 13.7277 29 42 35
-7.82704 9.21906 -2.1438 27 25 28
10.4443 -7.44702 -10.6103 35 30 13
-0.751155 -2.29853 -14.4876 55 61 69
-5.1259 12.9415 -8.72386 21 22 24
-3.82696 14.8195 -0.371945 37 35 37
0.645363 -1.07301 -12.1745 54 62 73
9.94383 -7.7171 2.93099 42 30 31
-1.81984 0.535511 -15.3275 70 40 4
7.27859 -3.82887 -6.28541 55 66 74
-1.18202 1.7516 -14.1829 66 44 16
-7.08441 9.8855 12.0259 13 16 21
-10.392 4.56927 11.6121 19 20 21
-11.5063 3.5167 -6.72309 28 31 33
-1.21509 11.8684 3.26862 38 24 26
3.92061 -8.21015 13.3068 31 47 39
-0.646984 0.298434 -15.5578 71 40 5
5.51879 -10.8704 -17.0609 24 29 14
0.399888 15.1213 6.77269 57 77 82
0.0664577 -1.49198 12.7198 39 58 68
-13.2626 -7.51596 2.11177 47 65 73
-4.51982 14.4473 -1.77007 21 21 22
-13.1714 -9.79941 10.2036 49 67 75
6.88169 0.0675054 -6.41254 54 59 68
6.37804 -6.01563 -13.4073 26 22 12
0.807201 8.64064 -2.46217 44 28 30
4.5199 -5.54871 11.1072 46 68 74
7.11804 -5.84655 -13.0708 21 25 15
8.86457 -5.28921 7.21989 31 46 38
6.00966 4.8689 4.46276 61 37 8
5.8554 -5.11641 -10.8916 3 25 12
-13.3445 -6.36506 -4.85023 57 75 80
2.71771 4.49631 -8.16253 40 27 27
-5.97771 12.0253 2.22351 23 22 25
7.36088 6.29675 -2.93037 64 38 3
4.83694 0.991661 7.75557 21 21 26
1.2407 7.36298 4.7022 31 33 35
-0.173762 10.2264 11.1538 37 40 41
-1.96424 12.1602 -10.5007 33 18 20
-0.957223 -3.12247 -14.998 57 68 76
-12.2803 1.95633 2.90075 13 17 20
-11.1667 -2.11839 12.7067 49 73 82
-7.81003 9.5763 -3.09786 23 19 25
-6.2072 6.31329 -11.9944 51 59 70
-5.34932 -2.00384 12.679 47 71 80
4.18281 6.17044 -3.24433 77 43 10
7.86122 -6.57475 11.7993 4 31 21
4.08131 6.84918 2.06526 50 32 9
-1.16866 10.9361 -10.9403 34 21 22
10.8525 -8.2918 -7.15693 31 33 23
2.44464 -10.9492 13.5616 44 59 65
8.28649 5.01956 -4.54169 74 41 5
6.52081 -4.93545 -6.69091 49 57 66
5.82921 -5.44692 10.0319 27 46 48
-6.628 11.0236 11.8976 23 27 30
-13.5884 -8.40496 -2.32645 55 78 88
-12.8508 -8.89132 10.8264 48 68 78
11.0912 -8.27702 8.54417 24 41 31
1.47416 7.18061 1.63443 23 25 30
-10.3255 4.98981 -3.09336 14 14 18
8.47489 4.8839 1.52502 72 35 2
7.70664 1.80746 6.74243 66 37 5
10.6625 -8.30361 -9.99436 38 42 25
7.16854 -2.18836 -6.1782 62 70 82
1.66508 0.820066 -11.982 54 68 78
-0.754212 11.4217 12.9753 32 38 40
-13.3563 -8.73898 5.67725 46 69 79
8.23902 3.69199 -6.02023 76 42 6
-1.9548 12.2719 -11.3878 33 14 16
-1.03159 9.18309 12.883 28 46 55
-3.17508 17.3292 8.30589 41 58 66
-1.64336 12.7422 3.20058 40 31 30
0.213141 0.270748 -12.4415 58 69 76
-8.79996 -4.67626 13.2657 55 72 79
0.94686 7.74262 -1.85066 55 56 63
-2.46106 13.9705 1.95593 40 28 27
-5.23442 -5.0041 -15.6781 51 64 71
0.0856352 9.19968 -3.63529 37 17 19
3.03739 3.55528 -11.7881 32 24 26
1.84489 -8.91348 13.4371 40 57 63
9.21438 3.24354 6.28663 55 42 11
-13.0999 -7.21238 7.61186 48 70 80
-10.2903 4.59704 7.33274 17 19 23
11.583 -10.978 2.79065 44 40 39
-12.5092 1.84959 -2.92381 15 14 18
-0.214638 9.83093 2.12514 36 19 25
3.8689 -3.29632 -12.6188 58 61 63
4.63323 -8.31736 13.1965 28 46 37
-10.1561 5.08687 11.3624 31 32 32
6.47487 -9.63976 13.6482 9 20 17
5.04473 -10.5301 13.5291 4 26 8
0.985781 7.06057 -11.5172 29 20 22
-2.89424 13.5115 -9.57069 28 9 12
-6.66361 8.1876 13.3948 42 55 62
-10.6537 -11.0061 -12.7097 16 36 40
-7.82378 8.71363 -10.6589 28 30 30
8.31852 -8.76351 -14.9524 40 36 26
-1.32139 11.0754 -9.75816 38 23 25
8.70344 -10.945 -14.8739 30 36 26
-10.5835 4.23706 0.384615 15 17 21
-13.5032 0.589336 3.79581 21 22 23
-11.7038 -11.6881 13.8724 22 33 36
-10.3429 5.27974 -7.14689 23 26 30
-5.2587 -8.97256 -15.7259 41 61 71
-10.1081 2.26624 -12.3956 46 59 66
7.11798 1.49819 7.23051 30 40 47
-1.70028 9.90095 -13.4129 50 66 74
-12.3636 1.56683 0.50704 19 19 23
6.14009 6.1717 -3.64469 71 38 6
-9.62859 -7.94744 13.3653 53 74 84
0.313951 12.7728 8.23477 62 78 92
-4.05799 -6.01302 13.2291 44 65 77
-4.72989 8.18139 -11.9844 47 61 73
-8.91472 7.13931 13.3997 21 24 27
-4.66814 -10.217 13.7723 50 66 75
1.34877 7.23117 13.5721 37 44 48
-8.00091 -1.26714 -14.343 56 74 79
4.754 9.14239 -0.203032 48 30 24
-7.35159 1.23397 -14.7939 59 43 13
8.55322 -0.424901 -6.32217 64 66 78
-2.39137 17.0094 5.18972 63 67 73
-2.56478 -10.8745 13.6783 43 57 63
-4.97039 13.5437 -0.016695 34 35 39
-0.850021 -2.66687 -14.6584 54 62 70
-6.30412 2.03549 12.6981 47 66 76
-1.92904 -10.7209 -15.9345 21 28 24
2.78018 7.89581 -1.54237 64 42 3
-4.80998 13.8025 -7.15474 14 16 20
5.90038 -5.41474 9.8587 29 48 52
8.96642 -2.05264 5.7076 56 70 79
-12.6018 1.98417 -9.53835 27 27 31
-0.832147 10.61 -12.7113 45 39 39
8.48516 -0.327307 6.23426 51 62 67
-13.5968 0.562244 -11.2063 26 25 27
1.63834 8.10314 -1.35134 44 34 35
10.6555 -7.18723 4.78183 38 39 35
-11.1751 3.54311 2.49416 14 15 18
-9.47808 6.68288 -6.63832 28 27 29
-6.80735 11.147 -7.85878 30 30 34
-10.2463 5.18772 5.52615 31 36 38
-1.66208 12.7227 1.1876 44 27 29
-9.31336 6.83703 4.58216 27 28 30
-3.38527 -10.6759 13.7877 46 64 74
-4.20315 -8.97068 13.5738 46 66 74
-2.40012 13.3604 -4.95657 30 8 12
-2.00706 13.083 0.370932 36 21 23
-12.5595 -4.35763 11.3928 45 67 76
4.74876 0.897793 -9.02123 30 7 10
-2.84127 -6.34014 13.2901 46 65 72
-4.97502 14.1218 -11.4417 33 36 40
2.08045 -6.85372 -15.5765 26 30 21
-10.6822 4.00058 1.98386 15 20 24
-11.2535 -7.89313 -12.4368 49 71 80
-12.5191 1.36421 8.68529 9 9 15
6.21736 7.49836 -1.60509 72 37 3
10.2743 -8.0653 -2.92512 42 31 32
-11.1654 2.99174 11.1055 18 16 23
-5.67357 12.4328 -9.17026 19 21 26
-7.93678 1.43363 12.6429 45 68 80
-1.62168 11.9802 -7.13873 34 25 22
5.68518 -5.41323 9.96578 30 50 54
1.97855 -10.6637 -16.8682 21 27 13
-11.7006 -4.2764 13.1943 52 76 86
2.72388 4.80477 4.78078 41 31 27
-8.57328 8.15681 -13.1173 40 46 43
-11.7637 2.55248 -8.86789 16 15 18
9.13132 -6.45872 9.46775 6 19 12
5.32308 -5.58482 10.7809 33 54 58
-7.26649 5.38164 -11.8871 45 61 70
-5.15278 13.3867 -6.81464 25 30 31
-6.84324 1.32913 12.8106 50 66 73
10.9473 -7.75923 6.80376 7 20 16
-13.2227 -6.54391 -3.87126 54 74 82
2.5214 4.84274 -5.32664 36 20 23
9.47418 -6.01533 -7.80884 33 32 25
5.02237 0.673644 -8.14502 35 19 20
5.14459 -0.190418 -6.58249 48 52 65
-4.93411 14.2256 -9.30492 19 18 21
10.4349 -8.50084 -12.0211 46 52 45
-7.06809 10.202 -10.3719 31 30 34
-1.7356 12.4615 -3.21232 40 16 16
4.97902 0.963276 12.1511 27 29 36
-0.848761 -4.01171 -15.1311 60 67 72
6.77431 -3.19406 -6.50935 58 66 75
-6.24695 11.8172 -11.1823 28 29 33
-0.921215 10.5968 -10.3484 31 19 19
-12.8033 -4.13106 -1.71859 49 71 80
4.65775 -8.46662 13.1864 28 45 35
-10.2333 5.15759 -10.4426 24 21 28
-9.4585 6.61589 6.60025 24 29 30
-12.6214 -4.69364 7.81298 43 60 70
-0.417456 -10.3739 13.5378 40 60 71
5.01453 -5.85737 -13.3168 31 29 14
1.3231 8.5269 0.0489798 21 19 20
-6.80281 10.0995 0.332085 19 19 21
-12.2775 1.68348 2.99455 15 18 24
1.42212 6.42425 -9.68886 31 17 18
-5.86337 4.02969 -12.1576 47 57 65
-6.45838 11.163 10.4377 16 16 20
4.06029 0.348439 -13.3109 53 54 55
6.0058 -5.89065 -13.2851 23 10 5
6.64682 -6.44453 11.8592 14 28 22
-13.2863 -6.52108 -2.92907 53 75 83
3.45693 2.80694 -11.2257 32 16 18
4.50001 2.44507 -6.7079 76 48 24
-8.36089 7.85092 13.5458 24 27 32
-3.6522 0.311564 -15.5266 64 37 6
-1.23256 -10.4169 13.5853 44 61 68
9.58195 -10.0915 -13.7594 41 50 38
10.791 -9.577 -9.51063 40 45 39
4.01375 -7.18185 13.0378 7 24 17
-10.7002 4.4638 -6.524 18 20 25
-3.72491 14.7115 5.99748 27 34 41
6.10422 7.87297 -0.484938 70 37 4
-3.58404 14.7972 10.736 37 50 54
-13.2921 0.703659 2.27489 12 20 25
-11.95 2.37905 -10.8784 20 19 22
-7.11929 9.96511 -4.10928 25 25 27
-0.549665 10.8542 -0.524769 41 30 29
1.93447 -2.33382 12.5739 33 63 74
-1.41363 17.4386 7.31323 52 59 61
-10.0825 5.4271 7.02164 27 31 36
7.70972 -5.78538 8.30874 44 42 41
-10.3093 5.04941 0.738646 25 27 30
-12.6957 1.0123 -8.9944 9 14 20
-9.06838 -10.9386 -15.6514 25 36 37
6.18179 2.60311 -6.75281 79 47 1
-1.70077 -3.4645 -15.6478 47 64 70
-3.94467 14.7541 -7.5647 23 19 18
-6.64992 10.4101 12.2191 14 18 21
1.62567 6.96761 2.87761 34 38 38
-3.63853 16.2484 7.03088 42 64 74
-4.92234 13.1447 -1.14115 25 27 30
-1.48039 17.3744 5.62167 55 58 63
2.30101 5.77838 13.2554 45 45 49
10.193 -8.62733 -12.469 36 35 27
-8.34249 -0.144287 12.6838 49 70 77
-7.27671 -8.78357 13.7306 52 68 75
-1.81883 16.6312 5.16722 74 87 92
-1.87983 12.9972 11.0002 32 34 38
-13.0427 -6.64799 7.34225 48 70 79
11.2578 -8.46388 6.18682 30 42 38
7.98044 -5.79197 8.64102 36 37 26
9.38171 -6.53277 10.0199 17 38 24
-1.03255 -8.02876 -15.9563 32 39 27
-5.38408 12.7697 5.68006 26 26 28
2.62073 8.85215 -0.0867634 58 35 6
-2.05925 13.5039 5.26765 64 68 78
0.415618 13.802 5.39774 68 78 86
-12.5326 2.11033 -8.70079 25 28 32
-10.3129 5.16563 6.72488 30 35 39
-0.819183 -4.40846 -13.779 60 70 80
-13.1475 -7.29014 7.12081 49 70 80
0.61749 -3.82631 13.0287 43 59 64
3.59401 2.86532 -6.77831 44 21 16
-8.67288 7.20368 13.8931 48 52 53
-9.66868 6.39043 -4.69398 21 24 24
-8.0475 -1.82303 -13.866 57 72 79
2.79752 6.63918 -2.4034 77 47 9
-13.6644 -8.90537 -9.19764 57 80 90
-4.63568 14.2944 -1.67088 20 19 21
-2.11625 0.800528 -15.0819 69 41 8
6.22322 -4.85188 6.45118 43 57 67
4.15098 -5.92223 -14.3825 25 27 16
-8.4293 8.36209 -2.69207 27 27 31
0.868053 8.30645 -3.64391 42 26 29
-2.00263 12.4894 -5.79589 46 28 31
1.01555 8.24864 11.3841 46 49 56
-1.74961 11.835 13.6636 24 29 33
8.95643 -1.05234 2.70578 57 64 68
-10.4729 -1.63254 12.9135 53 70 75
3.72397 7.50213 1.5108 49 36 13
-7.48018 9.57762 1.63868 14 15 19
-0.968947 -10.0494 13.5346 43 61 70
-10.985 -9.63076 13.9352 54 77 86
-9.89276 5.65622 -6.43464 25 26 29
-1.964 12.9806 10.524 32 35 37
3.18944 0.302008 13.0104 27 51 61
-7.63783 8.97627 -13.2983 48 56 57
-0.838973 2.12129 -13.844 66 46 18
5.47197 2.36066 6.1756 51 29 4
-9.71215 5.4581 -0.988132 18 17 19
-6.17316 12.0853 -8.66205 34 35 38
-1.76911 -6.12376 13.0494 42 63 72
-0.347271 10.3561 1.85135 35 19 27
1.25319 7.28907 7.37083 34 36 40
-6.0569 11.7472 0.10458 20 23 28
-0.760289 10.2168 -9.1307 35 20 19
-6.83739 -2.91264 13.0695 50 71 77
2.35615 5.13312 10.4169 35 30 32
-8.17886 -2.48484 -14.055 59 75 80
7.36171 0.952023 -7.64827 65 49 42
-8.54761 -3.70642 -15.2581 56 76 80
-4.89035 13.1735 6.87871 27 30 35
2.39361 4.69687 -11.7205 44 37 40
5.79349 -5.68867 -12.9404 23 16 8
-3.74695 14.6066 -9.78571 24 23 22
2.32403 4.95971 -5.21575 32 13 22
-10.8788 -1.11429 12.9332 54 67 72
-9.72326 6.14771 -2.61147 22 22 24
-2.49131 3.34113 -12.5107 65 50 33
-0.679989 -7.56976 -15.8298 28 36 26
-3.51253 14.7769 2.59216 33 26 31
-0.263748 -9.64652 13.2373 41 60 70
-9.67914 5.71772 3.30597 18 24 25
3.75747 4.91999 -4.11115 84 46 8
3.86694 -1.56895 -12.45 59 65 72
7.98293 -6.9995 -14.0515 44 52 56
10.2354 -10.5677 -12.5726 40 50 39
-7.84547 9.11456 -10.6443 23 24 26
3.9477 -10.2347 13.3718 26 37 28
10.1082 -6.27702 -8.09174 37 32 27
-1.87706 2.15835 12.468 35 60 74
-10.6022 4.68068 -6.95362 18 15 21
-6.88934 10.1096 1.76326 20 18 21
0.25893 9.5618 1.8081 40 30 30
-0.579886 1.02842 -14.9335 70 40 5
-8.87903 6.93307 12.671 16 18 21
-5.21902 9.40401 -12.2628 46 59 67
9.29759 -5.94216 -6.99815 27 16 2
-4.92772 13.9849 -13.1562 38 37 41
-8.80768 7.41619 -11.37 24 26 30
-10.0834 3.24993 -12.7724 45 51 56
-12.5927 -4.78435 11.454 46 69 76
-7.51296 9.70107 3.24285 31 33 37
-4.63681 -9.73259 -15.7097 45 64 73
-7.82098 -10.7628 14.1037 51 66 72
-8.52644 8.11666 6.03988 32 39 44
0.423717 9.14274 6.33987 41 41 43
-7.86093 9.55019 -12.0224 37 38 41
3.83518 -6.8626 12.9485 3 20 11
-6.96431 10.6093 -5.20292 25 23 27
-8.54656 7.85591 6.00051 21 27 32
-8.60767 -5.55265 13.1709 52 75 84
9.59583 -5.70858 7.84166 21 36 27
1.79412 -0.670158 12.7136 40 58 67
8.90618 -1.54909 -5.93039 66 62 68
-3.0849 5.706 12.2722 38 59 68
1.92911 -10.4627 -16.835 21 30 17
-4.67991 -4.26401 -15.4276 48 64 73
-2.15969 7.44467 12.0502 37 60 73
4.21948 -1.74362 -6.73988 58 64 72
-0.121065 9.97293 4.46668 43 28 27
4.46679 -7.84878 13.2236 27 45 37
-13.2549 -8.70532 7.57693 48 70 81
-10.1376 5.32893 5.68045 33 38 43
-12.9508 -4.12055 -4.62678 54 72 80
-0.866404 11.3897 12.3954 43 44 53
-6.02307 12.1153 -3.43353 30 32 36
11.0786 -10.1067 -7.64598 36 39 29
1.87174 6.28008 10.3175 33 36 38
1.29739 6.7593 -8.63636 38 24 25
1.80993 -8.44801 -16.7223 25 30 16
-0.245355 -5.19384 13.1235 43 62 64
1.19956 -2.32503 -12.3451 57 67 78
1.42852 -6.50606 12.8457 34 60 69
-13.473 0.644299 4.60335 22 17 17
9.96399 -6.59524 5.08 42 54 58
4.40537 2.74555 -6.17318 76 41 0
1.71812 -4.81203 -12.8186 42 50 47
-0.237854 10.0363 -0.563904 35 14 17
-1.90305 13.0641 -1.68575 36 16 19
-8.24092 8.46271 11.7094 25 28 30
-9.84573 6.04727 -10.1319 24 22 27
4.71973 8.03357 -1.75452 68 37 2
9.60542 -5.6934 -4.44062 58 59 67
0.99942 8.11884 2.93917 39 40 42
-8.06407 4.87416 -12.0218 48 58 64
8.94769 4.30417 -5.40659 71 41 4
-12.6079 1.23417 -9.12764 18 22 27
-7.41635 9.62391 0.453207 26 28 31
5.54784 4.96063 -4.43764 71 37 0
0.291385 9.21268 0.699959 36 16 21
-2.27392 12.8824 -9.82812 38 23 23
-1.09117 11.8566 1.1888 41 30 32
0.668547 -4.96436 -12.9669 28 49 52
-5.68931 12.6219 -10.2354 22 25 29
1.90127 6.18119 11.1628 33 33 35
2.48523 4.32318 -13.0019 35 22 29
-1.14724 -7.77277 13.4516 46 65 70
-0.487373 -3.7867 -12.4022 54 64 73
6.91223 6.65664 2.41411 56 35 15
10.1571 -8.68258 -12.5748 34 34 25
-7.69655 9.69325 -6.36249 27 29 34
-11.8598 1.08382 -13.0142 40 52 58
-7.92146 9.38886 -3.39678 27 25 30
6.69696 -4.81173 -6.56668 53 57 70
-8.09593 8.53085 -3.01564 26 26 26
-7.84354 9.36748 0.509265 32 36 37
-0.343103 -1.21 -12.2175 54 57 66
-12.6131 -7.25729 11.4388 44 68 78
4.80856 -5.3624 10.0012 49 70 78
7.05657 -11.1976 13.745 19 35 25
-7.51725 6.82353 -12.3499 44 57 66
5.13966 -8.09199 -16.3979 27 33 21
0.483792 9.77998 5.11644 47 44 46
-11.4472 2.75663 -4.38352 16 11 16
10.2161 -7.94426 -0.107355 36 25 26
-13.6807 0.355473 -11.8195 31 37 41
-9.07647 -8.90553 -13.1033 51 67 86
-0.903926 11.1087 10.2778 33 37 36
-1.94608 7.52528 -12.014 51 67 75
-12.0963 2.32441 -8.59174 13 13 17
-9.12588 -2.37507 12.9097 51 72 80
6.72301 -6.3366 11.864 21 35 29
-2.12155 5.0654 12.2281 38 59 70
-7.78976 8.92894 3.71192 23 26 29
8.0511 3.61758 -6.04467 76 38 1
-13.8687 -11.1303 1.68895 27 41 44
1.46921 6.2631 -12.2208 31 26 22
-5.13908 13.2735 -8.38389 24 24 27
6.36034 3.47019 5.73495 69 39 2
6.0377 -5.64218 11.0789 23 41 32
-0.493194 10.6835 10.67 29 36 40
-8.01958 5.07151 13.1073 46 64 71
-0.448908 8.59231 -13.5505 50 56 59
-0.858671 11.2091 13.5953 35 36 40
-11.8279 -6.90497 13.3646 55 74 80
0.62499 -5.64996 13.1572 46 60 65
5.09575 0.340562 -7.89849 48 41 45
1.67534 7.37532 0.807446 32 33 36
-3.72045 14.8075 10.9179 31 40 43
-3.68479 2.7192 12.5731 39 63 73
-11.8221 2.6599 -12.3637 16 17 22
7.03383 -6.59688 12.1196 13 29 23
0.933787 5.43161 -13.3308 52 58 64
-11.6147 3.36646 -12.0734 27 27 32
9.33647 -5.41804 -5.50906 58 64 70
-2.44419 12.7945 -13.4162 49 57 63
-7.02382 0.44582 12.7784 44 66 76
-1.44061 1.50266 -14.4581 60 39 13
1.81127 6.17075 -4.84789 36 22 22
-0.369007 -1.39286 -15.7016 55 58 62
-1.92443 17.3025 8.58977 41 57 64
-13.7056 -8.94214 -10.6881 59 77 85
7.56725 -7.8677 13.0449 4 19 8
-10.2367 -6.99743 -12.5076 56 72 77
-10.4754 -7.83548 13.4008 51 72 82
-0.288956 6.66385 -12.6941 51 56 66
-10.1402 1.33534 13.2171 46 63 69
2.95071 4.53353 5.15473 58 38 15
0.576866 4.71547 -12.4161 53 66 77
-8.83699 7.54212 -10.3124 34 32 36
7.51267 6.17889 -1.59462 68 38 5
-4.53781 7.28163 -12.0098 56 65 75
9.85114 3.56718 -1.69031 61 47 13
0.401099 2.78345 12.2542 31 56 67
-13.0448 0.954937 -1.45301 20 19 25
-2.9997 16.7475 9.34503 48 64 71
-8.83467 -9.34517 13.8238 56 71 78
8.30487 4.25027 -5.57178 71 42 5
0.118908 9.59413 -2.37623 40 28 31
-7.92769 9.29683 -3.28507 25 22 27
7.65982 6.10608 2.86682 55 46 26
0.802034 8.30295 -5.00141 40 28 29
0.462746 -5.82631 13.1681 47 60 65
-3.24789 0.103145 -15.4822 68 37 1
-12.0019 2.48257 5.99034 24 29 32
-9.68842 5.72336 6.04885 20 22 26
-10.982 3.98521 -11.0381 20 21 26
-9.8906 5.77911 -6.03105 22 20 25
-7.82981 9.41113 -9.26764 30 29 33
-10.4805 4.24298 4.05315 16 17 21
3.70159 2.33359 -12.0964 30 24 22
2.2089 5.95319 8.99752 38 42 45
-9.6906 5.79535 -2.2453 21 23 25
3.9524 -6.28831 -14.88 26 25 14
-1.47867 12.0575 -2.00962 35 20 22
-11.2401 3.36503 2.3997 14 13 15
4.00193 -0.591171 -12.2477 61 61 64
0.31374 9.7133 7.14753 51 52 56
0.333275 9.45485 11.7426 41 45 48
-9.49787 6.03328 2.59924 18 16 20
-3.89427 -9.91522 13.7217 47 65 75
-11.7058 2.51708 -6.30934 10 12 19
-8.63002 7.69982 1.74304 25 24 28
-10.386 5.14651 -10.2579 31 30 35
-4.99049 13.9235 -6.78678 28 30 33
5.77437 -8.12896 -16.0679 31 36 24
-12.1921 1.54685 9.3787 11 12 16
-8.26863 -10.3989 13.9663 53 68 74
-7.2373 2.4779 -13.6505 56 45 21
-8.02073 8.53527 3.42901 21 22 28
-2.65885 17.466 6.39168 40 54 60
-4.37247 14.4171 3.0362 21 21 24
-4.62794 14.016 9.75223 21 25 30
-11.8129 -8.03297 13.5308 61 78 82
2.57354 -9.48422 -17.1115 34 45 38
-0.708423 9.9631 -9.20125 32 16 17
6.2564 7.05338 -2.92016 65 36 1
0.99486 8.33497 13.3532 46 47 46
1.60433 6.65681 -4.08874 36 15 17
1.1209 -8.20555 13.3044 40 64 73
0.347987 0.247192 -12.3593 58 66 72
-7.94193 -1.37515 -13.8356 59 73 78
-1.20212 6.32379 -12.1818 50 61 69
-7.4274 9.70666 -0.592797 23 28 30
-11.3298 3.12756 9.75315 18 14 17
1.67808 -1.42385 12.7718 49 64 73
8.86205 -5.36859 -8.62149 37 41 27
4.35986 8.05735 -1.62186 75 41 5
-11.9771 -10.4089 -12.6685 30 42 50
4.35295 -3.02821 -7.73173 49 58 72
10.5507 -9.11642 -10.9584 29 32 21
-7.73729 8.8835 12.5428 25 26 29
-2.55975 17.17 9.02345 45 56 63
-13.8203 -11.2582 7.1154 26 42 44
-12.6311 1.93033 -7.09452 29 30 37
-4.4873 14.4418 4.42693 16 17 19
-9.21841 7.13392 -12.9166 26 25 30
-6.25803 11.9768 -9.49004 39 38 42
4.10818 2.15898 7.52576 24 20 24
-5.29644 -2.76035 12.788 47 70 80
-10.5293 4.33828 -0.838436 17 16 20
8.12627 -6.1766 -13.6624 40 58 53
-11.6694 3.26024 -12.9756 38 43 47
-7.04895 7.66297 -12.4892 43 54 63
2.8698 4.68771 7.71221 36 35 39
-9.15363 -9.30774 13.8527 52 70 79
-10.5839 -0.736012 -11.8102 46 67 79
-7.37568 4.07871 -12.1597 51 61 68
-3.28978 14.7648 -0.785333 40 25 20
-4.7726 -4.80788 13.1715 47 67 78
6.87739 6.7927 -1.99384 77 39 2
-12.8217 1.22941 11.9734 20 20 26
6.51943 -0.525431 6.24269 43 61 76
0.430686 7.94291 -9.57888 37 21 22
-2.63926 13.5186 -4.08419 42 18 20
-1.3886 1.06243 -14.8913 66 40 8
-12.3053 -10.983 -12.8692 19 30 33
7.45014 1.32916 -7.80215 72 44 12
4.16513 -4.42019 -10.9726 24 20 10
7.7064 1.40971 -7.81806 75 44 16
5.04825 -10.8378 -17.0796 26 31 15
-2.8645 13.384 -9.94058 30 10 13
-2.20369 -10.7971 13.6375 46 61 68
0.0883293 15.2126 8.98465 54 71 76
4.97702 6.34392 2.54651 69 38 0
1.40945 8.74301 -0.118402 27 22 18
-13.2638 -9.00828 7.01473 49 71 79
1.23361 -0.751198 12.7035 41 58 66
-12.7492 -6.27927 9.59422 44 67 78
8.77397 -4.61876 6.3336 46 63 66
-6.12653 -3.4211 13.2044 53 71 78
-2.15942 12.0554 -13.4507 51 54 56
-9.84234 5.71214 -10.2188 15 20 23
8.15809 3.52595 -6.25197 74 36 0
-1.98016 11.4879 -13.4655 49 58 63
8.3139 -8.61862 -14.9451 42 39 28
-11.9881 1.79855 13.7389 40 45 47
-13.6203 -9.35336 0.634819 47 70 78
10.7131 -9.32927 -10.6702 40 42 29
-9.17642 -10.4817 -14.8906 44 54 57
6.79271 -9.96171 13.6861 11 24 15
3.52076 2.56557 -6.93361 39 21 21
0.224525 3.47032 12.3706 36 52 61
10.7539 -8.31422 -8.32058 37 38 22
-2.05243 15.6616 9.06822 47 68 74
-0.51945 10.6196 12.0143 28 33 37
-6.75557 11.213 -8.295 29 28 31
-4.05625 14.6112 7.82194 28 27 34
8.38786 -9.29223 -14.7504 26 22 9
-1.88962 12.1159 13.6602 18 19 28
9.44468 -6.84061 12.1056 10 33 24
7.62082 5.59365 -4.03752 73 43 1
-5.32572 12.5161 -3.77766 18 22 25
5.56985 -5.55772 10.451 31 50 49
1.38792 -3.93493 13.023 46 60 65
-1.92082 -3.51629 -15.6479 51 62 68
-2.92813 -4.08132 -15.7194 53 67 72
-1.69727 4.8283 12.1747 38 58 69
-0.855616 11.5156 4.66675 47 48 56
-5.6643 -9.17895 -15.8554 46 62 71
-13.0541 -9.17934 10.9279 51 69 79
-13.0884 -4.55926 -8.90174 56 76 82
-0.558314 6.29437 -12.2586 50 60 70
-11.7692 -2.13041 -12.1946 48 65 70
-5.63559 -5.79972 13.4132 49 68 76
-12.3507 -4.01832 12.4471 46 70 80
-6.9449 1.26421 -14.6992 61 46 13
-4.68344 -3.67778 -15.3616 50 68 76
-4.52008 14.4426 5.86386 22 17 23
-3.03373 9.5501 -12.0578 55 74 82
-2.71472 8.28573 -12.1011 53 60 64
-0.180254 9.86276 -2.60313 34 21 22
0.338607 15.9089 6.93044 59 75 85
-3.325 11.8657 -13.2143 47 57 66
4.04437 -1.08668 -12.0365 61 60 66
10.1518 -9.62889 -12.8358 38 44 34
-1.66594 12.18 -3.34043 34 12 13
-4.8502 13.281 6.327 31 31 36
-13.4075 -6.9539 -6.64563 52 75 87
-10.3778 5.14865 -0.51619 29 30 35
-5.30737 12.9082 -11.5612 33 29 33
-1.63636 12.8604 13.5158 39 42 46
-12.2798 -6.49719 12.9447 48 73 78
0.78392 8.51727 7.67633 32 39 41
-8.51165 1.7786 -13.5438 51 62 65
4.8224 9.13528 -0.510778 57 36 5
-4.34924 14.5301 -3.74974 23 24 28
0.418189 7.99505 -9.32198 33 19 20
1.85352 5.66837 -11.2087 31 19 20
-9.84208 6.09272 -6.66402 23 24 24
-1.0022 -1.14609 -16.0997 55 49 49
6.65435 6.04404 -3.95123 69 40 21
-4.34826 -11.6566 13.8897 9 13 18
2.5724 4.83309 -6.92572 40 26 29
-5.26511 13.6189 -9.68696 30 31 35
9.68472 3.56617 5.29219 58 39 9
3.11423 0.827882 -13.0978 56 60 66
-0.111177 1.25778 -13.6337 62 63 68
-13.0181 -4.67916 -6.3694 52 75 84
4.43806 -9.30063 -17.2093 33 43 30
10.6234 -6.87429 5.35854 30 47 42
8.39032 -6.94807 1.58781 33 6 7
-3.43888 17.2449 7.67665 42 59 64
-11.5223 -6.20538 13.1741 51 73 79
-11.3775 -2.02861 -12.145 47 66 77
4.09326 -4.36526 -11.3887 28 26 10
-4.61662 5.39217 12.2567 42 63 72
-4.5009 14.4264 1.29557 13 13 18
-0.0721064 17.0049 6.01468 51 61 64
-7.46133 9.79575 13.2477 32 34 37
7.46295 2.06124 6.58461 71 41 5
1.15336 7.34717 10.4666 28 30 32
-0.977823 11.4057 -2.63195 39 24 25
8.73615 4.67837 -2.51099 66 36 3
-5.79262 12.5096 4.13369 23 22 25
-2.28273 10.237 -13.0648 54 60 64
-12.9775 -9.05515 10.9546 50 69 79
-3.004 0.691193 -14.9499 79 43 6
-8.6593 -9.02661 13.8223 56 71 77
5.85243 8.15907 0.725971 57 36 2
11.3533 -8.34978 7.78944 37 55 49
-1.37554 10.8256 -13.4577 51 41 49
-8.99467 -9.6803 -15.4114 53 68 73
0.467546 8.75662 9.78327 28 35 36
-8.71068 -0.263779 -15.319 55 71 73
5.16568 0.84169 7.41779 18 17 20
0.758639 8.53225 -3.95482 35 21 23
8.83471 3.54057 5.84655 55 35 3
-9.38891 6.79536 -7.38807 25 28 28
-1.88875 -9.3049 -15.8719 34 45 40
3.47562 -11.1896 -17.3539 21 16 17
4.16511 2.95377 -5.90965 88 46 0
4.35286 -4.75463 -6.89133 52 56 63
-11.5273 -3.29584 13.0267 54 74 82
-0.787157 11.0067 1.8863 38 22 21
-8.0801 -1.79259 -12.5347 54 71 77
0.0768986 14.7232 8.91851 55 70 75
9.10596 -6.09179 -10.8002 32 24 3
-9.16125 5.20562 -13.0225 51 52 58
6.23358 -0.5841 -6.3318 53 63 74
-2.1157 13.061 -11.6463 39 25 24
-11.3725 3.7376 -7.75206 28 32 32
-8.73066 7.4054 4.04129 21 24 27
7.51909 1.65186 -7.55354 79 42 4
-4.79088 7.21983 -11.8894 56 72 85
-1.15676 11.48 -6.19006 41 27 25
-11.399 2.79325 -3.20933 19 17 21
8.88026 -1.03275 -5.47126 60 63 67
11.6291 -11.1778 2.492 46 41 44
-2.86889 -5.3703 -15.5678 53 64 71
-13.8576 -9.44128 -9.0072 58 79 86
-12.8501 1.18168 8.30237 11 11 16
-1.09141 10.8266 -11.5454 36 23 24
-6.65905 11.1088 -1.91971 25 28 31
-7.0987 -1.12877 12.9506 49 70 77
-12.7168 1.28832 10.5899 14 16 22
0.84 8.44769 6.05061 38 43 46
1.09709 5.75134 -13.472 51 56 67
-4.67093 13.6277 6.53251 17 18 24
-4.75287 14.121 9.32634 30 33 38
-3.93926 3.97465 12.3888 37 60 70
11.3111 -8.52725 -1.96199 41 37 37
3.21839 3.45782 13.8094 27 32 35
-0.107615 0.0628986 12.4659 35 59 68
-0.00029254 13.5923 9.01767 51 63 69
0.199023 -3.30014 13.016 41 60 65
-7.24405 9.87576 -9.683 19 20 23
-10.3061 5.12022 -6.78615 17 12 17
-5.51113 9.56915 -12.5005 47 59 64
-1.24948 10.9707 -11.8394 33 16 18
-4.2095 13.0463 -13.4502 51 59 60
-7.55868 9.69292 -1.28392 30 33 36
-10.0864 5.02658 -13.2555 48 56 59
-6.85482 10.956 -2.25309 26 31 32
-9.59792 -8.90352 13.8366 53 71 79
-0.646811 -2.11197 -12.5144 56 63 73
-4.77326 -9.96321 -15.7746 43 59 69
-0.11295 14.3066 5.11629 75 80 90
-6.88172 10.1664 4.04553 19 18 23
7.93171 5.54307 -1.67494 64 36 7
2.49352 4.46479 -12.5649 35 29 27
-0.759129 9.51707 13.5082 30 43 51
4.35271 -7.60281 -16.2108 26 31 19
-3.74613 -0.927374 12.7215 43 63 73
6.5383 7.40673 1.63879 46 34 24
-3.93841 14.8261 12.2983 25 32 38
-5.28397 12.7817 -6.61775 21 23 26
-12.1787 2.23289 -6.8563 15 17 23
-0.253372 9.79335 -6.72002 37 27 25
-6.76471 11.0579 8.97964 28 30 34
2.08682 5.17608 -6.38321 32 12 16
8.86504 -7.20221 0.740356 35 7 9
-4.55362 8.35849 12.0122 36 63 67
-11.5109 2.67362 -0.151962 14 13 20
-1.12919 -7.49747 -15.7806 31 39 28
11.0738 -8.18999 8.85028 21 39 25
4.83044 0.779245 -10.3999 41 27 34
-11.2307 3.11112 4.77111 14 14 21
-8.77381 -5.97068 -12.608 52 74 84
9.85247 -5.72002 7.71488 23 41 33
2.75318 -4.35295 -12.6223 25 22 8
-3.80235 -3.7845 -15.6289 53 66 74
-8.09519 8.24495 10.5318 10 11 16
-3.81749 14.6173 -9.46278 22 22 21
-11.8994 2.41618 7.68035 21 20 25
-12.7199 -11.3036 -13.0391 18 32 37
-6.91624 10.6233 -1.30242 27 28 30
-1.1868 -6.81569 -15.4869 17 28 22
-8.57912 7.63268 5.47486 21 22 27
5.90739 2.33281 6.35763 61 36 4
8.45409 -1.21842 -6.3583 63 63 69
-5.09999 13.4508 -7.67336 29 32 34
0.153374 8.67405 -7.93332 39 32 36
-9.12745 -9.37554 -13.209 54 69 77
-2.5688 13.4214 -6.20973 30 9 10
-12.6242 1.31018 -4.49094 15 17 21
-10.1502 5.37592 11.9291 24 25 31
3.29401 1.19975 -13.4837 58 63 66
-5.28775 13.686 -10.1097 38 42 45
-4.25907 -6.33563 13.3108 45 66 76
-8.90814 7.04157 -4.83662 15 15 16
0.289922 10.7267 5.08795 54 62 66
-0.252377 -8.00948 -16.7043 35 43 33
1.3704 1.60751 -12.2219 51 65 68
8.89764 -11.6354 -15.0974 19 13 8
-1.31285 -3.82358 -15.6719 55 62 74
-2.52283 14.2189 -1.21493 28 11 10
-9.22983 6.97458 10.1714 25 26 28
1.22516 6.87352 -12.2262 36 32 33
-6.80552 10.8834 8.13616 28 26 29
5.62748 -6.2341 11.5689 24 40 33
-4.74248 13.935 2.81677 19 20 27
-3.81064 12.1153 -13.1488 49 58 66
-1.53742 -7.57707 13.312 46 64 69
-3.18888 14.6606 -3.41954 35 10 11
-2.13867 15.9358 9.10783 46 64 71
3.27263 2.9874 -13.4843 47 43 44
4.61263 -8.17687 13.2013 27 46 37
8.71734 -0.985088 6.17274 55 62 69
-2.08365 16.0651 9.12918 48 63 69
-8.85018 -2.59198 -12.017 49 72 86
-6.02027 11.8437 0.450508 15 17 21
-0.919261 -1.92968 -15.4167 53 70 78
-13.3683 -5.48356 -10.7412 54 76 84
-8.49028 -10.6658 -15.7524 29 37 42
8.67786 -6.94067 -1.67804 39 26 27
5.57114 -5.14956 -10.6043 17 7 3
0.227627 -1.17926 12.6846 40 59 72
11.0433 -8.66927 -5.21837 35 33 18
-9.06697 -8.69275 -12.99 52 70 85
-13.7601 -10.9034 1.79059 26 36 42
-5.92215 11.7731 4.39734 32 35 37
-5.56739 -11.598 13.9729 19 18 25
0.927921 0.28816 -12.1985 58 66 68
1.47303 0.804133 -11.9044 54 70 80
9.97671 3.35108 -1.30174 71 41 5
-2.29699 12.5831 -13.3914 50 46 51
-0.812479 4.86653 -11.7679 50 64 74
-3.58008 15.6304 7.83111 49 65 75
-10.0564 5.14808 7.37781 11 11 17
-3.69361 14.8429 -1.5879 37 24 30
3.16236 -7.48981 13.3877 14 32 19
7.3661 1.82477 6.84016 54 38 21
10.2893 -6.46734 -7.98482 39 33 24
-9.90828 5.87326 -7.89516 22 22 25
-12.7674 -4.65536 8.75161 47 65 69
-12.6853 1.32708 10.9847 12 13 19
-6.30026 11.398 5.67743 21 24 30
8.20668 -5.05404 -8.13365 49 53 44
-6.81211 10.4371 0.739614 29 26 28
2.3156 5.05587 -6.31751 37 17 21
1.35501 6.98837 -7.10094 38 24 27
-13.3918 -11.1252 10.4546 28 38 45
0.611858 -8.84878 13.3706 36 61 71
7.34664 6.27336 -0.875473 69 38 9
5.63521 -5.01305 -7.73084 51 50 59
-7.10011 -5.01435 -15.6532 52 69 77
-3.85863 -6.4401 13.413 46 65 75
1.49818 6.97597 -5.41049 38 25 29
3.11003 -5.30376 -14.2702 30 30 20
-6.40681 11.4992 -6.42323 21 23 25
-6.79772 4.51652 -12.0107 51 59 66
4.2618 -7.75999 13.2438 28 49 41
-9.3423 6.73936 5.05318 31 30 34
-7.02959 -11.2545 14.3761 41 54 59
-12.781 -4.88224 6.55014 47 66 73
5.09265 -5.55571 10.5601 37 57 65
-7.78837 1.98202 12.6143 45 69 79
-13.6213 -9.58486 0.540566 47 69 79
11.1545 -7.40072 -4.78492 47 46 43
1.6955 5.45834 -13.4027 44 45 47
-3.86743 14.6484 4.60817 26 25 30
-5.57225 7.87495 -12.0576 46 59 67
-4.15455 9.3443 12.2416 40 58 60
-5.78076 12.5274 -11.5258 29 30 36
1.63191 6.82566 3.12649 35 37 40
4.93114 6.80253 2.38998 63 40 9
-9.51704 6.70391 -3.99053 27 24 27
-9.39036 6.96628 -12.8241 31 30 36
6.50027 -5.16542 8.62455 55 71 79
6.86507 6.74736 -1.03223 76 41 3
1.20026 7.559 1.37401 20 20 24
0.346069 15.8467 6.5918 58 75 82
9.07752 -8.66317 13.193 15 31 25
-9.58956 -2.79765 -12.159 47 69 81
-3.6789 16.2233 7.65633 53 69 75
1.02993 7.74588 9.08778 35 35 37
-9.84761 5.8946 -7.09508 19 21 23
-4.52859 14.4366 5.62557 21 15 20
2.28036 -6.72796 13.1802 43 62 67
5.26662 3.62575 -5.72447 69 39 6
-5.87258 12.4523 4.60168 24 27 30
8.68791 4.66135 -0.788912 68 35 3
0.782155 3.64687 -12.142 53 71 82
7.17575 -1.45966 -6.20003 56 66 77
8.32312 -8.20429 -14.6586 30 30 14
-1.87853 -6.32237 13.1524 42 62 71
9.0063 -7.07763 2.12219 33 8 10
2.20609 6.0543 2.87548 19 17 17
-5.24783 13.0054 -12.3229 26 24 27
8.98555 4.56337 -4.86799 69 42 5
-7.79072 8.75077 -9.96364 30 27 30
0.888037 -5.63087 13.1398 43 58 63
-11.4593 2.69055 -6.62413 18 17 20
0.403806 6.78845 -13.4509 53 60 69
-6.63161 11.3021 9.52856 24 26 31
-2.49112 -10.1423 13.6449 44 63 72
-1.99322 12.49 -12.9738 35 20 21
10.3745 -7.27214 -9.69694 34 32 17
-0.352806 10.3028 -3.49862 38 18 20
6.6182 1.64783 6.85948 14 13 18
7.28817 -10.8516 13.7535 24 40 29
-1.68122 9.09538 12.4474 39 58 67
-4.27275 3.46647 -12.4985 64 41 15
-4.56474 12.1879 -13.2532 53 60 65
8.8001 -2.88857 6.16759 56 62 68
-1.24102 -10.1632 13.5729 44 62 70
-14.166 -10.7051 -9.95324 27 43 50
3.86637 -9.02064 -17.0528 24 34 16
2.47094 6.42167 -2.69947 73 39 2
-7.91453 -9.32293 13.7643 52 72 82
-8.5614 -9.97346 13.9097 53 68 76
2.97583 4.5279 7.12258 34 37 41
-11.0504 -0.652672 13.0314 49 69 75
-10.9 3.98929 -10.0712 21 20 23
-0.91434 11.2394 2.91728 49 53 63
-0.728599 -3.26506 -13.0342 55 64 73
-6.09783 12.3064 -8.31255 33 36 41
-2.50297 13.7131 1.76933 45 22 21
-11.7918 -2.60761 12.8495 49 69 77
-12.6463 1.31504 13.3717 19 18 20
-9.37728 -0.457115 12.5298 50 70 77
-7.01361 9.89548 -1.15226 19 22 24
-0.0772943 0.55616 -14.3877 65 61 63
-4.9972 13.3194 -2.57123 20 23 25
-8.43317 7.43608 13.8802 46 47 49
7.39422 -5.46163 9.40746 25 33 33
0.120809 9.64554 -3.35436 42 30 33
2.41764 5.12008 11.4715 33 30 34
-4.71255 14.3508 12.0998 24 25 31
-7.28692 3.0687 -12.9769 58 44 21
9.00841 -5.2905 -5.59876 55 59 63
4.29859 1.87347 6.67267 16 13 17
-8.23691 8.39494 5.00224 23 29 32
-5.22259 -4.67482 13.0732 46 70 80
8.41572 -5.25559 -7.2456 43 39 41
-2.72044 13.4408 -8.4196 30 10 12
-3.36924 -7.69675 13.5124 50 65 70
0.486582 -0.11889 -12.3205 61 66 70
4.07917 -4.16684 -11.329 25 22 12
-11.4391 -3.11138 -12.0931 48 71 80
-4.9966 -8.60231 13.3248 46 65 75
-3.60387 14.7375 1.80785 22 30 31
1.83865 5.16941 -12.9177 28 21 25
-4.41821 1.18945 12.6376 43 62 71
-7.97451 8.59976 -8.48558 27 25 29
-12.5 2.15559 -8.88283 27 28 31
-3.38044 16.771 5.38253 54 67 76
-3.63819 8.33784 -11.9572 56 64 71
2.18917 5.10312 13.7033 29 36 43
1.00065 -5.81685 13.1119 46 61 66
-11.5097 -3.82491 13.1619 54 76 89
-5.21716 2.85658 12.6566 43 66 77
-0.123223 -0.42082 12.596 38 60 67
-9.40537 6.1055 12.3471 17 16 22
4.12831 -1.55471 -11.5371 55 63 68
8.40859 4.90975 -4.41875 75 36 5
-13.7677 -9.63568 -5.4117 62 81 91
-5.93068 11.4571 3.20067 21 19 23
-6.37479 2.31336 -13.7827 59 45 10
2.32953 5.39057 11.5291 37 33 38
-3.40333 7.10712 -12.0518 53 62 68
-2.55593 2.351 12.3893 36 59 69
-9.87558 -1.09261 -11.9476 45 69 80
-11.3881 -10.8691 -12.6823 19 34 39
0.963247 7.40425 5.62651 28 27 30
6.85239 -6.69107 -14.8979 34 38 39
6.99288 -5.63279 10.0893 7 25 18
-2.62905 13.9168 -5.30676 31 15 18
-13.6601 -9.57092 1.08479 46 69 77
8.8825 -4.80933 -5.84695 58 59 65
-4.11312 14.7328 -0.368377 28 30 35
-11.9028 2.54296 -11.2007 22 20 23
4.23733 1.59231 -12.8498 33 16 19
5.56087 -8.19106 12.8031 2 18 8
11.4418 -10.4009 5.65316 42 46 38
-2.06905 13.0944 -6.52199 36 21 21
3.14133 -11.5461 13.6074 42 51 54
-8.14056 8.4983 5.55607 24 27 31
1.95088 3.6387 13.4611 34 48 62
-4.16064 14.3772 -13.1817 50 47 49
8.41724 -5.70459 -9.35053 17 14 0
-13.3781 0.520603 2.70246 18 25 30
-10.2935 5.15591 2.35238 32 34 37
-0.874905 -3.75195 -13.4861 59 68 76
-6.30905 11.3959 5.55626 21 23 29
-13.0319 -7.48766 9.91056 52 68 75
-7.76889 9.21765 4.56103 27 30 32
0.460061 3.33706 -12.073 46 68 74
2.14112 2.81021 -13.1521 54 57 66
-3.02827 14.5635 10.8772 32 32 35
0.63562 -10.0474 -16.6871 31 41 26
-7.36263 9.79034 3.28718 28 30 32
-9.03002 -2.42729 -12.0118 45 68 86
3.55721 2.8813 -6.93448 36 21 23
-11.7105 2.4599 -8.0662 10 12 17
-10.2565 -9.05558 -12.5625 49 71 80
8.41391 1.72898 7.1661 49 37 13
-1.56182 11.9624 -10.7839 43 31 32
-0.86215 10.8995 3.95744 30 18 17
-2.60831 13.4692 -7.59476 27 5 6
-2.85839 -9.58948 13.6607 45 66 76
-2.57117 13.999 -4.63608 41 23 21
-12.9484 1.05424 1.48793 10 8 15
0.234666 7.90644 -12.0633 27 23 27
-9.87531 5.35628 1.15543 20 22 26
9.2963 -6.2281 -11.603 29 23 7
-4.50431 -10.7659 13.806 42 60 69
5.82251 -9.76536 -16.9063 35 43 38
-0.075326 8.74736 -9.098 33 25 25
-5.48925 12.5434 8.74491 17 20 23
-13.1837 -11.2238 12.1495 19 24 32
-3.04693 12.2189 13.0454 31 56 67
-5.39206 -6.45755 -15.5001 46 64 76
-3.66081 14.6661 5.16401 30 33 39
3.84251 5.36082 -3.95913 68 38 9
-4.88483 13.8805 0.13633 28 31 37
8.93989 -1.05441 3.93791 60 66 74
-10.3599 5.01591 5.34293 29 33 34
-2.40361 0.397891 -15.4369 64 38 8
4.7671 1.26655 10.2367 23 21 28
1.81342 -2.69701 12.7537 42 65 79
4.87323 -11.7293 13.6166 24 36 30
-11.5141 2.77316 5.48304 10 10 17
-9.44629 6.01885 11.2459 20 25 30
2.2727 -11.3548 13.6208 46 55 59
6.51548 -9.05457 -16.5353 43 51 42
3.34056 3.80856 10.423 36 29 30
-8.88695 6.827 12.3335 14 13 18
-6.75985 7.50152 -12.1901 45 59 66
0.664475 8.78469 -1.22181 37 20 21
-13.0699 1.24451 -12.2712 12 13 20
-12.5108 2.13184 -1.98301 25 26 29
10.0888 3.06685 4.87988 67 46 20
1.66672 5.55624 -12.9007 30 21 21
