ply
format ascii 1.0
comment Created by Open3D
element vertex 1393
property double x
property double y
property double z
property uchar red
property uchar green
property uchar blue
end_header
1.97927 5.9592 4.9218 21 20 24
-12.8026 -2.6638 -10.5792 54 72 78
0.627592 8.1835 -7.34881 37 20 20
8.38225 2.41547 6.49357 69 35 2
-7.30737 -10.0385 -15.7696 55 73 83
7.63499 -5.11801 -11.4733 30 22 10
4.35809 3.14823 5.47666 53 29 2
0.873065 6.42944 -13.492 42 49 56
8.94598 -1.1641 3.2434 63 67 71
0.435908 8.93048 0.124389 32 16 19
7.44716 -2.69802 -6.31968 60 69 81
-4.3645 -3.44807 -15.4396 55 69 75
3.73029 -2.20307 8.31391 33 39 44
0.131359 11.0933 8.77157 55 74 80
9.01827 -0.573032 5.4935 58 62 69
-9.27919 -7.17973 -12.5312 60 76 80
-3.78459 9.10583 -11.9112 54 69 79
-3.67779 14.569 -12.8496 46 38 43
-7.94259 8.57401 9.62942 21 25 27
9.16884 4.10424 -5.25781 76 38 2
3.84222 2.71745 -6.35683 66 32 2
0.381892 15.3938 6.90588 57 75 80
-7.49452 9.69161 -0.629612 23 29 31
-8.59735 7.51168 11.4716 23 23 27
1.21348 7.05656 -10.6936 37 28 29
2.05171 8.49643 -1.17826 63 39 16
-8.56047 5.72802 13.9421 38 54 57
0.937149 4.12593 -12.4439 50 63 74
8.26036 -2.23546 0.653167 39 14 14
-4.54739 14.5886 -12.7056 34 28 31
-8.61722 -5.23687 -14.1942 58 75 82
-5.12409 13.4821 -6.28683 25 24 27
-0.930192 -1.90304 -13.2558 61 70 78
-13.1971 -6.32471 -1.87646 48 72 82
-0.122104 6.57739 -12.836 51 57 65
-5.04837 12.8005 -0.591257 22 24 30
-9.16501 6.98761 7.61041 24 26 30
6.65703 -5.32554 9.92118 21 34 33
5.01629 0.752783 8.3913 23 20 28
-0.634923 -5.3765 13.1599 45 61 66
-9.90033 5.54251 8.59153 21 26 31
-7.96575 9.26575 -6.42142 30 32 36
-1.54359 12.0772 3.57189 33 19 19
-11.3209 3.59834 1.02761 34 34 39
2.55715 -1.63497 -12.4526 60 65 74
-12.6916 -6.10434 9.31696 45 68 79
4.50787 1.48074 8.36572 24 20 25
-0.881724 11.4355 3.10134 47 39 46
0.250882 14.7827 8.68141 56 74 79
8.32473 -3.37284 -1.00186 36 14 10
-6.81254 10.2862 0.362082 22 22 24
8.4974 4.7706 0.269518 71 36 7
-4.56123 10.9314 12.9016 41 54 60
-8.32515 -1.26818 -12.0774 48 70 75
-11.6769 2.64403 -5.20963 18 15 18
-3.82261 6.18728 12.188 41 65 76
1.19705 7.54133 11.0748 39 37 42
-4.99339 12.942 8.41465 17 19 22
-5.04511 13.2111 11.5161 22 23 26
9.55986 -5.64599 7.61053 20 40 27
-5.25134 13.0376 11.9258 20 22 25
-2.47566 12.9179 13.682 15 13 15
-5.58716 12.5717 2.68539 26 31 34
-8.53213 -3.77902 -14.4543 60 75 79
1.2709 6.60989 -6.96287 37 24 24
4.44136 -4.20962 7.925 52 67 74
3.9462 -1.58942 12.9137 47 68 75
-10.1685 5.39145 10.0994 23 28 34
1.0622 7.5534 4.6495 30 27 29
2.53497 3.59789 -13.5999 50 54 56
-8.44858 -9.0453 13.8167 56 72 79
-8.66748 -6.26423 -13.8548 59 74 79
1.12035 7.61605 -3.87783 39 24 27
0.608198 8.72504 -3.63076 38 27 29
-6.41821 11.4347 8.11621 24 22 26
8.90726 -1.40824 -5.86715 66 64 71
1.79059 -1.0968 12.7528 42 61 69
-10.4092 5.03597 1.27227 30 28 33
3.70452 3.39939 12.108 32 32 35
-8.13753 8.35313 -7.59893 27 26 32
-12.7601 -4.91313 9.40469 52 67 75
-6.09296 11.575 1.62633 24 25 29
-13.1054 -5.40845 -4.7724 48 72 87
-0.813305 0.212862 12.3756 41 64 76
7.5966 -7.2395 12.8579 19 34 24
-11.294 2.84691 3.9255 12 11 16
-5.46582 12.5376 5.12084 19 18 21
-0.0131416 9.68626 2.24957 38 23 24
-1.30405 8.42959 12.4062 38 60 69
-2.93576 11.1558 12.4803 41 61 72
7.39244 6.11552 -2.3045 73 40 5
-7.91771 8.61561 -11.0492 26 28 29
4.28583 -5.38673 -12.4304 30 17 4
-0.631511 -0.216308 -15.9848 73 37 3
2.39951 -3.48499 -12.4717 42 49 53
-10.8265 4.07952 5.35233 28 30 32
9.01424 -4.92936 6.57925 48 66 72
-9.33102 6.10644 8.77625 12 14 19
-2.64987 13.252 -9.6315 29 8 11
-4.94117 13.574 2.23242 26 28 31
-5.12264 12.5796 1.15178 20 24 29
7.024 6.51231 -1.96025 69 37 4
-4.80537 13.8456 2.76349 21 24 30
-1.89092 16.501 9.23129 49 63 72
6.53339 3.99419 5.38028 52 32 3
-9.36199 -5.4789 13.0017 51 74 84
-13 -6.65016 3.13172 43 68 77
-6.03165 12.0994 0.906982 31 33 39
-12.906 -3.36852 -11.4678 57 76 87
0.357912 7.50059 13.5084 32 43 50
-3.7774 12.8105 -13.3878 55 61 66
-0.130942 1.97685 -13.4089 61 54 57
8.90652 -4.90971 6.79554 38 56 60
1.05931 6.45688 -13.4544 38 43 47
-9.09535 7.04517 -3.20708 24 24 27
-9.52117 6.11066 0.0353851 21 21 24
-6.6288 0.501719 -15.4092 53 39 15
-12.8562 1.21015 -2.27296 10 10 15
9.41345 3.90508 -5.26963 68 36 4
3.93845 -2.37159 -11.7999 57 65 73
-1.45085 -8.0653 -15.8714 29 40 30
10.0166 3.10749 2.32509 68 46 15
1.49062 6.44672 -5.72294 37 29 35
-1.28322 11.9692 -1.01466 40 28 27
9.33782 3.97535 3.18185 75 44 3
1.20783 7.50079 -5.6135 29 17 19
-2.62384 13.4728 -7.63951 28 5 7
-10.6783 4.60996 -9.33929 28 30 25
4.36087 5.67409 3.31361 50 34 11
0.390622 15.797 5.86189 66 75 83
-0.648024 7.40917 12.4637 34 54 63
-1.36752 -9.19189 13.2778 41 61 68
9.64872 -7.29593 3.45815 57 45 53
1.9319 5.98706 -10.13 43 33 38
0.177488 9.53299 10.2443 36 42 47
-10.0487 5.14566 0.558117 18 17 21
3.00282 4.57704 13.373 43 44 46
-0.0835819 7.38494 -13.3582 53 58 63
-2.45047 -1.31922 -15.9018 57 48 51
8.89447 0.0661221 -1.05784 60 66 75
-3.90381 14.7656 2.74962 22 24 25
-10.4334 0.532193 -12.0849 47 59 66
8.80881 -0.624968 -5.51392 59 64 70
-12.7457 -4.17334 -12.1512 50 69 75
-2.48784 -0.921848 -16.191 58 46 36
-12.6508 -3.57394 -0.680733 49 71 79
11.6 -12.1069 -5.15676 26 1 6
-4.36274 7.44565 -12.0593 53 63 74
-3.54232 -10.6862 -15.9192 34 41 47
-12.0579 2.43491 9.23984 25 25 29
4.27294 7.42018 -2.40862 62 41 16
3.20288 -6.81454 13.1905 35 52 51
-5.29799 4.05972 -11.9497 52 57 75
5.12336 -6.00047 11.6453 21 34 30
3.67967 1.6529 13.8201 35 53 65
0.344878 9.34734 9.38651 45 53 55
-13.3179 0.500435 6.1168 28 31 36
-6.52318 6.48566 -12.0009 45 56 68
-12.8439 -3.04877 0.637213 48 68 77
1.13746 3.06005 -12.3524 53 63 74
-0.386433 10.2886 9.648 39 43 43
-13.9563 -10.3313 -6.75605 56 58 62
-4.27241 8.0613 11.9258 34 66 75
7.62361 -3.14623 6.31452 54 67 73
9.62661 3.66198 3.40507 62 39 7
-0.684742 17.2069 7.26507 44 61 68
-0.0338025 -0.280601 -12.3475 55 62 67
-6.91608 10.6799 4.21813 25 27 29
0.361593 -1.12142 -12.2481 53 61 69
-9.02948 7.10878 -7.84153 19 19 22
-2.86445 13.9104 -9.20268 29 14 13
2.73603 3.74952 -8.84346 34 17 17
11.2784 -8.31971 4.11209 43 48 48
-12.934 0.940287 2.73516 8 10 14
0.984557 -2.6659 12.9066 43 59 65
5.94942 6.25853 2.86745 50 34 5
-13.5217 -7.76586 -3.24838 58 77 84
-7.2677 7.34497 13.5077 45 57 62
-1.12325 -6.64305 -15.4163 19 28 21
-3.51624 7.40473 -12.0275 48 62 69
-6.96892 -4.76475 -15.5294 53 68 77
-8.24604 2.41233 12.6655 44 65 73
-0.394595 9.20879 -9.88803 39 28 30
-3.69925 14.7171 6.02803 28 35 41
-1.28524 11.9006 -5.27656 42 28 31
-3.66186 1.63161 -14.2721 63 38 5
-1.70394 12.4209 -0.193154 42 16 21
8.14634 -1.76876 6.24988 53 62 70
3.48999 3.64383 10.4023 30 25 28
-0.333166 10.4337 10.0605 40 44 46
9.09702 1.46611 -7.73748 75 42 20
-13.0322 -4.72559 -9.27075 54 74 81
2.96895 4.32125 7.02254 34 34 38
-3.39465 14.776 3.12512 40 39 38
11.0902 -8.29444 -0.916748 40 30 30
-6.93207 9.7978 0.76759 17 18 22
2.33457 5.40626 8.49991 30 27 29
3.35671 7.27711 1.60665 58 37 8
4.14612 -4.71857 -10.7819 21 19 1
4.34197 -4.1097 -9.47128 45 41 48
-0.0305319 2.28037 12.449 38 55 63
9.53378 3.82293 -2.90155 66 37 8
4.15205 -1.42848 -11.4811 54 62 65
-13.0464 -4.67462 -0.815981 51 74 84
2.97355 4.60753 6.09202 36 34 44
-0.312487 9.95471 10.0047 32 32 35
4.70815 -5.02696 -9.96872 26 17 8
-3.09174 14.637 1.74518 36 12 12
-7.51239 -1.11484 12.9525 52 69 74
-0.656076 10.8263 2.6478 38 31 31
4.6504 6.96105 -2.5429 77 41 6
8.23664 -1.79791 -0.506263 50 39 41
-0.398839 10.2674 -4.8316 37 20 23
-12.9281 -4.26443 -11.0605 51 74 82
-4.32952 14.6133 -6.3523 31 24 29
3.73674 2.5365 9.7397 26 20 25
-4.00247 13.1212 13.637 37 51 62
-7.58911 9.01696 9.13766 16 18 21
5.73582 4.9074 -4.69107 67 37 0
2.66857 4.94831 10.7851 31 30 34
-10.2989 -9.76076 14.031 52 78 90
-7.36379 -6.97684 -15.5827 48 72 82
2.80079 -6.89454 13.2233 40 61 64
2.45111 4.20555 -11.4432 31 18 17
-1.49572 -10.1934 -15.9533 31 37 29
-11.0898 3.08352 8.09663 16 16 17
-6.46328 -4.76895 13.0574 52 71 80
-13.5436 0.635178 -2.39206 26 27 25
-6.2173 11.9835 -8.57459 29 28 31
5.50755 8.28751 -0.653204 66 35 5
5.68856 3.73445 -5.73981 66 37 0
-2.29553 13.1666 -8.90136 32 17 19
-8.71214 6.25404 -13.2074 49 54 57
4.85817 4.38555 -4.87241 76 40 5
8.6207 -0.381327 -3.91553 56 64 71
9.71714 2.54491 -7.11576 73 53 33
10.2044 -7.3972 -11.462 31 28 11
-5.94068 -1.37905 12.9299 48 68 76
3.52116 2.23417 -7.40184 32 10 11
-4.90643 13.1882 0.434143 16 19 21
0.721198 8.64871 -4.14899 42 30 32
-2.69705 14.3939 1.33291 32 13 13
8.38847 -6.1956 10.5471 17 32 22
-8.90794 -5.30153 13.0996 53 74 83
-13.6765 -9.23833 -1.24679 55 75 82
-11.188 -6.30882 -12.264 51 74 83
1.8145 6.38139 9.70742 31 28 31
-13.8744 -10.4457 -2.60772 48 61 67
4.45545 2.19266 12.6864 30 29 33
-6.65466 11.3228 -8.73066 27 27 28
-2.13145 13.6469 8.96014 40 58 69
-3.39508 0.401617 12.6448 41 61 70
-1.64747 -10.6715 -15.9585 24 26 18
0.747944 4.2748 -12.3489 51 66 76
-0.780777 10.4642 -11.244 40 28 29
-2.22022 13.195 11.3429 30 31 36
-1.93906 12.2491 -7.32713 38 25 27
10.0385 -7.48888 -0.595243 42 33 33
3.7685 3.07778 11.7709 30 27 30
3.52136 7.84372 -1.60157 73 43 11
4.51975 1.5822 12.2646 27 27 30
-1.27898 12.5532 9.06688 42 61 68
-3.4877 7.87393 -11.9147 54 66 72
-8.14899 8.50831 3.13795 27 31 35
0.605671 6.74245 -13.5057 50 52 62
-4.95167 11.403 -13.1684 54 60 60
-12.3782 2.14643 -6.8007 14 16 24
-8.55176 8.0542 5.52263 30 35 39
1.69861 -6.70245 -15.3927 28 33 25
0.731007 -9.08842 13.2875 36 58 66
0.649431 8.73565 -2.65868 43 28 28
4.63434 1.29166 10.7871 21 19 21
2.14282 -0.46606 -12.2903 58 61 72
-2.536 13.5514 -0.447655 34 13 15
-13.3438 -5.45432 -11.7022 56 71 76
11.0922 -9.79543 -6.62817 30 27 12
-5.31287 12.5413 0.590384 15 14 21
9.23595 4.03568 2.14934 77 40 2
-9.67837 6.48446 -3.352 26 26 26
-5.35301 12.5091 -3.41684 14 19 21
1.74934 5.75519 -12.4114 30 22 22
-11.3268 3.78098 -7.75493 26 30 31
-11.0418 3.37401 -13.211 46 55 58
-2.78092 -5.68732 13.1809 45 65 73
-3.81753 3.52844 12.3192 40 62 74
-6.39779 -2.5679 12.7141 47 68 77
-0.206029 -0.403304 -15.906 72 43 16
-12.574 -2.36727 -11.292 48 73 81
4.62591 8.12874 0.745619 65 35 3
-13.1368 -5.56997 -2.14226 51 72 81
7.42649 -10.5249 13.7474 26 40 32
-8.59727 0.524128 12.6881 49 68 76
4.57267 -3.46095 -6.45224 56 64 76
1.99425 6.04768 3.07914 19 19 21
-0.599533 -3.26722 -12.7617 55 63 73
5.82685 1.5126 6.71361 16 9 21
6.37218 -9.38365 13.6623 15 28 22
-8.87865 7.07374 12.9303 20 23 26
5.11255 -5.5125 10.3704 36 56 65
-5.32837 7.59083 -11.8993 44 60 70
7.88276 -5.68127 7.75369 14 37 34
1.02698 7.5709 -6.71767 39 25 27
2.13056 -4.32391 -12.3716 30 32 28
-10.9952 3.95301 7.90962 23 25 29
10.0767 3.0984 3.6723 66 45 8
10.2698 -7.3781 3.49042 59 42 53
5.40834 -8.85007 -16.7937 39 43 33
-7.71041 9.45412 -1.46779 30 32 35
-1.93742 11.4699 -13.4698 50 57 63
-11.4468 1.00681 13.9052 48 63 68
-9.93575 5.66803 -8.75506 21 24 28
6.2315 -9.85169 13.747 18 32 21
-4.84707 13.2865 5.95539 35 34 40
3.88059 7.74775 -1.9812 67 42 14
-3.52532 5.46456 12.2286 40 62 72
4.12012 -1.05623 11.8448 56 73 83
0.0328188 -6.72324 12.9992 40 61 69
-0.537596 7.22878 -12.8206 53 58 64
8.19349 5.39242 -3.1781 65 39 14
-10.0097 5.51968 -7.44654 18 19 22
0.527199 9.7117 5.37313 42 39 40
-10.2448 4.74016 6.31034 22 24 26
4.75027 1.24702 13.1093 25 27 30
9.81812 2.10734 -7.19206 79 58 42
8.02831 -4.03839 6.29618 49 63 70
-6.2296 11.5111 12.0839 23 29 32
4.56808 5.64507 3.52277 56 37 10
4.28962 -1.52588 12.2467 57 73 82
-1.35281 13.1375 8.98209 46 57 67
1.16016 7.28258 6.82636 33 35 37
-13.1431 -7.30467 -1.02166 47 73 82
3.3211 3.34654 -11.9082 37 33 35
-0.95388 -3.90471 -15.3937 61 72 77
11.373 -8.5645 -3.31727 40 34 34
-2.01009 13.1035 0.57197 35 21 22
-13.6195 0.522558 -7.98828 40 37 40
-5.59876 12.0857 12.7302 17 25 28
6.78694 1.45132 7.18173 21 29 34
4.9553 -4.90226 -8.08795 54 63 75
8.63008 -2.55614 -3.32497 57 65 77
-6.3782 11.2331 10.6662 15 17 21
6.86531 6.74285 -2.29546 84 44 9
8.70647 -2.97664 6.18869 56 62 68
2.27123 5.84477 13.04 37 40 43
-8.80517 -8.05475 13.6312 52 71 80
0.646995 8.25768 13.7467 24 28 30
0.0745163 8.78931 -7.30165 32 28 30
-4.06911 0.597052 12.7659 47 63 70
-3.32466 16.8564 9.24862 46 67 68
-12.4383 1.62587 -0.481266 14 15 19
-11.4348 -6.06012 -12.261 45 69 78
0.782521 7.44139 -10.3343 31 19 24
4.08077 0.178254 -13.0334 52 50 56
-13.0011 1.03017 11.0354 22 26 30
-6.79366 10.1972 10.2367 21 22 25
-2.61892 13.9207 9.38693 48 65 73
-13.7946 -10.6573 -1.51805 33 37 42
-9.23073 -5.3028 12.9826 52 75 84
0.481829 5.81114 -13.051 50 58 63
5.42479 -5.1129 -9.86234 27 20 9
0.432692 5.00524 -12.4704 55 66 76
-8.60441 7.87766 5.29745 23 27 30
-11.9595 2.12255 13.3906 18 19 24
-8.73846 7.40603 -5.4221 22 20 23
-6.74497 11.18 -11.8155 29 31 33
3.01548 -0.234235 -12.6222 59 63 71
8.51736 -6.02511 -1.42083 34 25 18
-8.22661 -3.9836 13.1526 51 71 78
-9.25814 6.91395 -7.79162 28 27 29
4.36016 -3.39876 7.30861 50 67 72
-10.146 -9.38545 13.9062 48 69 77
-7.96457 8.67424 5.0321 27 25 30
-5.13634 -8.37496 -15.7287 48 61 69
-2.37272 12.7779 -13.3955 49 53 58
-8.35198 8.11595 -0.180187 15 15 22
-10.8703 -1.99749 -12.0822 48 72 87
-0.480068 10.6942 -0.846218 38 28 30
-2.07266 -7.1973 -15.6451 29 38 28
9.87903 -7.30403 1.27273 38 23 25
-1.74252 12.0026 -8.73832 36 24 25
3.72854 3.31366 9.45828 36 36 39
-3.04613 9.0646 12.2733 39 57 67
10.1704 -10.587 -12.7743 39 50 38
-7.28437 -10.526 14.0179 48 67 76
-4.19885 12.0971 -13.146 52 57 64
-2.78013 -6.45578 -15.6047 51 60 61
3.9384 -7.81432 13.2897 27 46 43
-3.18927 14.6554 -3.03559 40 12 14
3.12125 3.59522 6.65127 22 18 26
11.7233 -11.9937 1.43284 30 22 24
-1.11235 -0.842222 12.7353 43 60 66
-10.8546 3.89484 -5.26466 23 24 27
-11.5839 2.64006 1.3911 14 16 21
7.22928 3.26922 -6.45482 68 39 10
-6.95398 -6.01416 -15.6871 48 67 76
8.35332 4.52711 4.89461 48 34 14
-6.71794 6.37172 -12.0046 45 58 67
-13.547 -10.5997 -12.6136 30 37 42
0.76132 -1.61278 -12.0024 53 70 78
7.48164 1.59391 -7.62156 76 41 3
-6.28761 11.504 12.6383 27 33 36
-9.45406 6.21313 1.55482 29 29 35
8.46425 -6.65696 1.83232 34 15 14
7.71542 5.64313 -1.75283 67 35 6
8.86609 -1.62629 -3.38089 57 61 67
6.283 5.45305 3.61636 70 40 4
4.237 -1.11652 11.2766 56 71 77
4.42726 1.84188 8.59332 26 27 30
-3.86515 14.6167 -10.3254 24 24 22
-9.77382 6.47631 -10.6926 34 34 37
4.54807 6.19365 2.60491 70 39 1
-0.982861 10.7699 -12.376 42 32 32
-5.12756 6.52855 -11.8273 44 62 72
-13.2193 -8.53279 7.91336 48 71 82
-9.51356 5.67771 0.328922 15 16 19
0.255114 16.5807 7.82845 56 73 80
2.15145 5.94204 8.68878 35 38 41
0.0262971 9.59573 -5.44862 40 25 29
0.505037 8.81482 10.2206 30 34 38
-6.70116 10.453 9.25693 23 23 26
-10.3498 4.59753 11.8917 20 21 23
-12.9427 1.15248 -6.22124 11 8 15
7.34203 6.22443 -0.447578 58 37 19
-3.50442 15.53 5.64538 49 64 76
11.2802 -8.57856 5.65089 30 44 39
3.56987 -5.88747 -14.6004 25 24 13
3.82972 -3.06496 8.74651 56 72 76
6.76594 -3.49972 6.2478 47 63 71
-12.4416 -4.09688 12.252 45 69 80
2.06195 -0.883339 -12.1426 57 70 80
-11.4196 -6.22885 -12.3293 47 69 78
8.50414 4.8048 -1.24495 67 36 5
-2.32504 8.1779 -12.1392 53 60 64
2.36181 5.21934 8.15578 30 25 27
10.0254 -6.03714 -6.78712 34 29 18
-12.7882 -2.06879 -9.58102 56 71 77
8.92864 2.35572 6.70853 58 32 1
-12.2841 -2.95854 9.16837 40 60 70
-6.68619 10.8279 -0.388479 21 18 23
-13.2238 -7.21815 2.67292 48 64 70
2.71939 4.77081 5.11636 35 28 24
-6.68734 10.4332 11.4342 20 19 23
4.54047 1.58977 10.7685 28 26 28
-1.62284 12.7459 11.6919 34 37 38
-1.67218 -7.9649 13.3879 46 64 70
2.6902 -1.03392 -12.3207 55 70 78
8.54775 -6.69442 -2.36718 26 5 6
-5.19104 -0.474977 12.6563 42 67 75
-10.4245 4.33359 8.07151 20 22 28
-5.59065 12.2271 12.1216 13 20 22
8.36841 -4.961 1.54271 34 9 11
0.148357 9.1673 -2.0872 33 16 17
6.71098 -5.09861 -6.71474 49 57 67
8.85557 -3.41708 -4.27746 58 61 69
2.27758 4.41908 -13.4775 46 55 54
-6.41626 9.57129 13.7505 39 59 69
0.213642 8.63684 -12.9453 43 38 41
0.365722 1.59005 -12.0477 51 69 84
8.27285 -2.66873 -1.63055 40 22 17
9.75115 -7.43639 -3.07406 53 43 48
1.08911 7.6356 -4.84485 38 25 27
-11.3261 3.24828 0.739746 22 23 25
-3.83538 4.92 -12.0471 51 59 63
-6.17828 11.9106 -8.87128 25 28 31
10.9893 -9.55985 -8.99809 43 48 34
8.9718 -6.34888 2.90359 44 37 40
-7.18114 6.27934 12.8828 45 60 68
-7.07596 9.27406 -13.336 53 59 64
-6.64552 -4.60418 13.05 48 72 79
2.34314 4.73395 -13.0688 42 41 44
-12.2287 2.13389 0.942499 23 24 29
8.84936 -0.271158 -1.90798 59 64 77
0.0365467 9.81393 -2.11526 44 32 33
11.6887 -12.1922 -1.60493 24 1 7
-5.4587 12.5047 0.360641 16 18 24
-5.51389 -9.85859 13.7505 48 68 78
-5.87347 6.71021 -11.9828 48 59 70
1.23816 -2.05684 -12.3446 56 68 79
-4.15002 5.61674 12.2294 43 66 78
-9.69946 6.30134 -4.73564 22 22 22
-6.73134 11.195 -12.2261 26 27 30
-10.6006 5.03257 -11.569 27 32 36
-5.82725 -9.28506 -15.8944 49 63 69
-0.983624 11.288 -2.68011 40 25 25
5.04201 -5.0531 -11.6783 38 39 29
8.48783 -7.54464 12.7227 12 29 18
7.67955 2.63984 6.56653 58 39 4
4.53404 1.8875 11.5487 34 34 36
6.35449 1.90154 6.67511 30 18 16
1.64567 4.09713 13.3358 35 47 54
9.44033 3.82979 4.65992 64 38 2
-3.32494 -5.46676 13.3012 45 63 71
3.65549 3.48742 13.2809 33 37 41
-13.8113 -10.855 3.06833 32 43 47
10.6817 -7.38457 -8.19429 36 35 21
-5.30611 10.4777 13.3462 40 59 67
-9.85033 6.05829 -10.5163 21 26 30
-12.1993 2.21614 -6.54325 1 3 11
0.354904 15.7331 6.27175 61 74 80
4.2429 1.44151 -11.3266 30 7 10
5.02192 1.0506 10.0861 22 24 30
1.09525 7.56711 10.3429 36 40 38
-1.45484 12.0803 -3.88314 33 18 17
4.22545 1.86977 -10.0566 36 17 17
6.88487 0.587217 -7.17986 55 50 54
-2.38489 -3.21826 -15.4894 52 69 77
0.963223 8.29103 2.26233 40 38 42
0.498553 7.69939 -10.702 39 31 31
6.77582 -10.176 13.6955 10 26 14
3.04892 1.15995 -13.2052 56 60 66
-3.47077 14.7185 0.947759 30 23 18
-0.0275664 9.77817 -5.22734 43 29 33
-12.8785 -3.72655 -4.48442 55 73 78
5.92573 -6.84453 11.603 5 24 19
0.773769 8.0738 5.19948 23 19 24
9.59921 -9.25907 -13.5817 40 44 39
-10.2591 1.32977 -12.1238 40 58 68
-1.02048 11.4625 -0.605333 43 20 23
0.990007 7.68595 3.53058 26 33 33
11.6904 -11.1924 3.03211 41 39 41
3.88621 -2.28719 9.78594 42 58 67
10.7305 -11.4926 -10.8907 32 31 21
10.1689 -6.61492 10.5602 22 42 26
1.32277 4.36179 -13.1756 56 61 66
7.51997 0.587008 -6.92708 51 56 59
-7.04737 10.649 -9.59646 31 32 34
-2.11773 16.5841 5.15185 75 85 88
8.76668 -2.69748 -4.09098 60 61 71
-0.952948 6.32552 -12.2201 47 58 68
2.30047 5.41609 6.91366 28 21 24
-4.30205 6.92199 -12.0453 51 60 65
-13.6039 -7.74514 -6.99363 58 77 81
-0.335175 9.57277 -10.3018 36 27 29
-7.3618 9.88969 -10.8683 21 24 26
6.62745 -4.82655 6.39192 45 56 64
-10.4595 4.79085 3.23597 26 27 30
-9.31488 6.49088 10.1185 21 26 31
-2.50348 -3.47871 -15.5542 48 72 80
-0.161629 1.82427 -13.9461 58 54 43
3.86335 2.83706 5.97197 45 28 15
0.156673 9.75606 12.8849 27 33 36
-0.429417 12.8302 5.07912 77 79 91
-6.97962 10.066 5.14327 27 33 35
-0.152787 1.03267 -14.8099 70 43 18
9.39946 -5.65706 7.73169 18 40 27
4.50627 7.62484 -2.26125 61 33 5
9.19694 -8.93257 13.2275 23 39 34
2.61554 5.3557 3.64238 21 19 27
-4.48357 14.3027 -13.1584 43 39 39
-4.19308 12.605 -13.3699 49 58 61
4.47788 1.74647 11.6597 28 28 31
5.86945 -5.46624 10.0745 25 44 45
-10.4983 4.37825 -0.186964 19 22 26
-2.31732 13.3538 11.4552 28 30 33
-6.73213 -0.0576153 12.8722 46 68 78
-10.6484 5.07308 -12.3432 33 36 38
-0.732013 5.86615 12.2022 35 57 68
2.02473 0.394991 -12.2591 55 64 71
-12.744 -3.98766 -1.19432 46 74 80
2.44816 -4.14474 -12.3876 26 25 14
8.35948 -3.78169 -0.127773 34 12 9
-13.1701 -4.34155 -8.1823 55 77 85
0.388735 -4.91489 -12.4792 49 58 65
0.745874 8.31052 -5.61853 40 27 27
8.9668 -6.25432 9.39717 12 21 13
0.812548 -9.70811 13.4011 39 56 62
-12.3145 2.16004 3.2789 22 26 29
-1.21824 11.1846 -4.34158 51 49 56
-13.2416 -5.13788 -11.8813 56 71 76
-13.0756 -4.68401 -9.11147 55 74 81
10.153 2.4337 5.95905 77 53 31
-13.6113 0.554007 -6.10413 25 27 31
-12.9064 -5.13892 3.53607 47 64 72
1.09534 6.95712 -13.0428 42 41 45
-6.20899 5.77593 -11.9598 49 59 66
-0.191692 9.95402 -2.19978 41 28 28
-0.738841 10.205 -9.72946 42 25 28
-8.73312 -6.76524 -13.6826 61 73 78
4.82045 8.63897 -1.40658 66 36 7
3.89214 2.33848 -10.4406 35 16 19
4.40824 -7.58379 -16.2421 27 33 23
-10.5861 0.705425 13.274 48 64 70
1.74714 6.71849 13.1799 39 41 42
-1.80867 -4.73685 -15.5659 54 71 80
3.98403 -4.63921 -12.385 30 24 6
-13.221 -5.88491 -0.692099 49 75 85
-11.6769 2.38813 7.93658 10 10 14
-4.70996 0.0324092 -15.8449 72 40 7
-12.5469 1.61609 -4.60027 21 24 28
-12.3277 1.64042 2.32673 23 25 30
1.15266 7.78099 12.6487 39 40 47
8.87529 -0.160088 -0.906926 59 65 74
-8.74096 7.90025 -7.83627 32 33 38
3.37135 6.81551 -2.40607 83 41 1
-0.153929 0.65555 -13.9925 60 63 63
-9.97506 5.35231 3.98137 19 15 22
5.07652 1.00511 12.9358 29 31 37
4.98844 4.86148 3.94313 52 31 0
-7.7188 9.65269 -5.58553 31 32 37
-12.7594 -3.91014 3.01188 42 61 70
-13.457 -8.04301 -4.26605 58 79 88
-5.60315 -11.3454 -16.5101 18 28 28
3.35954 3.7522 11.2805 32 26 28
-9.48297 6.13301 3.23398 24 29 30
-13.2437 -8.84816 -12.3976 58 78 86
-13.2575 -5.52107 -9.73203 50 75 86
0.745686 6.28525 13.3082 30 42 49
-9.47269 6.01142 3.10001 20 23 25
-8.82582 -9.74781 13.875 53 69 77
3.67181 -0.565184 13.214 40 54 62
4.32388 -4.14064 7.11931 51 67 72
0.967666 7.91337 4.59264 36 33 33
-3.54429 12.2474 13.0309 31 55 64
-0.268324 0.821036 -12.4747 54 54 56
-8.32657 -2.29247 -15.089 58 72 80
0.329392 11.4379 6.78884 57 67 79
3.11768 4.12264 10.6164 48 43 41
-3.62585 -0.404739 -16.1248 63 38 4
-13.1998 0.94422 -5.76263 17 12 18
-7.96219 -1.36062 -13.1861 57 73 78
7.689 0.820983 -7.40186 62 53 53
4.15884 -2.24087 -10.6969 48 54 62
0.33574 8.69979 -6.45313 38 26 29
4.74519 0.9723 -12.9842 45 31 30
-0.353999 1.06892 -12.5915 53 54 60
-1.67918 12.1751 -12.943 41 22 24
0.471748 8.70241 -5.45302 41 30 29
-0.393543 10.1063 -4.9964 37 19 24
-0.259445 16.1193 5.15285 73 76 82
-7.52277 3.41418 12.6321 43 61 69
4.60578 1.75417 13.1974 34 33 37
10.3989 -6.66624 -8.42423 37 37 26
7.60091 -3.97241 -6.42168 56 58 63
-7.40229 9.35552 12.127 13 14 19
10.1763 -7.04772 4.20665 59 74 77
-6.15825 10.9716 -13.4071 56 63 68
-3.50821 15.4515 6.79061 43 62 73
-4.86868 12.8893 1.11858 20 20 23
4.89643 -9.70195 -17.1748 41 46 39
-1.14161 -7.97308 -15.9227 35 42 30
-0.357886 0.955154 -14.9885 73 38 4
8.37216 5.01571 3.69718 72 45 12
8.8512 -1.39171 -6.06959 65 64 70
-4.39718 11.3517 -12.8818 52 57 61
-11.3537 3.039 -2.47889 19 16 21
-3.55939 13.4163 -13.3823 53 57 62
-1.66344 -3.61318 12.8378 39 63 75
1.31102 8.28289 0.310719 22 10 20
-3.75203 -6.79883 -15.4867 51 69 75
0.962149 7.89131 8.58253 26 26 28
8.81566 -5.27028 -3.32232 53 51 58
-8.203 7.50696 13.8832 41 40 42
-4.56901 14.4743 -9.26289 18 17 28
-2.57159 13.1484 -9.86571 30 12 13
7.96186 -4.66097 6.26919 45 59 62
0.477013 11.7421 5.72595 64 73 81
11.1345 -9.88191 -6.88763 35 33 20
2.81169 6.54094 -2.48666 74 43 5
1.96628 -6.83256 -15.5308 27 30 22
3.62396 -1.42136 -12.5354 60 66 73
6.41236 4.75113 4.58068 68 40 3
-6.54565 11.2988 10.1023 24 29 32
-8.07665 8.44549 0.041647 18 20 24
0.465613 9.31198 8.79552 45 48 51
4.44865 4.54031 4.24515 55 31 7
-8.47429 7.12967 14.0033 44 43 43
0.865777 2.62396 -12.2257 53 62 66
3.15149 7.27856 -2.40814 65 48 22
0.503555 6.11258 -13.2949 52 60 66
10.0057 3.17823 2.4902 68 45 12
-7.69662 9.7011 -3.09629 24 23 29
-6.53815 -10.1001 13.8204 44 64 74
-7.90422 9.50258 -6.27655 31 33 37
7.64546 5.92768 2.04157 70 42 0
-12.3206 -4.27529 10.6247 38 61 72
8.65493 -4.77992 4.13213 54 66 73
9.49581 -6.86147 12.2017 12 33 25
-11.5627 3.05608 -9.51244 24 26 28
-14.0129 -10.8546 -4.54478 32 43 48
-9.09649 2.41973 -12.0563 47 61 70
8.85191 2.45059 -7.19987 78 43 5
2.96328 -5.73928 12.9498 41 60 68
-7.72365 -0.825459 12.9283 52 69 75
5.61862 -5.59036 -12.792 25 21 13
4.19741 -7.77506 -16.1809 22 27 15
0.943703 8.43974 -2.4018 46 31 36
10.5061 -6.62687 7.84397 22 38 31
-5.62462 0.62595 -15.1561 70 44 12
9.20042 4.07085 0.0210056 79 42 3
-12.9705 -4.67014 -2.35069 50 73 82
0.95981 7.7666 -4.21471 39 22 22
-5.97061 12.0509 -0.964422 29 30 33
7.93006 -6.72975 11.4716 11 30 21
8.39645 -5.56561 0.356745 34 6 10
-5.62582 12.6791 12.8885 21 25 29
2.98935 -4.05395 -12.4816 28 24 16
-5.9117 11.7003 11.4286 24 24 29
4.26764 -7.26972 -15.9752 26 31 17
8.19481 -2.62815 -1.9336 40 20 21
3.36204 3.34407 -10.3046 40 31 33
0.255417 8.01808 -11.8166 31 22 24
10.1912 -6.51067 7.15497 27 46 38
-7.90276 1.44591 12.6442 44 68 79
-7.53629 9.61526 0.832544 23 28 31
-5.40359 12.7998 7.71595 20 23 26
2.39602 4.34585 -13.386 40 44 44
-0.233763 9.73884 9.82869 29 30 35
2.19375 6.16922 2.66091 16 14 20
-13.3862 0.868227 -5.60851 20 17 21
9.67433 3.66807 1.16107 59 39 9
-13.2148 1.04475 4.71885 14 16 21
-2.45573 13.9853 2.05888 40 28 27
0.640323 8.65651 -4.50396 41 30 31
-10.9279 4.0045 12.7403 23 27 33
10.6924 -5.87925 -5.43231 49 50 43
-8.52862 -4.54373 -14.1478 57 74 80
4.1416 2.15323 8.04897 23 21 24
-0.620267 10.038 -12.8364 30 18 19
-8.97268 7.1373 7.24073 22 24 28
-7.12182 10.6859 -11.4028 37 38 40
0.378205 9.26611 11.362 41 48 50
-7.31062 -10.8403 -16.1207 26 33 39
-12.6354 -5.38365 -12.1488 47 70 79
-0.855339 -4.45291 -14.3737 56 68 76
5.3545 6.90425 -2.79392 70 36 3
-3.45152 -7.32352 13.4924 50 65 70
-0.954692 11.5704 3.70396 45 30 33
3.57336 3.26655 5.42702 59 34 3
10.172 -6.37241 5.34743 45 54 56
0.199224 9.51442 10.9972 38 42 48
6.24985 7.58887 0.47001 68 35 4
-5.74767 10.1635 13.5374 44 58 67
5.37861 -1.11893 -6.35509 56 62 71
-11.8739 2.20309 8.00002 11 10 17
-0.260914 10.7066 13.1637 36 43 45
2.91827 3.59338 -11.9731 32 22 24
-9.10334 -5.81495 -12.2947 55 79 89
8.69331 4.75981 -2.99499 64 37 9
11.0913 -8.41151 -6.28813 47 51 40
-2.72511 14.4092 2.55148 36 21 24
-13.0414 1.10028 -2.21242 7 8 16
1.18243 8.17849 -1.62294 40 35 39
-1.14046 -0.136674 -15.9193 69 40 7
6.38872 -9.21615 -16.6016 43 47 38
-0.195846 9.03829 -12.5501 31 18 18
-2.43967 17.4725 7.90067 39 53 60
6.89203 5.16049 -4.58451 69 37 11
8.59506 -6.90097 -0.507948 36 14 15
-0.711702 17.2016 6.93188 42 55 64
-1.43108 2.76294 -13.1897 56 48 36
-5.97394 9.18783 -12.6543 49 57 63
-8.27732 8.36535 0.253822 26 31 33
3.64572 -10.3508 -17.1248 29 39 26
-2.79112 17.1681 5.31366 56 61 61
-8.68453 7.47465 -0.151222 24 25 27
6.40492 7.25183 -2.50435 65 36 15
0.156492 9.27155 -3.11868 36 20 23
3.96643 2.23723 -9.71824 36 18 20
9.36871 3.88685 -1.34313 68 38 7
-12.9693 -4.01629 0.625425 48 70 77
-6.84932 0.409918 -15.5671 61 43 12
-13.307 0.268314 -12.8754 48 51 56
2.1186 -3.37974 12.8782 45 65 76
11.3372 -10.1957 -4.37057 42 49 39
-9.84508 5.6972 -5.32774 19 19 21
-7.8276 9.57203 -4.35581 29 29 32
2.32308 5.58467 10.8677 38 40 41
-7.25131 1.53443 12.8246 50 66 73
11.2219 -9.25836 10.0389 40 54 46
1.67283 5.58383 -12.629 30 18 17
-1.75089 7.43394 -12.0713 53 71 82
-11.4624 2.71996 4.5688 12 11 16
-1.21385 11.528 -5.61256 31 17 20
7.24408 6.30596 -3.47858 65 39 6
-5.46411 -3.7547 -15.5937 54 67 74
-0.917087 11.6744 2.98829 44 33 39
-5.77971 2.32649 -13.6391 58 38 18
5.62453 3.78248 5.09263 55 29 5
-12.3555 1.30683 2.59908 19 22 30
8.01636 5.54327 3.3564 51 35 14
-4.97183 12.7044 0.948795 17 15 21
-9.41177 -7.41498 -12.5167 57 75 80
11.423 -10.2945 5.64788 40 46 38
2.93497 -7.52829 13.4007 20 36 30
10.4738 -6.78341 -8.10606 35 33 21
1.78685 6.10373 4.39992 28 25 26
8.14758 -5.47157 -11.5731 31 22 18
2.41594 5.16162 10.1408 34 29 31
-13.0663 -5.59867 2.04516 50 66 70
0.184252 9.33413 10.7215 30 37 41
-12.4512 1.74571 -0.943394 18 21 24
-5.33344 -4.63996 -15.5649 52 69 77
-0.109344 9.73641 2.97026 38 27 26
8.03229 -2.16199 1.82344 38 19 17
-5.06874 7.70822 12.2172 43 64 72
8.92161 -2.29475 3.23902 58 64 68
-9.61788 5.58933 7.9258 15 17 23
-10.2956 5.26782 -2.555 30 30 33
-10.3249 -1.26909 -12.1318 45 66 74
-12.3209 -2.54461 6.06127 42 63 75
-4.25052 5.66869 -11.7046 52 66 77
4.31764 -0.915895 9.285 58 80 91
-8.13829 -2.43202 12.8247 46 70 79
-3.1357 14.6168 10.8418 33 33 35
-6.97871 -0.580983 -15.9851 61 52 37
-13.8752 -10.2889 -5.91309 55 67 74
-12.4337 1.41786 10.3927 12 9 17
-0.426242 10.6401 -1.17341 34 23 25
9.55478 -7.282 3.28151 47 39 44
0.251446 11.6248 8.71002 57 72 76
-6.83452 3.04857 12.4528 46 68 79
-6.24347 -3.86564 -15.5504 53 69 75
8.69988 -3.34549 4.49848 57 66 78
-6.97545 -6.68191 -15.5276 49 72 82
2.87685 -1.96372 12.8437 38 53 61
0.161736 9.54388 -2.01665 42 28 31
5.51217 -5.17147 8.53497 27 46 50
-2.38588 -3.14521 12.9934 42 64 73
-12.6528 1.44525 -10.6501 15 15 21
-7.54139 2.47009 12.6124 44 64 77
5.23577 6.6334 2.43753 74 41 2
11.3837 -11.023 -4.34713 46 54 49
8.8217 -7.13387 0.329411 34 3 6
-11.2878 2.90044 4.49319 22 21 26
3.53542 3.59268 13.003 30 32 38
-2.93798 -4.79759 13.2509 49 65 71
8.50046 -1.82408 -2.58844 45 42 45
-0.84998 -4.2088 12.8383 42 62 71
0.815643 -9.21717 13.3003 36 54 62
8.32215 -3.73418 1.92633 33 15 18
1.34342 7.16215 10.4111 29 29 34
2.52673 -8.21999 -16.3674 24 28 15
7.40166 -5.16298 -7.89499 26 27 27
5.91678 -1.53814 6.21442 48 62 69
3.8979 3.86535 -5.03721 80 47 2
0.404428 12.4678 6.5599 57 71 77
9.1581 -6.39026 -12.1896 35 34 22
-3.53931 0.0281959 -15.7547 66 36 1
-0.904801 10.9569 9.48896 36 42 45
4.85435 3.11506 5.70856 59 35 2
-3.33143 14.3875 -12.133 32 18 15
2.45504 -5.85986 -14.6507 29 28 23
-2.78123 -7.73189 13.4422 46 64 72
4.30433 -5.27097 -14.1217 42 39 31
-9.79497 6.39443 -9.9765 32 36 39
-6.09018 2.06494 -13.9837 56 45 29
3.41919 3.00978 -12.8426 37 27 27
-1.51031 9.88248 12.8645 27 45 56
0.624466 -7.70543 13.4431 34 61 72
6.24549 4.68724 -4.87012 71 43 10
-6.44112 5.36704 12.4546 47 62 70
-3.61709 12.0326 12.9176 34 55 66
0.474047 -4.09018 -12.3467 55 57 60
-3.53159 14.753 3.88274 33 36 36
4.04348 -6.88583 12.7404 2 20 11
0.748618 8.59193 0.450611 29 32 31
0.00409317 6.04794 12.4554 34 52 62
-0.489766 6.22747 -12.2504 52 62 71
-2.91762 14.5134 0.00700259 33 12 11
1.71213 6.56956 2.98709 32 31 32
5.5253 -9.22578 13.3979 5 19 11
2.6142 5.3819 -3.9374 74 54 42
1.10114 2.44268 -12.2731 55 64 66
4.2038 -2.65696 6.62975 48 66 70
-2.53012 13.2131 9.49671 36 45 50
5.43714 -4.24887 -6.51866 56 64 74
8.31255 -2.3996 -0.0312772 34 14 9
-13.9192 -11.1259 3.09616 30 43 48
-9.96383 5.87887 -12.1745 28 25 27
5.14794 -5.14605 7.93204 63 74 86
1.11583 6.66569 -11.5784 28 19 20
-4.63174 14.4842 -11.7787 31 24 28
-12.8274 -5.29547 1.50988 46 71 81
-12.4609 2.20775 -2.39876 24 27 31
-3.68042 5.95458 -11.8371 47 62 70
2.74074 4.77802 7.94394 29 30 32
-11.9837 2.4069 -10.1258 22 19 23
3.46029 2.92416 -10.0326 35 19 21
10.8233 -8.29704 -2.88874 42 33 32
3.36088 3.82679 10.1912 30 23 24
-10.4754 4.48591 12.6794 18 19 23
2.16684 -5.95616 12.8062 35 57 68
-6.78338 11.0002 10.0375 30 36 40
11.6938 -11.2655 3.47613 41 42 34
-5.92404 12.3039 -3.57271 31 36 38
-0.318736 -1.54574 -15.4186 57 59 64
-12.515 1.43583 -5.24063 25 24 23
-5.00702 12.1331 13.7861 43 54 59
-4.02219 2.57688 -13.3718 65 40 14
-0.38393 -9.55365 -16.7093 37 50 38
8.23112 -9.94614 -15.3396 43 45 31
10.8426 -8.73449 -8.11074 31 28 18
-1.19837 17.2573 5.47082 57 59 64
1.87213 5.92916 -7.2525 31 15 18
9.95484 -7.70042 2.32206 39 28 31
2.25283 5.76499 -4.12066 42 28 32
-6.22314 11.4218 -3.27979 22 23 26
0.838833 8.36743 -4.76091 43 34 35
1.00539 5.79387 13.3106 32 43 53
4.23913 1.55369 -13.3281 34 19 21
-3.15733 7.00768 -12.0243 52 60 69
0.457096 13.2728 5.92487 60 77 86
-0.0472784 9.65145 9.34745 37 46 49
8.91341 -0.209902 -1.19534 60 68 79
-13.3974 -7.05151 -4.03602 57 76 83
1.68722 -0.422622 -12.1196 55 71 80
-7.6664 9.66779 -10.0391 29 31 34
-7.24458 3.5273 -12.4587 58 49 40
-7.93206 8.68999 3.94636 26 28 32
-2.60196 12.2405 13.3503 23 45 52
-8.63625 -5.1226 -14.3819 58 75 80
-0.185555 11.1899 4.96264 56 72 82
5.29507 -10.9944 13.701 16 32 19
2.44673 1.70684 -12.6991 50 61 64
-0.222994 17.0475 6.98625 47 60 66
-2.78265 14.4833 -0.843158 33 10 8
4.14704 1.75688 -12.1877 31 16 18
8.57457 4.14796 5.43723 69 49 28
-8.5631 -2.20244 -12.0344 49 71 81
10.1798 -7.89054 -0.209341 42 28 30
-12.8612 -4.97053 3.36543 44 65 74
9.42245 2.58691 -7.21601 70 47 22
-1.71992 9.13052 -13.0937 54 59 65
-12.7712 -6.69938 10.7877 52 72 81
-0.680931 -0.414467 -13.1939 59 64 70
-9.64084 5.50758 -0.274353 18 20 22
-3.62456 14.8176 11.2032 30 39 46
-8.83762 7.26833 7.17422 17 19 23
-4.66891 14.341 -6.31068 19 17 21
-2.994 -3.28503 -15.535 50 62 71
-12.8075 -3.16053 -8.94137 52 73 83
8.56991 -6.28451 -0.533344 45 26 26
-0.132765 15.644 5.1101 67 78 83
-0.634218 -5.07372 13.1055 46 62 67
-12.9535 -4.48906 -6.66823 51 74 83
-0.704471 16.5292 5.16169 71 81 89
-7.90042 8.69946 7.68256 23 25 28
-12.575 -2.84615 -1.28969 50 69 80
-12.7672 -3.97596 -2.02139 50 73 82
-2.70006 -3.26495 -15.4736 52 72 79
-5.93547 11.7509 -13.3362 53 55 56
8.3116 -1.16492 -6.36711 62 63 68
8.4205 -5.10836 -7.4728 38 30 23
-7.53556 9.30849 9.1981 9 11 15
1.32378 0.422623 -12.021 62 66 77
-6.79889 -0.232059 12.8968 49 68 78
-3.96114 9.42541 -11.954 51 60 68
-5.13981 12.5893 0.794098 13 11 18
-0.936481 11.4681 3.28243 38 25 29
6.32434 7.47169 1.67517 48 40 6
-13.6459 -10.0469 3.88223 51 71 77
-2.69304 14.6115 9.31738 48 65 70
8.94287 -3.76195 3.01665 58 60 63
-12.8094 -3.75299 -2.74913 47 71 81
0.0208817 9.89742 -0.729302 38 23 28
8.89454 -2.37228 -5.72652 57 58 68
0.224252 9.11979 3.79179 34 25 22
3.9631 4.67443 3.87303 58 30 3
-6.98479 10.2633 13.1981 20 23 27
2.94054 4.57172 7.13601 33 37 40
9.48711 3.81513 0.531668 69 35 10
-6.69377 10.4006 10.5111 19 23 28
0.491329 8.607 -6.95925 37 25 26
-3.67718 14.6252 -8.66798 37 17 17
1.7345 8.81113 -0.167849 43 28 17
-3.60281 15.7194 8.1699 43 63 71
-2.59641 13.8902 -6.14777 38 14 14
-1.69772 12.3937 -1.51927 32 19 19
-0.717344 6.32687 -12.2379 48 59 69
-12.7499 -2.59881 -2.02703 50 70 79
-3.77986 -10.551 -15.9071 43 51 58
4.37443 -3.20156 -7.95062 50 48 55
-2.18123 12.6002 -10.0965 29 14 14
-7.54766 3.26249 -12.772 57 43 20
5.44354 0.257329 -7.33929 47 47 56
5.57851 -5.79 -13.0218 31 25 23
0.965025 8.08955 6.70131 38 39 41
-6.62841 -10.6633 13.9427 45 65 73
3.11126 -8.6659 13.2908 10 28 22
1.73296 5.87443 -12.5213 33 27 29
-2.37394 3.6919 -12.1779 57 58 61
-7.99332 -1.60684 -13.5646 55 73 76
0.786625 8.38103 9.05979 34 40 46
8.30048 -2.22695 -0.190841 37 16 14
0.704687 8.34113 -5.89222 42 29 30
3.83124 0.162638 -13.1386 53 57 59
-9.86103 5.88431 -5.51634 23 25 27
-5.00089 -11.7 13.9023 12 16 20
-8.4214 8.24002 7.67067 27 29 33
0.463686 13.2556 5.72797 59 74 82
-4.93715 13.9462 -7.79263 25 30 32
0.248948 -6.5568 -15.427 31 37 22
-0.763912 9.21395 13.2888 27 43 50
2.26578 4.74234 -12.1304 30 23 26
-7.8311 8.96423 2.13431 18 16 19
5.63325 6.05465 -3.58189 72 36 4
7.49566 -4.26499 -6.43878 56 55 60
-8.61165 -8.7829 13.8016 55 71 77
4.23913 -9.62723 -17.2226 34 44 35
-0.930649 11.271 2.31009 33 16 18
8.83099 4.50549 4.7905 46 36 7
3.69978 -8.44551 -16.3072 37 40 38
-2.07584 -5.02007 -15.5953 53 69 75
-8.47583 5.20883 -12.2923 46 54 60
4.34459 1.18873 -9.86836 26 6 7
10.7892 -9.25914 -9.51758 43 47 44
0.523255 14.7088 6.02291 62 73 81
7.16668 6.44883 0.662981 61 39 6
-5.23816 -4.53799 13.1276 47 71 81
4.5957 9.14863 -0.653503 61 32 5
-8.78596 -7.42125 -13.7642 60 70 76
2.41259 -4.52523 12.9198 44 59 63
-0.0446625 9.80345 -5.07082 42 29 33
10.6059 -7.64742 -9.49176 43 43 33
-3.07967 -8.73475 -15.7443 49 65 73
-8.2977 7.08539 14.0053 30 28 31
-11.3634 3.5802 -2.8065 33 30 33
4.46625 8.02562 -1.67702 73 41 6
5.71072 -0.0913601 -6.43395 49 55 66
-6.80757 10.3898 1.13248 27 27 28
4.6391 -1.64606 6.3515 44 60 67
6.69319 5.52116 3.58926 66 38 5
9.92185 1.93022 -7.00341 61 57 53
10.0121 -5.93875 -6.57788 37 30 19
-8.29276 6.65793 -13.0591 47 52 57
-1.6083 9.01647 -13.1482 55 59 62
-12.9807 0.925564 -9.52885 14 14 21
0.639201 6.9044 13.4932 31 39 49
-0.825737 10.9625 3.37348 36 28 29
-1.89468 -8.68387 13.2278 42 62 70
-13.9704 -10.7586 -4.28156 30 44 46
-6.78719 10.2226 1.36153 25 25 26
-0.944883 11.7278 -0.265276 43 31 34
-9.07483 6.8638 -9.60974 18 17 26
-9.25599 6.95662 8.66289 22 29 36
-13.5616 -6.77725 -8.28191 56 77 85
-12.853 -3.53134 -3.45671 47 71 80
-2.35557 15.11 5.34808 71 81 92
11.6194 -11.3473 0.873642 43 42 43
-1.67412 12.0284 -11.9429 35 21 21
-8.1902 -2.57824 -14.0006 59 75 80
-12.727 -3.28173 3.33094 47 62 71
-2.41721 6.61169 -11.8024 47 71 85
-2.22436 12.8876 -9.70203 40 28 28
-12.5203 1.28316 0.60252 11 9 15
-6.23984 -4.19329 -15.501 52 67 75
-0.722477 5.01927 -11.7675 50 63 74
-2.10997 16.9465 9.2418 49 62 69
8.87055 -3.20582 -4.11469 57 62 69
8.41782 -5.61803 -11.641 35 28 22
3.1108 1.53269 -13.4731 57 62 66
0.606537 7.60072 -9.85634 33 18 21
-2.37966 16.508 5.15542 74 78 83
-8.53825 2.88039 -11.9834 52 64 75
0.356018 13.1972 7.25945 60 80 89
-7.08435 9.22478 13.8585 28 38 42
-13.0805 0.716211 9.57206 17 19 24
-11.9554 2.35051 -4.71426 14 14 19
-0.846677 12.5297 8.98168 43 61 69
0.158855 7.69512 -12.804 47 52 58
0.824903 -9.90255 13.4188 40 54 60
-10.2231 5.24154 8.41021 23 31 35
-13.8646 -10.2201 -4.34383 60 74 80
-6.35372 0.232788 -15.5761 60 40 10
1.77035 7.12507 -2.59292 60 54 60
1.08802 -3.09501 12.9454 42 57 62
-7.08608 10.7172 -6.22993 27 27 30
4.37688 1.00167 -13.5902 49 41 42
-1.56304 3.64434 -12.2117 54 65 72
3.6393 -0.535684 -12.6985 56 62 67
-7.3752 8.20207 -13.1844 52 57 62
-3.92641 -10.1177 -15.7882 46 62 70
6.20732 -0.955058 -6.35246 57 62 68
-11.0276 3.89097 -2.38586 22 25 29
-1.52342 11.9657 -5.59678 32 13 18
-4.44666 14.5702 -11.2455 30 34 36
-11.9849 -0.685522 -12.1534 40 58 66
-13.3176 -8.6226 5.7913 50 72 82
0.162558 15.3748 8.93826 56 72 79
-6.46398 -9.59223 13.7721 50 68 78
-12.7228 -4.98395 5.57297 43 64 72
-6.91593 10.9097 -2.40263 27 30 32
4.2261 5.62711 -3.59436 68 36 0
6.49236 -5.74634 11.035 29 45 37
-12.4123 -3.86465 11.8017 43 67 78
8.74422 -1.83133 -4.05275 55 61 64
-9.73322 -7.94802 -12.4654 52 72 80
-12.9173 -6.27665 8.23531 53 76 86
5.13167 -5.2066 -12.3765 32 24 13
0.0981789 9.5954 -2.41874 39 27 30
-0.783326 12.3604 8.98283 43 59 67
10.7394 -6.64145 6.3276 32 47 43
3.75934 -5.41245 12.8524 46 65 70
-5.1028 12.9109 3.03221 21 25 29
5.59617 -4.9185 -6.74726 51 53 61
2.56006 1.05803 12.9714 34 53 62
-4.54049 14.3238 -7.03767 31 24 22
-8.10136 -1.28827 -14.6291 51 74 85
7.86472 -8.39464 -15.4239 42 42 41
2.6434 4.86746 4.85384 29 24 24
-5.87496 12.3723 3.04068 33 33 37
-9.37915 6.65207 0.884327 27 34 35
5.61868 -11.7344 13.6901 28 32 28
-3.78219 14.912 8.65598 38 51 56
-3.09566 14.7573 11.6312 32 32 32
-4.45143 14.5253 -9.51268 20 20 22
-0.249467 1.15481 -14.7485 67 42 13
-1.30942 11.3238 -12.7044 35 20 20
-3.64742 4.68388 -12.013 51 60 62
-8.92199 -0.0506573 12.5842 50 70 76
-6.61679 -8.47068 -15.8123 48 65 73
-13.2485 -8.5743 5.9964 53 74 84
11.2593 -9.39742 -4.00119 35 35 26
-8.12499 -1.97551 -14.2209 57 74 79
-6.91075 10.6456 0.640423 31 29 31
-9.54202 -7.33609 -12.5015 56 73 79
2.7534 -4.21809 -12.4896 25 23 9
9.75994 2.59781 6.47553 60 43 9
4.24754 -3.19011 11.9058 59 76 87
-2.93772 14.7081 11.6579 31 31 31
1.02883 2.61242 -12.2695 53 63 66
-8.63607 -5.72565 -12.9934 56 74 81
0.275185 8.63115 -7.8554 40 33 39
10.0587 -6.59504 5.14779 47 61 67
-2.04486 -5.49135 -15.7053 51 63 65
-12.0277 2.25764 0.433645 17 18 23
-9.89965 4.03325 13.9505 44 53 52
7.1202 2.22146 6.67336 57 36 9
0.464093 14.0981 6.46708 61 73 80
-0.105592 0.252247 -15.3648 70 48 23
11.0034 -10.4622 -8.34272 42 47 36
-5.21896 13.1536 -12.2205 27 25 28
11.6653 -11.6915 0.364128 41 40 42
-5.56308 -2.2941 -15.3355 52 64 71
-8.28602 -7.65009 -15.7621 51 74 83
-2.83089 13.9255 -9.00544 27 12 11
4.12068 -5.14301 11.6962 57 78 86
-5.70168 12.413 8.29335 19 21 24
4.06491 -2.93648 -10.8035 35 23 29
-6.07815 11.6842 13.0501 23 29 32
-3.63184 16.1442 7.0093 41 64 74
-5.86385 12.453 7.43225 27 27 31
-12.4466 2.20653 -3.96715 29 30 34
-0.707476 10.6249 -7.2863 32 16 18
-10.5469 4.49714 -3.1159 19 20 22
3.07552 4.06028 9.14323 31 25 26
-6.82225 7.7997 -12.3966 46 57 64
-12.3161 -4.06692 10.8471 39 62 74
-2.61174 13.3801 -8.25544 30 9 11
10.667 -7.01413 7.31438 36 49 45
-7.43664 9.13528 11.0553 17 16 19
4.49563 5.0268 -4.09758 80 44 1
7.64516 -5.25066 -12.3965 29 36 21
-5.98947 -0.0359383 12.7238 47 68 79
-6.90756 11.0511 -8.81458 31 31 33
6.44767 -9.73936 13.6629 11 19 12
-2.62327 17.3517 5.55859 57 55 59
10.9562 -8.23802 -5.67591 29 24 14
-8.84359 7.1913 -10.9897 34 33 35
-10.6199 4.72007 -3.92291 26 30 34
-6.62071 11.2945 -5.96627 24 26 28
0.175491 8.02922 13.5703 35 44 51
-3.66971 15.884 6.7378 45 62 72
-8.87901 7.18483 8.99016 22 24 29
8.31824 -6.1127 -13.1298 28 24 8
-0.604311 -4.54499 -13.5349 56 64 73
9.19685 4.22375 1.029 72 36 4
-12.9637 -2.72342 -6.49769 55 75 78
8.93798 -7.04906 -13.4473 36 37 22
-4.54211 11.7037 13.3051 38 57 63
6.45716 1.16762 -7.79605 68 44 12
-1.96159 6.04866 12.3503 41 60 68
-4.31539 14.7044 -2.09409 22 26 27
-12.9174 -6.77387 9.16709 44 66 74
-7.94673 8.77917 -5.44394 21 23 25
7.01827 -2.74524 6.23746 49 62 69
-4.55672 14.3931 0.672224 14 15 19
9.48986 -5.57203 7.2855 29 43 31
-0.1852 10.3665 3.95598 40 35 36
-1.51909 6.14863 -12.1098 50 58 63
8.52858 -8.58539 -14.4286 25 23 8
-5.91804 12.4022 4.15914 27 26 31
-4.57457 0.865822 -15.1039 71 40 5
0.758368 7.24207 -11.5052 30 20 24
4.23428 7.16708 -2.44639 74 41 6
0.000636101 1.98587 12.4552 39 55 62
-8.84361 7.77581 -9.94521 32 32 34
-0.710253 13.2934 9.02423 45 59 65
-4.46023 14.4419 5.04895 19 15 19
-13.5127 0.696304 -6.19292 23 24 27
-6.96804 10.9812 -12.159 28 33 36
0.581873 7.3804 -11.422 30 21 26
-1.08656 0.436239 12.3544 38 63 74
-0.82555 11.3729 4.41293 43 37 45
-7.54884 9.64648 -0.28614 27 32 34
-5.26423 13.2664 -10.5085 31 30 32
0.927393 -3.6945 12.9819 45 58 62
0.133684 -1.64936 -12.1965 57 68 75
-13.484 -7.59332 -3.3851 57 76 82
-0.342221 10.3545 -4.39519 41 36 35
-12.8757 -1.15543 -11.7918 52 67 70
-8.58457 -1.62325 -12.0611 50 65 72
-4.63862 12.1321 -13.2639 54 60 65
8.0779 -5.92316 10.2981 21 45 38
0.518142 -1.26163 -12.1399 50 62 71
-7.20169 9.78207 1.85312 12 11 16
-7.66375 6.33229 13.4994 44 60 64
-7.49086 9.22951 12.5842 23 26 28
0.384644 8.85401 -4.48928 40 26 27
1.10342 3.45893 -12.3673 53 66 74
3.06303 -6.15219 13.125 42 60 68
-0.346473 8.91419 -9.81444 35 28 28
1.49809 6.58501 3.44853 20 23 23
4.41163 1.63311 -7.5708 35 17 14
-7.08851 9.78312 0.200441 17 18 20
-9.33949 6.78925 -1.16647 32 32 36
0.88015 7.38657 -10.4902 33 24 28
-8.43586 8.46868 -12.3648 28 28 33
-4.7254 9.07055 -11.9805 49 63 73
1.68729 -4.97681 12.7496 46 68 77
-3.79086 11.7905 -12.9647 46 59 64
-3.95363 -8.31233 -15.7823 49 65 72
1.66595 6.57645 12.4947 31 30 32
-3.14845 12.3483 -13.3944 54 57 64
-5.01031 -5.2456 13.0776 46 70 80
-9.09671 7.02716 -7.30174 23 23 24
10.5568 -7.11627 -7.93028 29 27 12
3.9121 7.51176 1.47831 51 35 11
-6.73291 10.3382 13.6343 38 47 48
2.37053 5.01285 6.1437 21 19 24
1.54969 -1.00431 -12.0503 51 68 77
4.47755 0.860447 -8.48612 27 6 7
-0.441856 -0.592829 -16.1368 68 38 17
-12.5434 -3.20484 2.69376 44 66 77
-0.879344 -4.23632 -13.2896 62 71 82
-0.190254 -11.0215 -16.7901 17 10 8
3.12744 5.49308 2.86564 19 10 8
9.21986 -3.46094 -5.9616 64 66 70
-2.48322 14.138 1.20946 34 18 19
-1.35696 -6.22021 -15.6117 29 37 31
-6.24449 11.8741 -10.6672 31 30 33
2.02396 -3.0036 -12.5035 55 62 70
5.43055 3.67684 -5.72183 69 38 4
-2.45206 13.218 -13.2504 48 44 47
-7.28774 1.31779 -14.6881 60 43 13
6.65617 -5.06939 -8.38988 21 33 23
-6.07415 -11.2023 -16.3926 21 30 36
2.12112 6.24117 2.51785 17 15 22
-11.3105 3.81293 -8.10382 27 33 34
4.4347 1.19996 -11.3389 28 6 7
5.0885 6.57232 2.46333 74 40 0
-6.8368 10.5728 -3.77411 26 27 31
-8.9219 7.08503 -9.18667 25 27 30
-6.76482 8.56878 -12.9045 49 55 61
-8.36426 6.50618 14.0054 24 23 29
-9.19358 -2.05235 -11.9703 45 66 76
-9.39466 6.61044 8.38776 25 26 29
0.402689 16.5314 5.97033 62 72 77
-13.4294 0.511023 -1.39889 23 25 31
1.97703 4.3968 13.6883 31 47 53
-11.6899 -1.27026 12.763 46 69 79
2.43899 4.2838 -12.1327 29 20 18
5.68264 -11.4435 13.759 26 38 29
-1.96007 13.038 -0.594431 36 26 27
-6.74441 10.2676 0.971012 31 28 30
-13.5719 -8.20741 -3.9801 55 76 84
6.79577 7.01431 -2.41706 72 39 5
2.45366 5.04803 6.4666 20 20 25
0.271366 9.28853 1.2207 47 33 34
-1.37453 11.6781 -10.3583 41 29 31
3.08318 3.80508 12.5603 25 20 27
-12.8298 1.11151 1.63614 10 10 15
1.40983 7.28241 -5.20153 44 32 36
10.4573 -8.1434 -0.538821 43 29 31
3.76397 -5.71956 12.9194 42 63 66
-1.47536 8.60864 -12.8893 56 58 62
-0.589524 9.8908 -10.9735 33 21 20
-4.93189 10.2184 12.816 41 55 63
6.69023 6.48366 2.73561 49 34 14
-13.5118 -7.84806 -3.92731 59 77 85
8.87182 -4.73236 -3.13406 49 52 60
5.1773 -5.33938 6.8915 42 58 68
9.76155 -6.09799 8.47928 3 12 8
-2.88595 9.56457 -12.108 55 72 80
2.36815 5.41769 9.66161 31 26 27
-0.701694 0.495816 -15.4013 69 38 6
-6.85709 10.8881 2.01882 29 30 34
-13.0256 -3.68511 -5.81253 53 72 81
1.1792 7.66907 11.8891 34 38 39
2.4153 5.03065 10.4003 32 29 32
9.12173 -5.96268 -7.49037 33 32 21
0.86002 -0.764647 12.5999 36 59 67
-0.0376549 9.95842 4.6264 35 25 25
0.239487 16.5013 8.19716 58 75 82
0.344898 8.86956 -3.67051 34 22 28
-1.29556 11.0864 -11.3938 30 14 15
11.8309 -12.2174 -1.08028 20 9 8
10.5516 -6.66453 7.43256 27 44 37
3.16824 -5.84462 13.0148 40 60 68
-4.80252 13.9804 9.3299 33 37 42
9.15432 -6.19127 -11.2409 29 17 3
-5.95865 12.0019 3.96602 26 25 30
8.43002 -5.89354 0.288309 32 8 10
-0.389072 10.0389 -5.48666 34 18 22
3.69872 3.47208 10.4789 35 33 36
-5.70607 -10.8711 -16.1355 18 26 34
-1.51991 13.1156 5.21136 71 80 90
-6.6165 10.2504 -13.3716 53 59 62
-10.3719 4.59753 11.1714 22 24 23
-13.0505 1.1058 7.68389 15 14 19
8.28436 -2.47606 -1.48046 40 23 17
-2.94984 13.9392 -8.40635 30 11 12
-1.64939 8.29173 12.3442 40 61 69
-4.32976 -8.8635 -15.7624 50 64 74
-11.3568 3.38316 0.80434 25 26 30
-9.03645 6.91699 -9.4562 20 20 27
-10.5115 4.37642 -13.1847 53 55 60
-7.03594 10.0342 -4.08133 23 23 26
-6.90598 9.38681 13.8621 35 48 50
-0.312897 -3.97537 12.8436 41 63 72
-1.81914 12.8335 11.9309 22 27 27
0.334312 9.54466 13.0373 36 41 44
1.10084 -6.83326 -15.7191 21 28 11
7.53051 -5.44141 -12.9343 28 36 22
0.0872517 8.72714 -11.5247 38 32 34
-0.252154 10.5574 1.52684 44 28 34
5.49262 -3.78598 -6.29384 52 63 76
-7.87456 8.27025 -13.301 50 60 63
-7.88768 9.10534 -11.0077 21 24 25
-8.46061 4.03974 12.9516 46 64 72
11.3809 -11.2783 -6.071 42 50 44
-2.68203 14.0617 3.03673 43 34 40
2.41724 6.49657 -2.62772 78 42 3
-7.97086 8.563 -11.2022 24 23 26
-10.2885 5.27568 -5.25242 30 33 36
8.338 5.16439 -3.80379 75 36 0
-2.63012 14.0869 4.49911 53 53 60
3.06917 0.19516 12.8669 24 53 63
-13.4348 -6.37606 -5.8212 55 78 85
-7.08138 10.0939 11.4417 29 30 34
-10.0296 5.29051 1.1425 22 23 27
9.42884 1.99426 -7.45784 76 45 10
1.5765 -9.10007 -16.9775 33 46 38
-11.0003 3.97014 -11.6446 19 21 27
-13.9887 -10.9304 -3.15377 29 43 47
-0.168251 -0.0744452 -12.3631 58 61 68
-9.42215 5.91014 9.64436 22 23 26
1.47323 -4.66706 12.785 39 65 76
8.99904 -5.46432 -4.61607 62 60 73
-7.08098 -2.94515 -15.2076 50 68 77
-8.86721 7.09342 9.15614 12 14 19
-7.03906 10.8293 -9.53453 34 37 38
5.48551 1.91804 -7.21106 74 44 8
-3.86409 2.22138 -13.7905 62 42 12
-7.48797 9.44601 11.4734 20 20 23
-12.6589 -2.73222 -3.35761 51 71 80
2.72938 -5.04857 -13.8536 28 33 28
4.45874 -4.60677 7.97387 46 65 69
-6.70521 -9.42786 -15.827 51 69 78
8.26842 1.99014 6.83219 53 32 0
4.14887 -2.62714 6.78713 49 66 73
-2.1598 13.2445 -5.9339 33 14 15
2.60917 4.72373 -9.83612 39 30 32
2.63135 7.63523 -1.56318 71 36 0
2.11002 5.69874 5.05748 23 22 28
-2.58363 0.595823 -15.2047 66 43 8
3.58035 2.33381 -13.5376 39 38 37
-10.6089 4.3945 -4.6885 20 15 22
-2.01914 -2.77294 13.0016 47 64 70
9.1993 -3.20111 -5.90077 62 66 72
4.36706 6.82578 2.25231 51 34 12
-13.0557 -5.21587 -2.22363 51 71 80
-4.77263 -5.10957 -15.6896 51 64 67
1.30058 7.25926 3.15535 32 30 31
0.274838 8.28004 -12.5278 50 50 55
8.55639 -6.05148 -1.01208 38 24 21
-2.84454 14.6873 11.8277 30 31 31
9.056 4.48181 -1.89598 64 43 18
5.58368 -4.84979 -8.89079 29 29 21
-7.52641 -10.6251 14.0773 49 66 73
-4.91522 14.1195 -8.23365 18 13 18
7.73638 3.55578 -6.0181 76 41 10
-6.92112 10.6863 -1.21528 28 30 32
-4.49292 14.4926 -2.27279 21 22 23
-1.80967 10.469 -13.4318 52 64 71
3.86338 1.94195 -13.6572 45 45 50
-13.6199 -8.94273 -1.18778 54 73 82
0.210762 16.8261 7.10509 53 68 72
-10.7604 4.12936 7.95118 20 22 27
-7.5948 9.67546 4.21323 31 33 37
8.32202 -2.42537 -1.17812 38 19 15
-12.5817 1.37376 -9.13168 19 23 28
7.65117 -2.52043 -6.24555 64 70 79
