ply
format ascii 1.0
comment Created by Open3D
element vertex 1404
property double x
property double y
property double z
property uchar red
property uchar green
property uchar blue
end_header
-3.50133 0.151409 -15.5942 65 36 1
0.270309 14.6863 8.55224 57 75 82
1.11981 -3.36236 12.9512 43 56 62
5.28307 6.10744 2.87486 55 33 7
-5.16688 13.1226 10.3262 22 35 33
0.548221 7.4665 -11.7055 31 23 24
7.00362 6.76777 1.6014 68 43 6
-6.31109 5.99403 -11.9775 47 56 66
-0.0924067 -4.9447 -12.7481 54 64 70
8.39664 -6.18316 0.736079 34 9 10
-11.1362 3.82165 9.2791 24 35 38
2.29393 5.90971 -3.64868 57 35 41
11.4637 -10.2238 -0.13216 44 40 41
-0.194371 9.56952 -13.2009 46 41 41
3.75489 2.92926 8.68378 34 31 33
7.53556 2.19648 -7.33787 75 44 5
-8.98173 7.16971 11.1445 25 27 32
-3.23122 -2.43248 13.0257 49 66 74
1.40413 4.08454 13.0424 32 48 58
-8.2598 8.46455 -2.12812 27 29 31
-7.84082 -7.91021 13.3937 49 72 83
-5.19032 12.7028 -5.13653 22 21 24
-3.70949 8.20804 12.0871 37 61 70
-3.3848 -0.920778 12.6386 40 65 75
-6.61671 -5.30841 13.1358 51 71 78
7.08559 -11.7863 13.6353 24 38 34
5.37606 7.37017 1.6246 53 41 34
5.95563 -4.97171 -6.80039 55 57 60
2.56377 -11.4401 13.6353 44 54 56
9.69302 -6.1204 6.41461 22 36 33
-4.25171 -2.16318 -15.3631 49 61 71
-2.68686 0.928733 -14.8461 72 45 8
-9.8318 5.51327 1.83993 23 24 28
1.7537 6.41585 13.1716 33 35 37
10.4345 -7.06611 4.89062 46 48 51
-8.32517 7.82562 12.1785 19 23 27
-7.53193 -5.67542 13.1236 50 72 82
-9.95514 -4.6019 13.2798 51 71 81
6.40782 7.06927 -2.88737 60 37 3
-4.26403 -2.56464 -15.3027 51 69 80
7.38996 -2.30729 6.22375 48 69 73
7.20685 4.34957 4.78165 56 33 3
3.15191 1.28168 -13.3942 57 62 66
8.90226 -4.29992 2.71259 53 50 56
6.92459 7.01092 1.92942 55 45 24
0.254802 8.40245 -10.3099 34 20 24
-11.7827 -5.69483 13.1617 51 71 78
-0.314482 -2.99396 12.822 42 61 69
2.98713 4.35012 7.06927 34 35 39
0.419523 14.2765 7.90342 59 78 87
-8.5122 3.23959 12.8054 45 61 69
7.49036 -11.7681 13.565 28 43 43
10.0264 -9.23656 12.5469 30 44 37
8.79537 0.038269 -2.3995 56 64 74
-11.9525 2.02917 13.6129 25 29 31
0.948315 7.98362 4.03579 43 41 42
-2.26245 13.2065 -0.022604 39 24 27
-4.09682 14.6535 -8.44574 26 19 21
4.02605 5.64553 3.13506 48 32 13
4.34061 -3.10991 -8.04732 48 47 54
8.75975 -0.311623 3.16135 57 65 80
0.222001 5.27617 -12.4369 55 64 73
-1.35186 11.2131 -6.92983 31 16 17
9.19409 -6.36305 -9.84757 19 3 0
10.0698 -6.54322 -4.44726 54 47 54
11.5084 -9.95422 3.90986 50 49 49
-5.48074 12.7007 13.5093 32 35 38
-9.53681 5.81809 2.73618 20 19 24
-6.90674 10.1765 11.3482 24 26 29
10.8102 -6.70317 -4.63368 54 56 61
8.47607 -4.65809 -6.4045 61 61 69
-3.55247 -7.24357 13.488 51 65 70
-7.88894 8.84948 1.54539 23 22 26
10.0375 2.7546 4.65326 65 46 17
11.5766 -11.2156 0.234829 44 41 43
-4.69344 14.3298 12.7806 28 33 36
3.65134 2.66313 11.4223 25 17 22
-10.7322 4.39395 -12.0309 18 22 22
8.86583 -2.26864 3.65918 60 63 73
-6.33362 11.5486 -6.07705 24 26 28
-0.927246 10.7497 -12.6113 44 34 35
9.00565 -2.39146 5.41899 58 68 77
9.77469 3.65948 -5.70544 71 44 8
9.48601 -6.64299 -10.2538 22 6 0
3.86447 2.39281 7.68225 23 19 22
-1.32848 11.5533 -6.97223 38 22 20
4.50577 2.08637 10.9896 30 32 34
-2.49618 14.1108 -0.108677 34 17 17
-8.19964 -6.10612 13.4044 53 71 78
11.0432 -8.78489 -7.36867 41 42 39
3.88692 4.63717 3.87838 57 29 3
-13.1562 0.968248 1.34421 15 12 19
0.338886 11.9106 8.20992 59 74 81
-6.88013 10.6553 3.20039 27 28 30
4.52724 1.01351 -11.0728 28 9 10
3.65391 -5.31174 12.8944 44 62 67
8.79605 4.64915 -0.681884 65 38 7
-7.30771 8.13464 13.8112 40 61 63
-6.52628 11.2964 13.0572 32 38 41
4.13133 -1.42053 -11.5745 56 64 67
-5.93102 2.29759 -13.7146 57 42 24
1.37417 7.39998 -3.60894 46 28 29
3.12126 4.21026 10.4274 41 38 35
-0.30855 -1.62178 -15.0885 54 56 61
-10.9344 3.92967 4.08732 23 27 29
4.14038 -7.39008 13.1322 14 32 25
-12.0538 1.92614 12.0608 12 11 17
-1.43688 12.0521 -1.61218 34 18 19
-3.65983 15.9235 5.91125 45 65 71
-8.98296 7.06343 -5.45317 21 23 25
-5.13907 13.286 13.4841 30 33 33
-4.96099 -2.77581 -15.2701 52 68 76
-0.199347 10.1355 -1.62292 38 25 27
-7.01649 10.1051 7.73819 21 18 22
-5.41606 12.4174 13.5834 27 29 33
3.36344 6.88068 1.81487 61 31 0
2.95556 -3.33335 13.0546 46 59 65
9.60433 -6.83191 -10.598 23 13 3
-2.81836 3.66072 -12.158 54 48 50
-0.185004 9.33778 -7.58741 43 36 41
0.116847 16.0252 5.19458 69 72 75
-2.34713 13.2118 1.47513 32 16 16
-10.8661 4.16464 12.45 25 28 32
-9.08025 -5.71736 13.1963 51 72 80
-1.13256 13.439 9.00071 43 59 64
3.82783 -7.09313 13.0517 7 22 14
-2.32248 13.246 -8.19322 31 12 14
-4.82179 13.973 0.250824 20 22 27
2.31304 -3.23329 -12.5345 52 59 67
11.5086 -10.4361 3.84702 44 38 41
-6.70244 -9.86217 13.8182 49 66 76
-4.78862 14.2423 11.8572 26 28 33
7.62276 -5.16201 6.46474 46 64 74
9.04635 3.63433 5.67055 58 34 3
-5.0802 11.6293 13.6505 41 57 62
8.44825 -4.45366 -2.24064 33 4 9
8.27923 -5.73876 7.85432 8 20 14
-4.83227 13.5872 -0.563879 22 27 31
-6.41297 -7.01431 13.5276 50 68 76
4.18462 3.27538 -5.80108 78 44 4
11.548 -10.7285 8.8 40 60 46
-4.04305 1.49682 -14.5089 54 38 11
6.02013 -2.23883 -6.36052 58 70 79
0.496302 7.67319 -9.37721 36 18 19
5.97265 3.54782 -5.82413 76 41 2
-10.9178 3.91533 9.30345 20 26 30
-0.230239 9.53358 -10.8573 46 33 34
4.7499 1.95681 6.34513 32 19 12
8.70824 -12.2515 12.9784 24 35 31
9.61119 -5.59414 5.49719 54 61 59
9.97263 -6.49244 -9.26714 31 28 9
5.09663 -4.88825 -6.69322 50 53 60
-5.74587 2.14363 -13.789 56 35 11
-8.50004 7.48825 13.8257 40 44 46
-0.0802183 9.01707 -6.97646 35 26 26
-5.96605 11.1415 -13.4139 53 61 65
8.25564 -3.7246 1.17918 35 11 7
-6.83913 10.9188 6.55701 31 35 36
-6.27993 5.25362 12.4409 45 63 71
-2.18287 9.49771 -12.621 57 60 69
-9.64025 5.75134 6.12154 19 20 25
-1.67293 12.0562 -10.7451 39 26 28
1.46632 7.07994 3.82693 33 36 42
-6.63051 11.3346 -7.66613 30 30 34
8.66447 -7.05352 -1.80341 35 19 20
5.26277 -10.4461 13.6057 5 26 9
11.5503 -10.15 8.59299 39 54 41
-2.60085 13.6834 -4.69977 34 9 11
-9.37147 6.76536 6.11622 23 28 31
11.4814 -10.1223 0.573822 42 39 41
1.68062 6.56088 4.73216 26 24 27
8.4272 5.00854 -1.6772 79 36 5
-1.67036 12.0566 -5.70268 33 16 20
-0.937205 11.6681 1.40557 40 30 31
-1.4991 12.0119 0.256044 36 23 24
-10.5377 4.2491 8.40341 15 18 24
5.90405 -10.1502 13.779 23 34 25
2.98554 8.32017 -1.35535 60 37 4
-2.18146 10.7758 12.6727 33 50 61
3.06219 4.16356 5.09225 72 46 14
-2.13698 12.8243 -13.1593 44 36 34
-4.59927 -0.329154 -16.147 73 39 11
-0.905888 1.71715 -14.2879 67 41 11
-6.12529 11.621 -1.80245 28 31 37
-4.86453 -1.66871 -15.4276 52 67 76
1.74878 -6.87458 13.0347 36 58 67
-9.38943 6.69899 -0.470861 31 30 36
6.2646 -5.21594 -9.963 24 40 26
5.34677 4.90529 4.03094 49 34 3
4.40728 2.09926 13.4826 33 33 38
-2.51873 -5.51248 13.1164 43 64 73
-5.26038 12.97 -12.2702 26 24 27
-9.27751 6.83031 -0.676771 30 30 33
-5.4087 8.84838 -12.2012 49 60 68
-0.308693 2.19925 -13.6374 56 53 53
6.05918 -5.98037 -13.4641 23 9 5
-7.7356 9.66524 -7.86908 34 35 37
-1.12251 11.8124 -4.47402 42 34 34
10.8274 -8.79196 10.1681 8 28 17
-0.556 10.7266 3.61703 37 28 25
-5.42949 10.0625 13.2444 42 60 68
3.55219 -2.51086 9.95114 44 61 72
1.50431 -2.77724 12.9024 42 60 70
-1.52474 11.8657 -9.79073 40 32 33
6.36087 -3.99531 -6.42879 55 62 70
1.78313 6.44541 9.67499 29 26 29
-9.14675 6.99717 7.51583 24 26 30
0.423618 16.1507 5.70188 62 71 75
-5.6316 12.4202 5.27773 15 13 17
0.0734043 -11.7361 13.7295 29 37 39
-12.4895 1.53502 12.9653 16 17 23
-1.89535 12.9756 -5.3456 41 27 29
-1.28461 11.9388 11.9123 33 36 34
-1.14383 11.8948 -4.10578 41 29 27
-8.00161 -9.6597 13.8566 51 68 78
-7.61309 9.74922 -6.47401 26 29 33
-3.12007 -10.0171 13.712 43 64 74
-0.669446 11.4688 4.99913 59 71 81
2.68941 4.24589 -7.16394 36 20 24
-9.56255 -1.59408 12.9424 57 72 78
-1.38361 15.6444 9.18745 47 61 70
-4.46432 1.13616 -14.8707 67 41 2
-0.0553718 -0.518528 -15.036 64 66 73
6.78342 4.66785 -4.93403 76 45 5
2.58627 -0.965515 12.9172 41 58 69
5.69914 2.78732 -6.59623 74 40 0
9.0438 -7.06887 -3.96472 45 47 55
-7.65575 7.96068 13.8987 37 42 53
-0.481447 -1.10824 12.7359 43 58 66
-2.83957 0.421543 -15.1927 78 45 5
11.6815 -11.8869 -0.998655 31 23 26
0.308269 9.71768 7.09374 50 51 55
0.640182 8.48957 5.31701 34 28 34
1.35977 7.31177 9.32513 35 39 41
11.3763 -9.02984 6.2979 33 46 34
-0.146431 8.8824 -7.88305 43 39 41
-7.46351 9.75492 -11.5185 26 29 32
-5.40757 12.8089 11.858 16 18 21
-1.901 -1.93939 12.6517 37 65 74
-1.95792 0.824545 -15.0479 72 42 8
3.53939 6.83766 -2.41876 82 40 0
-0.580629 0.314046 -12.9652 63 62 67
4.36423 -3.25254 7.57437 52 67 78
-2.49189 3.04196 -12.8293 66 45 23
-1.33703 1.05003 -14.8986 67 41 9
9.37547 -6.43638 -10.5504 25 8 1
0.0142736 4.37439 12.38 37 52 58
-6.42079 -0.0909958 12.843 46 69 80
0.945055 8.00364 6.33736 34 32 35
-8.37856 8.27864 11.7321 28 31 34
1.6249 6.8389 -4.88448 42 25 27
1.20013 6.53092 -12.6006 29 21 21
-7.81469 6.10165 13.5261 45 59 63
-4.26842 -11.1308 13.8533 44 52 58
1.09398 7.33555 7.41484 32 33 37
-8.54922 7.6433 7.27535 14 13 18
-11.387 -2.12465 12.7021 51 76 87
-2.15564 13.1907 -12.6154 37 18 17
-8.04093 8.34369 -7.25888 23 22 32
-8.28833 5.29447 13.5735 45 60 63
3.96198 -0.144931 -12.7224 53 55 60
7.43677 -5.16139 -7.96752 23 25 24
-3.11165 -2.7271 -15.4313 52 61 71
11.3623 -9.701 -2.95577 40 39 39
10.7176 -7.77786 -7.67913 33 24 11
-2.04241 -5.74945 12.9551 45 66 75
2.68342 4.70563 -5.96407 37 27 32
6.40143 -2.368 -6.4353 55 63 70
1.53464 6.21199 13.6714 35 40 46
-2.23449 1.21681 -14.6782 59 36 7
-13.5434 0.538986 -0.397509 33 38 42
-12.329 1.4417 7.06361 9 6 13
6.32822 3.69768 -5.8455 74 42 4
-11.5494 2.83711 10.8231 16 17 22
5.68961 5.10642 3.82975 55 33 2
-3.44632 17.2167 8.32982 44 61 68
-1.20708 -4.05329 12.7588 40 63 74
-6.00274 -9.74898 13.7602 48 69 80
8.21457 -2.8669 -1.88705 39 19 18
11.6341 -11.8074 -2.60476 30 28 28
-0.587369 9.82645 13.6423 33 41 48
-4.72642 14.1957 0.921032 12 13 15
-7.28802 9.79942 -1.27771 23 28 30
-7.56909 9.75261 -10.7602 25 30 31
3.99384 -0.209335 13.4588 39 55 60
-8.84673 7.09909 -11.326 25 26 27
-0.399862 15.0616 9.12003 45 66 71
7.20031 -5.10305 -11.4068 28 24 9
0.264145 11.1116 7.25484 64 76 82
-1.41531 11.5272 -7.91119 44 28 28
-9.45874 6.1193 11.6687 19 23 29
4.07314 -1.1844 6.58152 50 67 71
10.9574 -7.96635 8.86163 30 41 30
8.72243 -5.80194 -9.49233 21 23 8
6.00128 -6.27452 11.5136 14 30 22
8.76653 -6.94757 -3.16229 52 54 60
8.90937 0.333063 3.17332 58 67 75
-3.6373 13.2848 13.6109 33 56 64
3.44744 9.04694 -0.0586662 56 37 2
2.67043 7.25997 1.33921 37 27 13
-5.8955 12.3861 3.60457 29 31 35
8.1409 -1.70716 -1.82955 56 52 57
7.94469 1.53985 7.08441 53 39 27
-9.21955 6.55023 10.9051 19 20 25
1.02231 8.5539 -1.39151 43 22 25
1.35534 7.42198 11.5627 34 38 42
1.9939 -8.73483 13.3848 36 54 59
-5.46931 -6.68868 13.4883 46 67 75
4.86074 1.18492 10.156 22 22 29
11.6833 -11.6558 0.617929 41 42 42
9.46297 1.63074 -6.34836 52 48 54
-3.62501 14.841 9.87704 40 48 54
9.84117 -7.28441 1.32311 39 22 24
-6.67753 9.10218 13.7679 40 60 61
-11.1211 3.7839 11.0026 25 29 29
0.653074 8.60725 10.603 34 40 43
5.95425 -7.10131 12.172 16 40 37
5.58786 6.02077 3.09128 51 30 4
8.30666 -5.54432 -1.64808 35 10 4
3.04375 4.31114 13.1364 37 37 43
-1.39312 2.76573 -13.1894 55 49 39
1.97192 3.98028 -13.5237 51 61 63
5.61727 -2.40989 -6.47372 57 65 75
8.58335 -4.34336 -4.23443 55 64 75
-3.61035 15.6608 6.23613 43 62 68
2.31689 8.46155 0.237099 51 32 11
-2.31788 16.4692 5.16076 75 81 85
2.49411 -0.624796 -12.3903 54 66 68
-11.8676 2.60442 4.99046 22 19 22
7.21849 -9.43089 13.6565 28 40 34
2.4812 8.17313 0.505462 49 34 9
8.01533 -3.20765 -6.15607 58 70 81
-0.408515 -3.68238 12.8342 38 60 69
0.252424 9.67137 12.9663 31 36 39
9.46789 3.55689 5.64568 56 37 11
4.03027 -1.15364 -12.2479 61 60 66
-11.6237 2.55242 -4.06145 17 13 19
1.47377 6.53301 13.6755 35 43 46
10.038 2.50147 5.37843 71 46 24
6.52972 -9.74055 13.6438 7 15 8
-2.9446 8.69454 12.335 43 58 71
-5.09237 13.0145 13.6993 40 42 46
-0.124128 17.0283 6.00832 50 60 64
6.47147 4.36576 -5.09209 76 36 1
-7.66718 9.09181 7.01272 20 19 23
-1.3463 16.0419 5.26038 67 73 83
7.60253 6.05626 0.704855 70 40 2
0.276176 9.82368 8.82412 55 71 74
4.98722 7.87869 -2.07506 64 35 4
3.97946 7.16934 -2.43164 72 42 5
7.87319 -4.90384 -10.9249 44 39 30
8.03716 2.94407 6.47419 54 37 8
2.19166 -5.39065 12.6459 39 64 75
-3.62056 14.7301 5.81264 28 36 43
-7.25953 9.78756 -1.8237 27 36 37
8.78143 -4.81244 6.5374 44 61 66
3.28909 3.83934 10.5146 44 36 36
2.05407 3.58273 13.5212 35 49 61
-0.471407 5.74674 -12.085 52 64 72
0.948486 8.33008 10.5566 43 50 52
-0.751257 4.55242 -11.913 49 63 70
-5.34811 2.84 12.6702 42 65 77
-3.49733 15.8967 5.4127 56 74 80
-1.67193 12.0575 -11.2391 41 27 28
10.7939 -8.50881 -8.35179 39 40 24
6.44563 -5.36896 6.85258 49 59 64
3.52733 -2.7564 10.176 49 70 76
-3.16746 -0.523259 -16.0241 77 42 13
-11.1744 3.73747 3.80278 32 32 36
-6.97545 10.9341 -11.6134 32 35 36
5.94988 -5.49813 10.1309 23 41 41
3.9919 2.35311 11.8266 25 18 24
9.01109 -5.17163 7.04869 36 51 48
6.97734 -10.8715 13.7422 20 36 25
6.36616 -11.8199 13.6535 13 27 18
-6.2048 6.69935 12.4763 42 59 70
-2.46335 13.6893 1.20925 36 16 12
-10.8164 4.03158 -1.09802 23 26 29
9.14217 -7.26787 -1.90683 36 11 18
10.3457 -10.4938 11.959 28 50 41
8.75024 -2.79881 -2.55139 39 16 16
-2.30544 13.2535 0.820854 30 17 17
-2.51805 13.2732 9.90609 31 32 34
3.31544 2.43062 -13.6419 47 53 57
-8.02489 -2.00501 12.6806 48 71 80
-6.1051 -0.508305 12.8852 51 70 78
0.2614 8.55803 -12.112 44 36 39
8.97797 -2.92811 -6.08466 64 67 76
-3.21316 0.268326 -15.3291 70 37 2
-0.136483 0.31904 12.5649 37 58 66
-4.65772 14.1747 -0.864725 25 27 31
-6.41692 5.68836 -11.9952 46 55 63
0.0104008 6.43563 -12.9001 51 57 65
9.45137 -6.39232 -11.3737 30 20 5
1.41299 6.22428 -11.5291 29 21 23
3.03993 4.32293 5.76304 62 38 14
-7.5126 7.22265 -12.6334 45 54 64
10.7911 -10.337 -9.78261 43 49 42
-8.80488 7.20922 -0.311741 27 27 28
8.84445 -10.8415 13.3957 34 46 39
9.02307 -6.12288 -11.0967 28 14 2
-2.04756 12.7795 -10.6108 43 27 26
-1.85534 -5.30659 12.9606 41 64 74
-0.0734949 0.987803 -14.2393 58 56 60
4.9439 0.61382 -9.47151 37 22 28
-1.81665 7.69278 12.2385 37 54 65
3.55919 0.62039 -13.4837 54 59 67
-5.7637 5.30606 -11.8227 43 59 67
11.334 -10.358 -3.38259 40 41 37
11.8356 -12.0845 -0.519457 29 18 24
10.9062 -7.70769 -5.46905 25 21 8
-3.7032 6.50526 12.2563 42 63 75
-10.2032 -1.91879 12.9609 54 72 76
-11.8563 2.36306 -7.71749 12 12 19
-1.41176 11.9093 -5.84931 35 19 22
-0.72157 1.24947 -14.7331 67 41 8
1.17253 -4.86368 -12.4742 39 55 58
-5.98455 11.6792 5.17929 21 19 25
4.78915 -4.39801 -6.49691 55 62 71
-6.44676 -5.57077 13.3487 50 68 76
2.51638 4.71785 -11.1585 40 29 33
-2.65247 15.5734 9.2096 48 62 67
2.52795 4.38691 13.8496 19 33 37
-7.72981 5.48647 13.0358 48 64 70
-3.43071 17.212 6.31136 43 54 58
10.5463 -7.05027 10.1573 20 40 28
-8.01386 8.32328 -9.88521 27 27 29
0.78603 7.82456 -5.72946 36 20 22
6.02206 7.87899 -1.75781 71 40 4
-5.08448 10.0416 -12.5071 49 58 65
9.13941 -5.38415 -5.57082 55 62 69
-2.89491 13.7054 -12.6824 31 17 17
9.53069 -5.59486 7.2033 31 46 35
-1.23738 -1.15954 12.7751 43 61 67
1.75591 5.87393 13.7055 38 36 33
-1.50309 3.74859 -12.1687 54 65 71
-11.2091 3.88457 -11.4113 24 26 31
9.17682 -7.26968 -1.37954 41 13 17
9.22593 4.14563 3.85218 71 45 11
-2.25597 13.2254 -11.7097 32 15 14
-7.24476 -7.58887 13.296 47 70 82
-9.31064 6.0377 9.39227 16 19 23
9.8761 -6.45841 8.98796 6 28 14
8.80923 -4.17064 -2.78576 43 35 40
4.63213 5.72118 3.39475 55 36 11
-7.68863 1.75746 12.6808 45 67 78
-0.679365 10.8562 2.13428 43 26 28
-3.68792 14.8362 -0.958115 31 36 34
-0.294752 10.4761 10.929 41 46 48
8.08055 2.12271 -7.26932 82 45 12
-5.66883 11.9457 12.3226 17 26 29
-8.29031 -10.1195 13.8958 55 69 75
2.4916 5.00994 10.7538 31 29 33
4.28892 -1.34136 9.09044 51 59 65
1.33971 2.83113 -12.3912 54 63 69
5.4548 2.27902 -6.88959 83 49 20
7.76232 -1.96055 -6.32191 61 62 69
-12.3858 2.31549 -11.9783 22 22 26
-2.08861 9.8865 -13.085 53 62 68
4.13367 -2.70408 6.83504 49 66 72
11.3711 -10.5026 -3.12635 41 41 37
-9.82823 5.66031 -4.28109 20 17 18
6.90025 -5.05071 -10.3915 21 33 20
-1.23578 15.2654 9.12856 48 62 67
4.6425 -2.84437 -6.50426 57 63 70
3.31405 6.91879 -2.38512 82 42 2
0.00294638 -2.67093 -12.4031 52 61 67
10.6605 -6.46783 -4.65018 59 58 66
6.55813 -6.15828 11.7226 20 34 27
3.3861 3.47186 6.31132 42 25 13
8.84418 -2.82695 -4.20938 60 61 69
-9.76445 5.63662 9.09242 23 22 25
-5.67538 5.66049 12.3713 44 62 69
6.68225 6.83869 -3.0553 68 45 20
2.80848 4.8361 11.1884 35 34 40
3.3796 7.22911 -2.42714 76 49 18
-1.28815 1.27118 12.4527 37 59 68
-3.85185 14.2254 13.7994 25 22 25
-8.85909 -7.80528 13.4584 50 72 80
0.261871 9.24185 1.14401 42 27 30
7.51359 1.91224 6.64783 69 40 8
4.80326 0.82049 13.742 37 45 47
-2.92531 8.23061 -12.0734 54 60 65
4.1474 0.25029 -13.0897 52 49 55
-3.33444 10.083 12.1906 39 65 75
-9.68175 6.52215 -6.05287 32 34 39
2.7693 2.43208 13.6472 35 53 59
9.1011 -3.22125 -6.06162 64 68 74
0.37225 -5.88495 13.1785 48 60 66
-1.7576 -3.53339 12.8747 39 63 74
11.5294 -10.7157 2.48992 42 40 43
-1.31629 -11.6917 13.7375 21 29 31
8.97381 -6.8266 12.0927 5 29 18
8.77527 -4.78504 -3.99163 53 57 69
0.260319 15.7852 8.7147 59 77 83
0.629244 -0.443595 -12.3096 61 62 71
-2.49277 0.260058 -15.5509 66 39 7
-7.60894 9.54187 9.91695 22 23 27
-1.45319 7.50194 12.2349 34 56 68
-4.74344 7.18375 -11.9177 55 70 82
0.764358 8.50682 4.59365 40 38 47
-6.67273 10.7063 11.254 21 21 23
-2.39699 13.0418 13.6876 11 13 19
-3.72053 14.5653 -11.4493 23 17 16
11.3253 -10.2942 -3.9512 41 45 36
0.140397 16.9008 7.0482 51 65 70
10.778 -6.49423 -5.86055 34 26 12
-0.081255 1.79792 -13.5209 51 58 60
-4.86645 14.06 12.7937 26 33 34
-0.277217 9.88144 2.31596 34 16 20
0.350053 15.6248 6.30299 61 74 81
5.08708 0.984766 12.8619 30 33 39
10.0267 3.02724 -1.5705 64 46 26
3.68744 -1.78347 -12.4964 59 65 75
3.94011 -2.14629 8.16197 38 49 55
-5.38893 12.6639 2.89922 22 29 32
3.37967 1.92746 13.7786 31 54 59
-1.45424 12.0293 -4.47162 38 25 24
7.5333 -2.74553 6.22645 55 68 74
7.73691 0.55905 -6.83515 53 56 61
7.97458 -1.17657 6.22118 50 59 70
-6.54563 11.1914 -1.98528 25 27 30
2.57647 4.75636 -9.97211 39 32 32
-3.47899 6.45498 12.2566 42 63 75
9.86853 -7.08951 12.1425 21 36 29
-7.05653 10.0219 4.86685 21 26 28
11.4166 -11.9366 6.50024 38 50 41
-6.24964 -7.93521 13.3953 47 67 75
-5.46749 12.7455 5.74804 24 25 28
8.71117 -2.19463 -4.83271 56 60 70
-6.6157 11.0963 12.6632 28 33 37
-7.84873 8.80698 3.32982 24 27 30
-0.935848 13.262 5.12985 74 82 94
1.65683 7.03377 -4.18455 44 33 34
-12.6013 1.3711 13.39 19 19 21
-4.44674 14.5445 -4.54579 21 18 22
-8.7446 7.55377 -10.9901 20 22 27
2.15262 5.88645 3.30526 23 22 24
5.32388 7.30869 -2.43537 78 45 18
3.59981 -2.74534 10.5141 75 94 105
1.35517 7.4478 12.1029 36 37 42
-8.68869 7.9362 -8.94658 33 34 36
-5.27071 7.49754 -11.8496 44 62 72
-1.88193 10.1669 -13.3612 53 66 76
-4.49391 0.629879 -15.3192 71 40 4
10.4838 -7.61603 -10.9438 36 38 23
11.302 -9.04099 4.28333 37 43 36
5.07915 0.857128 9.81762 26 30 35
-0.724003 2.07471 12.4566 39 57 64
4.19925 9.09063 0.0563698 62 33 4
8.97523 -3.52237 5.8765 56 66 73
11.6218 -11.0959 3.91527 41 39 39
-6.25787 -2.19449 12.6613 48 69 80
11.0361 -9.37325 -8.33165 42 41 30
6.48451 2.24273 -7.18781 72 40 0
-7.08014 -10.297 13.9058 46 65 76
-1.2339 -5.84651 13.1682 42 63 71
-0.331184 13.8543 5.13134 67 75 83
-7.01941 9.90777 1.54407 17 18 22
5.04447 1.01915 11.1657 27 29 35
-3.60717 13.9587 13.7956 19 19 24
-11.3214 -7.40634 13.4386 55 76 83
-5.1162 12.6915 -3.1087 14 15 18
0.256914 10.3772 7.98679 55 70 74
5.91907 -6.97402 11.7156 7 27 21
0.639915 2.97561 12.3854 35 55 65
4.06752 -0.505964 -11.3026 57 57 66
1.54819 7.93432 0.546289 20 21 19
3.34457 3.55899 6.13111 59 34 9
-8.17001 -2.60698 12.9607 47 70 79
-4.62977 14.3219 4.2732 16 16 18
5.82722 -5.19065 6.63744 34 59 64
-1.27013 9.40189 -13.4888 51 57 62
6.86842 5.14433 4.36824 60 39 7
9.15331 -6.10852 -10.8601 31 23 4
9.9553 -7.73762 2.91251 42 29 31
11.3137 -8.86909 3.94258 40 38 41
-0.158066 4.21871 12.3839 38 52 59
-1.42889 8.56328 12.4028 39 59 68
10.7582 -6.73902 8.35022 28 46 39
-8.9559 -6.93051 13.5281 55 74 81
9.96619 3.44138 1.0786 64 43 8
1.9007 -5.17604 12.7199 46 69 79
-2.54513 10.1462 12.3819 43 57 68
8.75232 -4.72093 -6.24715 60 64 69
-1.37383 11.0205 -7.83578 30 14 15
11.5364 -10.542 4.05323 44 40 39
7.64225 4.3169 -5.52601 70 43 9
5.48325 0.338829 -7.43301 49 47 56
-6.40642 11.3938 -2.60664 20 24 25
5.71826 4.4146 -4.90088 75 43 0
9.35705 -10.9007 13.0752 29 46 39
-1.08906 11.8832 -3.7223 44 29 29
-4.48103 6.30527 12.2795 42 58 65
-5.87093 -8.61065 13.4302 47 66 74
6.60453 7.29441 -0.818172 62 37 5
-0.374111 9.83285 -6.83421 34 24 23
-3.07112 17.0996 9.05275 45 61 71
0.0487752 15.1621 5.09328 71 76 86
-7.87177 9.02889 -11.6965 21 20 23
-2.89697 14.547 2.1652 36 11 13
-4.93873 13.7578 1.87336 23 23 26
2.0469 7.1296 1.23611 24 14 18
5.00472 -3.42443 -6.39125 54 61 74
9.79298 3.57173 2.11271 56 39 14
-1.97736 12.1701 -10.4974 33 17 19
9.22209 -7.37673 -3.14997 52 42 50
4.38965 -5.71455 11.605 25 37 40
-3.49854 15.3359 9.07072 44 64 71
-4.54761 -1.9784 12.9618 49 67 75
-2.0414 12.3118 -11.1248 34 15 17
-9.19718 6.69643 9.60631 17 21 25
-3.53858 -9.39061 13.6915 44 66 77
-8.85053 7.609 -8.612 30 29 34
-1.62848 1.96375 12.4261 38 60 72
-7.81775 -8.88393 13.6181 51 73 85
2.88499 6.88702 -2.3596 75 45 8
-5.06359 13.8013 -6.09591 26 26 30
-9.88659 5.75706 12.2333 24 27 34
3.79113 1.65838 -13.7705 52 51 58
-6.02637 12.3923 -9.67979 35 37 42
-5.94367 5.75142 12.389 44 62 70
-5.74289 12.4978 -8.42126 29 34 39
1.85522 -4.70598 -12.6864 37 42 37
-6.6741 11.1691 -2.43247 20 25 27
-1.79782 15.0467 9.09807 47 66 73
-12.2511 1.69061 12.6888 12 14 20
-2.14096 7.39456 -11.9116 49 63 70
3.74286 2.38559 -11.7808 32 19 20
2.53089 3.84828 -12.1011 31 15 17
0.17767 -5.68574 13.1997 46 60 63
-0.734389 11.8285 9.07155 40 58 64
4.34884 0.936047 -8.2753 28 9 9
11.3918 -8.90076 -3.13076 41 34 36
8.94255 -1.00765 3.74442 59 65 72
5.18463 3.41467 5.52706 54 31 2
-2.74258 15.8789 9.22375 46 65 69
0.943152 8.05174 -3.17306 45 35 44
-0.441151 16.4233 9.14809 52 64 69
-12.6969 -6.20254 9.65001 46 69 79
5.46472 -7.02495 12.2958 12 27 28
-1.59687 17.2052 8.65949 42 60 69
4.59609 1.85219 12.5654 28 29 32
-4.6182 -1.62038 -15.4287 51 64 70
-13.177 -7.47359 6.15492 47 68 76
8.69423 -5.41698 -7.40502 32 25 18
11.9052 -12.1682 3.32858 18 9 9
-11.6042 3.69192 -12.6265 31 33 37
-8.20752 8.47637 11.4716 27 27 30
0.463545 9.04597 7.08865 46 51 52
-12.9755 -7.01921 9.65387 48 66 73
3.86671 7.72346 -2.05168 65 42 16
0.437955 8.94517 8.81869 35 37 40
-10.4723 4.34968 9.78342 24 26 30
8.93493 -3.2204 -2.98422 52 51 56
-6.55629 11.134 6.79641 17 18 24
-0.882227 3.97607 -12.1297 54 63 71
8.91829 -2.13098 5.01927 54 67 77
3.17127 -11.6667 13.6218 35 45 45
2.42993 -3.40141 12.9695 43 58 65
-7.37901 7.01932 13.4655 42 58 62
9.55324 -7.43886 -2.81625 51 43 45
8.37363 -4.81926 -0.898076 32 12 8
0.284501 9.40226 2.34738 50 27 33
-0.161505 2.12598 12.4804 39 55 62
-3.78374 16.4714 8.70201 46 63 70
8.48631 4.59284 4.66691 47 34 10
0.351301 9.26836 12.579 44 45 47
-4.34037 11.5391 -12.942 52 56 61
8.2271 5.21338 0.597429 70 40 6
-3.33894 4.2105 -11.897 46 63 67
-10.5546 5.08739 -8.9244 29 33 35
-9.4745 6.63194 4.87355 34 33 37
-4.63032 -8.90415 13.4409 47 65 76
8.51018 -2.71129 6.17789 56 62 68
2.71436 4.5308 -5.30743 39 26 17
5.1745 2.91375 -6.13262 73 38 4
8.34933 -3.77831 -0.0532713 35 12 10
3.07469 -1.84499 12.9505 45 58 66
3.13762 2.06346 -13.6112 52 61 63
6.82133 5.45394 3.69965 57 34 6
4.95709 3.38775 -5.76222 73 40 2
-5.38854 -7.73099 13.3888 47 66 72
-11.9884 -9.36928 13.68 50 73 83
4.22481 -4.88879 12.0031 52 74 82
1.11032 7.50939 -7.8354 43 29 28
-0.0700951 -6.35019 13.1066 40 60 69
7.74601 -5.42745 9.08041 32 46 38
-2.81638 13.4708 13.7323 17 16 18
8.16775 0.255735 6.20691 46 64 73
-2.23087 10.2486 -13.1411 54 60 66
-5.89415 3.38593 -12.717 59 45 25
8.65662 -4.69974 3.54158 53 60 67
-0.453096 -2.70728 -12.4834 56 65 77
2.8375 4.77825 9.19727 32 33 36
-12.1264 2.35592 1.81075 21 22 27
-2.14696 11.3851 13.2279 25 44 53
6.11667 0.799297 -7.67008 56 47 38
2.76234 4.85035 11.5725 31 30 36
8.97956 -6.05037 -11.7221 27 25 10
-4.81808 10.9551 -12.8777 52 59 62
-5.99565 7.5149 12.5505 45 60 63
9.85186 -6.27966 8.65174 7 20 12
6.76779 -6.03716 11.7552 30 44 37
4.24401 1.37716 -11.1286 27 6 8
-10.3078 4.81706 0.212458 20 19 24
2.66678 7.63173 0.766948 28 16 12
11.1632 -7.59585 4.72329 41 44 35
8.76263 -3.18008 -6.23635 65 68 74
4.15169 -1.14439 11.6985 56 74 82
1.80594 2.35163 -12.5045 53 63 66
7.07813 6.4643 -1.51819 62 36 2
-6.83952 10.915 5.64653 31 31 31
7.5674 -5.10336 -11.4451 33 26 9
-3.43826 14.8326 6.83561 37 52 63
5.27851 -5.37015 9.46836 98 112 114
0.802366 8.36914 9.11466 34 40 46
-10.6186 4.18309 1.64808 13 16 20
-4.24798 6.60568 -12.0384 51 60 65
-3.70984 16.9547 8.24319 45 61 64
-0.928743 11.5642 11.3185 37 40 44
-4.86988 13.9839 12.4971 21 29 29
1.27043 6.99103 -8.70845 37 21 24
2.99678 4.34444 13.5428 35 38 36
0.388853 -9.45018 13.2796 35 57 65
-1.06663 11.4446 -1.18829 42 19 24
-4.16682 11.6813 -12.939 51 56 62
4.04835 -6.69667 12.5052 0 20 10
9.06085 1.27925 -6.30531 54 54 61
-5.84992 12.4188 2.45328 31 32 35
-0.352685 3.48676 -12.3578 51 63 67
-7.52448 9.3934 10.3317 19 19 22
-9.1144 6.96618 2.39995 30 30 34
9.23772 -5.75888 -6.46788 37 33 15
11.2157 -8.52617 -4.79492 32 36 23
-4.53495 14.4496 -2.11436 21 21 22
-6.47941 11.3807 9.04434 24 27 30
3.08344 -0.424984 12.7998 31 54 63
0.453733 8.78857 2.21765 29 24 24
3.99943 1.39014 -13.739 58 59 60
-12.8732 1.06599 -0.870478 12 13 19
-8.70388 -6.05209 13.4046 54 72 77
-9.32832 6.61565 -9.11803 22 24 29
-1.04192 1.55545 -14.4289 68 43 12
-1.8891 1.59011 -14.3462 66 44 16
-2.29336 17.1538 9.06512 46 56 67
-2.64621 16.5863 9.32519 47 64 70
-11.1126 3.79713 4.42461 31 38 38
-0.693422 -4.41354 -12.7365 56 62 70
4.33357 -4.76397 10.8195 49 67 76
-9.64681 5.77073 6.87323 24 22 27
2.32181 5.70087 13.0683 41 44 43
8.80687 0.187078 1.24372 57 63 69
-2.25749 13.1595 -8.74934 31 14 17
8.54871 4.59208 -5.2405 70 40 3
8.15605 5.3903 -0.737725 71 51 15
-3.92999 14.7057 1.81684 22 21 28
0.575006 1.66762 -11.997 52 69 82
10.0145 3.29957 2.93962 68 47 5
-2.16214 1.39333 -14.5037 62 40 11
-2.48669 13.7719 -0.329531 43 22 22
-3.68689 4.54597 -11.9864 51 61 63
-4.4416 -11.2526 13.8649 38 44 50
-3.9841 -6.86014 13.4705 48 67 73
-1.32902 11.2188 -11.3939 35 19 19
2.83205 5.37062 -3.77049 75 45 15
-12.8083 1.19821 8.31741 9 9 15
11.4113 -10.2541 5.20894 46 50 43
-10.0177 1.36175 13.15 47 63 69
1.65182 6.16574 -7.13406 35 17 20
-2.29143 -4.74015 13.1637 44 63 71
-9.71597 1.94974 13.1284 45 62 67
11.3817 -10.7695 -4.64403 47 53 48
7.06128 -7.92244 13.1242 19 35 28
8.37405 -5.879 1.26895 33 9 9
-3.2147 13.5243 13.7053 20 19 24
11.6598 -11.9295 -1.85197 36 20 23
10.8897 -10.111 10.4916 13 34 26
5.35936 6.85405 -2.86594 68 37 8
8.85905 -2.49215 4.67794 56 67 77
5.18638 7.84778 1.36286 59 44 15
-1.35361 11.909 3.62884 36 19 20
6.46224 6.7445 2.41288 67 38 0
2.3188 5.2905 13.5241 27 31 37
5.55435 3.41463 5.65268 61 35 5
-9.76626 6.44032 -6.82609 36 38 40
-6.89646 10.379 2.91222 27 27 28
3.2541 3.00525 13.8299 32 44 52
-3.33626 -6.24462 13.2713 45 67 76
0.696807 8.56833 10.4028 37 41 45
1.5832 8.47262 0.0981503 18 20 21
-2.01221 12.7688 -12.1819 40 23 22
8.85125 -1.47375 -3.40893 57 60 63
0.959206 -9.12008 13.3092 36 54 62
9.14942 4.2975 -3.90898 76 40 11
8.46206 -5.6636 -9.21993 23 18 6
-3.70302 -2.59703 -15.357 55 69 77
7.92972 5.12376 4.26293 63 47 11
3.54434 -2.2101 13.0046 39 60 66
0.45344 -5.39408 13.1501 41 59 65
-2.19863 13.1457 -6.74926 40 25 25
-7.24084 6.51442 13.0848 47 57 67
4.17851 2.31872 11.0536 24 22 26
0.142682 10.4769 8.76269 52 72 80
-8.30211 8.20975 -11.1174 26 29 32
0.152674 9.61306 -2.08576 46 33 35
7.61026 -5.79209 10.2501 41 28 14
9.52544 -5.41576 -4.89363 66 71 78
0.311947 9.94151 8.43891 61 73 77
2.59564 1.21643 -12.6522 52 62 65
11.7344 -11.6127 1.3686 43 45 43
-7.78854 -9.40103 13.7485 51 71 82
7.12724 3.39905 -6.0763 77 41 18
10.7613 -9.33057 -10.4442 38 38 30
-3.41133 -5.14652 13.3064 49 64 69
5.42109 -5.02516 6.66895 37 58 69
11.6424 -11.448 -1.65639 41 39 36
8.3189 -7.10271 12.6922 20 37 25
-10.4848 4.34683 2.86282 14 17 17
-2.93619 -8.14019 13.3795 44 63 71
-4.14982 14.6527 8.40371 22 24 30
-2.3363 16.8715 9.29371 49 66 69
3.48209 3.30788 5.21172 65 35 4
0.452324 7.87816 -9.71113 37 21 23
-12.6803 1.25403 -3.61256 16 14 16
-9.54353 5.83615 3.22066 18 24 25
-3.82587 14.6105 -10.4594 24 24 22
-5.20057 12.6981 -4.737 20 23 24
5.03411 -5.4983 9.057 59 81 80
0.334743 9.3396 11.8759 42 44 46
-7.94301 3.92806 12.7066 48 60 66
3.87976 2.1941 -12.148 31 20 21
-13.0875 0.823111 10.5098 27 30 33
11.1081 -8.55188 -6.05469 34 31 20
11.3427 -9.63718 4.99799 36 44 34
-12.7877 -6.45098 9.13294 44 68 78
-4.045 14.786 11.4926 24 29 32
-3.24114 10.7908 12.3282 39 58 69
-12.6769 1.30777 10.6384 14 15 21
4.18773 -4.82933 11.1792 50 72 83
2.28182 5.83619 10.0133 39 43 43
-3.74335 -10.2192 13.7396 47 66 76
4.16434 1.68148 -12.1854 29 14 16
7.98764 5.41144 -1.14813 72 44 20
8.22851 -0.149614 6.24686 48 61 66
-2.73999 13.4038 -9.08436 39 16 18
7.85052 -8.26283 13.1632 12 23 17
-13.4719 0.602837 -9.31607 23 22 27
9.52063 -7.24774 2.29625 49 27 30
8.27133 -4.02759 -1.32581 35 11 9
-0.291986 -8.92871 13.4905 41 62 70
7.36604 -2.55248 6.2192 52 68 73
-12.7538 1.14469 9.51849 15 16 21
0.439423 14.6504 5.29089 67 80 87
7.58318 5.85495 -3.73958 72 40 10
-12.9 -7.04246 8.40357 51 74 84
-4.47409 14.5205 -4.75479 17 13 17
-5.809 11.7818 11.0231 21 20 24
-0.266147 10.1773 -1.82211 36 22 23
-5.45635 12.5414 -9.04745 14 16 21
-3.24635 7.05658 -12.0362 52 61 68
-9.32595 6.82397 6.87803 25 29 30
-7.45415 -2.50679 12.6905 47 70 78
1.57542 1.8675 -12.3181 54 64 70
-0.148532 -0.304558 -14.6625 63 69 71
-5.91896 -1.93972 12.7212 47 68 76
-6.83019 10.2805 5.7038 13 18 19
11.45 -11.387 -3.19544 40 45 37
-2.39852 12.2252 13.5099 27 40 45
-0.916061 17.0762 8.74521 42 61 69
-11.2472 3.15499 5.47603 22 22 27
-6.03424 11.3139 2.70454 16 13 19
0.113469 2.88217 -12.1982 50 63 73
0.828496 -5.16141 13.0887 42 61 68
-10.0879 5.06782 13.2237 15 15 22
-1.24571 -3.26281 -15.4579 54 68 76
-6.70333 6.87723 -12.0074 51 65 75
9.40386 -7.30368 -1.71814 38 18 22
-6.29073 11.6816 -11.0439 34 34 38
1.42133 -0.548939 12.6124 39 57 65
4.17051 -0.920277 11.9496 55 72 82
-2.55346 13.5697 -5.59156 42 24 25
-0.846301 10.6652 -12.7765 45 38 39
-5.86311 11.652 3.33969 27 28 30
11.5458 -11.4002 -2.74777 41 36 37
-2.46759 16.0613 5.22093 77 84 93
-7.76791 9.3104 2.13824 29 28 32
-0.500235 17.1386 7.19634 45 60 66
1.83053 6.31737 7.18198 32 30 32
0.20679 9.20648 3.76846 37 30 28
-5.9968 -4.69941 13.1424 47 69 78
6.19171 5.58019 -4.0916 73 45 14
5.49591 -10.0638 13.6494 6 22 6
7.0711 6.45879 -2.59411 70 35 3
-0.251449 9.94241 -2.53203 33 19 19
-7.51452 10.0028 -12.9224 29 38 43
-4.89648 12.8182 0.838997 18 15 20
2.42298 0.762074 12.8428 31 52 61
-2.38481 15.9088 9.15163 48 65 69
-0.499524 10.562 -5.85101 43 26 30
-7.6787 9.66141 -10.0406 29 31 34
-10.805 4.08723 -1.84319 20 23 27
-4.75289 -3.7518 -15.3834 49 68 76
11.3936 -9.86732 -2.79419 43 36 38
-8.77742 7.13753 1.20718 33 30 36
4.67857 -5.24622 9.62689 44 60 62
7.7275 0.298813 -6.41807 54 58 65
1.86232 6.3555 -3.37387 36 21 19
8.80461 -7.0126 -2.51428 27 12 11
-4.84877 7.89135 -11.9623 48 64 73
1.79207 -10.6881 13.5562 45 54 61
-4.42545 -2.43184 -15.3328 48 66 72
0.301219 4.42846 -12.1262 52 65 74
3.79214 5.48012 3.42371 48 29 9
7.46306 5.21821 -4.58673 69 41 7
2.65488 4.95324 11.074 31 30 34
2.85274 -0.565523 -12.5522 55 67 72
-10.5046 4.30536 7.06437 16 18 20
-3.69158 -11.7509 13.9166 6 9 17
-8.25986 -9.88389 13.8676 55 69 77
0.316001 15.7094 8.04279 58 77 83
6.10112 5.948 -3.95302 64 38 14
-2.0169 -3.33981 12.9534 40 62 73
-10.5679 -6.67451 13.167 50 76 86
3.40632 5.56539 2.89588 39 21 8
-1.78875 9.75909 -13.3433 52 66 75
-9.46367 5.97988 13.7907 36 41 44
1.44979 2.286 12.7128 36 54 65
-1.05633 11.4231 -1.4422 45 21 25
-11.5446 -5.34534 13.2459 53 71 79
-11.0318 1.35913 13.8836 50 63 71
-10.1328 -9.45766 13.9339 48 70 78
-1.66705 7.06604 -12.1164 52 67 79
-9.26498 6.45132 10.3609 16 22 27
-4.90334 5.52868 -11.6371 46 61 73
-2.62425 5.95196 12.3383 43 58 67
-0.930038 -10.3744 13.5532 43 61 70
-11.0514 3.93962 8.73751 20 27 31
5.68256 8.20877 -0.96081 62 37 7
8.82154 -1.94236 -5.12479 60 59 67
9.64102 -7.34054 3.01264 42 35 35
9.84446 2.16381 6.75856 54 48 23
-5.14922 10.5905 -12.8525 52 59 61
2.22287 5.9082 13.3397 40 41 47
-9.83253 5.37662 0.743366 23 23 27
-7.89001 7.37193 13.8768 27 28 34
-5.16904 12.8207 -8.69197 19 19 23
9.28463 3.88914 -1.83242 69 44 25
1.00347 2.25384 -12.2341 58 62 67
-6.51423 11.4463 -8.29536 26 26 28
2.82875 8.01333 0.60331 52 34 3
0.112099 9.12612 -1.99074 32 14 15
-1.01375 10.3878 13.6019 28 44 49
-0.269077 8.95826 -10.4607 32 21 24
0.469818 13.1195 5.54963 60 73 81
2.69384 4.43814 -9.79564 38 25 25
-8.98639 7.54934 -12.8232 24 17 23
-12.5806 2.01075 -4.76346 26 25 31
3.66003 2.2333 -8.88666 32 11 16
-2.82719 13.642 -10.6745 27 9 10
8.38854 -5.40257 1.35712 33 10 11
-6.54505 4.98096 -11.873 47 63 70
-13.3291 0.850523 1.74113 22 23 29
4.80662 -7.32236 12.8507 15 28 17
8.2523 -1.94645 -1.21722 52 43 48
-5.54182 6.25599 12.2711 40 62 73
11.5884 -11.0507 4.25333 44 46 46
3.77309 4.38807 4.281 54 29 1
7.67597 -5.0181 -11.1291 39 29 17
-9.154 6.9707 -3.62643 23 25 27
-0.845414 -0.978648 -16.2187 53 49 46
-3.88218 14.8318 11.8977 35 44 47
0.453909 8.78739 11.2652 33 37 39
8.18913 -5.45058 -11.4308 32 25 19
5.52657 -8.85326 13.1916 4 17 10
4.34553 -0.938898 10.3211 60 75 84
7.26779 -5.17728 6.43256 45 61 69
5.36743 -0.00806236 -6.78012 45 49 57
3.78084 -4.59677 12.9981 50 65 70
4.35915 7.57492 -2.29299 59 37 12
-5.03254 7.33599 -11.7957 49 70 85
-7.0049 6.32794 12.7675 43 60 64
5.79753 -7.41534 12.7174 14 29 21
-6.03728 5.30449 -11.883 42 57 68
1.30249 7.41706 11.1597 37 41 45
10.842 -6.3949 -5.43506 40 40 29
-11.2463 -1.37461 12.8373 48 66 73
-0.180913 5.91531 -12.3379 52 61 69
4.51862 1.57561 9.13146 21 20 24
8.43264 -5.67454 -0.171167 31 9 8
8.21595 -5.30537 -6.87786 38 40 41
10.5923 -7.31134 9.90952 26 42 30
7.60175 -4.38085 6.31346 47 60 64
-6.02802 11.645 7.90326 17 18 20
4.85223 -9.05784 13.3099 12 28 21
9.66256 1.8796 -7.5231 71 53 31
-3.2876 14.4718 -9.10781 33 11 12
10.043 2.87254 5.8121 69 57 37
0.360439 14.6759 7.1963 60 79 86
1.14553 7.59002 -6.12747 38 25 25
-1.06113 17.3578 5.94387 49 52 55
7.11512 6.4775 0.662169 62 39 5
-5.80308 12.21 8.09416 28 27 30
0.672474 8.6043 7.18359 36 36 44
-1.74771 12.6266 -2.07661 41 18 21
-12.7201 1.1817 -0.768785 13 15 20
10.5969 -9.56251 -11.0939 30 31 14
5.62527 -5.38274 9.27591 36 54 58
9.00309 -3.23283 -5.44371 55 60 68
8.80951 -0.143866 2.44475 57 60 69
-0.919655 11.0573 -3.16317 36 21 22
-7.59046 -2.83235 12.8948 49 71 79
4.98472 -4.9285 -9.64705 24 24 12
-4.96686 -4.8084 13.1083 46 68 79
-12.7254 -4.86345 9.67753 50 67 75
3.84884 2.16019 -8.52689 33 12 16
10.978 -7.37062 -4.32721 42 35 39
0.32864 15.1263 8.29587 63 84 91
8.76603 -4.34041 -6.1969 62 65 70
5.19408 -4.89207 6.67427 41 58 67
-2.76991 14.3434 -6.06133 33 11 10
-4.0374 12.1386 -13.1502 51 56 65
7.93078 -5.88171 9.74442 4 22 18
4.52735 -4.0582 6.65205 45 62 71
-2.88019 14.0353 -10.5784 30 11 13
2.79555 -0.158371 12.6352 35 59 69
5.31042 -1.66746 -6.26986 57 65 77
2.66184 6.98066 1.60972 46 31 11
-7.39144 9.85799 -4.40134 26 27 29
-6.31397 9.63231 13.7186 40 60 67
8.37589 -5.47852 -1.05833 31 8 7
8.46413 -5.1269 -8.3743 37 43 33
9.88518 2.71103 -5.99135 59 49 50
-8.32874 8.06314 -7.15732 20 20 28
8.55517 -7.85075 12.8876 11 26 18
-7.90259 8.80832 4.52031 29 28 32
-4.429 8.58069 -11.9028 47 64 73
4.37643 4.91803 -4.09912 79 44 1
-5.87113 12.2936 7.62152 25 24 28
-0.120807 -1.83727 -12.2461 56 64 73
-2.2162 2.06782 12.5499 37 60 71
-5.07658 12.9162 -5.59617 22 25 29
-7.85625 8.56086 -9.59609 23 24 26
11.6033 -11.0815 2.55265 48 42 43
-0.435956 4.44188 -11.971 52 65 71
-9.53093 -4.50476 13.1915 48 71 80
0.27981 8.45905 -10.7131 44 32 34
0.106263 5.9458 -12.6 51 58 65
0.898033 8.44921 1.04227 34 35 34
0.592521 -0.827387 -12.3046 58 62 72
-8.80964 7.82137 -3.83384 28 32 35
-3.13083 4.44802 -11.9335 49 58 68
-6.55986 8.35634 13.3774 40 56 64
1.24788 7.19739 6.83879 28 30 33
-6.34905 8.35602 -12.4171 45 57 62
2.88601 8.38672 0.396776 49 32 8
-4.51944 12.1125 13.5205 40 54 63
6.75963 -1.34176 -6.28053 52 60 70
-0.872731 11.5176 2.86811 40 35 41
0.0546741 14.9178 5.08656 71 78 87
11.1699 -8.41362 8.67495 25 42 31
5.65221 -5.1694 -10.1511 16 20 3
-1.91769 0.740049 12.647 41 58 68
-2.61224 -7.9645 13.3351 45 64 72
11.3688 -10.9722 -5.40606 47 59 57
-11.3269 -3.51291 13.1535 51 75 84
0.510143 -8.04765 13.4723 33 60 70
9.92882 3.62965 -3.37792 70 41 5
-0.707218 10.921 1.85509 36 21 20
3.7065 0.764513 -13.6158 56 61 68
-11.6039 2.60753 2.93139 11 10 15
-10.4525 4.27209 4.96412 13 13 20
3.14626 3.64854 -5.53651 57 32 19
-7.40173 -9.16068 13.7276 51 71 80
7.28009 -11.5683 13.6684 29 45 41
-10.9471 4.12037 11.3974 31 32 38
-2.78816 1.18142 -14.5545 74 46 10
-9.88392 4.75978 13.8987 41 38 40
-0.926126 13.6398 5.11085 71 80 91
2.83961 0.797388 13.0344 30 52 61
-5.92684 2.88324 12.6649 39 64 76
-4.83894 13.9627 3.74 21 20 27
2.31457 5.56655 11.401 39 39 43
-9.0309 -2.52216 12.9611 51 72 80
-3.44553 14.528 -9.80555 28 14 12
-7.72041 6.44739 -12.2848 44 57 65
-1.73846 12.5695 4.6894 50 50 58
11.6613 -11.6757 -2.15974 39 35 34
9.11942 3.96759 1.72935 65 48 28
11.756 -11.9727 -0.197083 34 25 30
-8.43771 8.23363 -11.429 22 26 29
8.21419 -5.48683 -9.47168 22 12 1
-1.41931 0.374386 12.4335 35 60 71
0.395082 13.6599 8.51915 61 79 87
-8.48042 8.23139 -1.31466 28 30 36
-2.28173 13.2506 -7.14804 34 17 17
-0.887311 10.8658 9.67541 30 34 39
-2.33497 13.0352 -10.304 25 11 11
-4.93777 12.6004 13.7848 41 50 55
0.383617 8.61185 -7.80804 40 33 38
5.15329 -5.04859 -7.32267 51 55 60
0.905347 8.34448 3.54265 41 39 44
0.069171 8.9756 -6.04778 33 18 22
-1.58078 12.0558 9.47672 41 53 62
2.386 9.03234 -0.452094 50 41 24
-1.48946 12.7002 9.26139 46 59 71
-1.79225 12.3948 -2.12983 33 19 19
-2.43745 10.9923 -13.3026 54 60 67
6.91954 5.82773 -4.00695 81 50 18
1.2169 7.65746 12.3346 39 37 42
4.23692 3.54474 -5.53872 72 39 0
-11.4525 3.63163 -6.39037 29 33 33
-2.08838 13.4455 13.2698 25 27 34
1.07032 8.16137 13.0977 44 48 52
-5.09611 13.3655 -7.6202 27 29 31
1.19428 4.94251 -13.3363 55 60 66
9.93203 -7.27978 3.68891 60 48 61
-12.1279 2.29257 -7.54609 14 17 21
-7.7403 9.07477 5.26501 13 16 18
4.1473 -4.58528 -11.4785 30 23 8
-3.27183 -3.10982 13.0259 44 64 73
-4.53752 -4.80047 13.2331 48 66 76
-2.3914 7.39855 -11.871 48 58 64
4.89255 -2.18242 -6.44028 54 64 75
4.31234 -2.39481 7.51354 55 67 73
6.39691 -6.11542 -14.3224 32 20 10
-7.04963 3.18872 -12.8379 56 42 19
-11.9009 2.56332 12.9507 26 24 27
8.87534 -3.1988 -4.04481 57 63 71
-10.8914 3.0027 11.9215 18 17 24
-3.18275 -7.52232 13.4978 50 65 71
-5.81674 -1.1347 12.9103 49 68 77
7.84409 2.27205 -7.26802 77 44 9
11.484 -10.3218 2.16734 45 42 43
4.24141 -0.971445 12.9091 55 70 79
-2.50811 13.3786 -7.83509 30 7 9
-0.21327 10.35 11.3117 40 45 46
-0.466722 10.725 -3.15152 43 31 34
0.0133772 9.39444 -5.36297 45 30 33
-6.48915 11.2698 -2.23871 23 24 28
1.00902 1.84638 12.4614 37 58 67
3.904 -2.77246 10.7057 63 82 92
-2.64525 13.3966 -8.75816 31 9 11
-5.65526 12.4394 -2.39829 18 28 29
-12.8928 1.14285 7.14857 13 12 17
2.77656 4.48226 -6.4568 41 27 30
-3.88136 1.19582 -14.7626 63 37 6
-5.55954 0.843229 12.641 44 64 74
3.92433 -2.68523 -12.4566 61 62 68
-9.5528 5.83805 4.50096 16 20 22
5.27905 8.63664 -0.894438 73 40 6
8.549 0.645535 -3.85512 60 66 77
-7.21638 9.87878 4.20682 25 27 31
0.796294 -8.33544 13.4102 39 61 72
-5.53143 8.88699 12.6665 43 60 68
-0.877409 11.0913 9.95564 34 37 37
7.68782 4.31894 5.16984 50 34 6
-10.2866 4.88758 8.24745 17 21 26
8.90327 -0.319853 4.75418 54 62 70
9.59704 -6.51 -9.93851 23 15 7
8.13055 -5.79247 9.31273 15 30 22
6.10176 3.21704 -6.04599 76 37 2
-0.317403 10.7215 0.528811 44 33 34
-3.87647 11.0986 -12.6044 47 55 59
10.1377 -6.27702 5.92631 19 31 23
7.97229 5.52071 0.521646 65 35 6
-5.88086 -3.06115 13.0498 48 68 76
-10.9448 3.64162 13.4853 25 29 31
4.19691 4.81937 -4.09356 82 44 2
1.9179 6.18134 10.9705 31 30 34
-7.95428 8.61742 6.64859 22 26 30
9.18412 3.16561 6.34176 56 43 11
2.51801 -4.84329 12.8357 41 60 65
-3.86581 -3.82062 -15.6122 53 66 75
2.77446 3.72776 -11.4016 31 17 19
1.13798 -3.73059 13.0017 46 58 61
4.52003 3.42255 -5.78253 74 43 2
-5.72707 12.0674 8.35094 21 19 22
11.6049 -11.327 5.17605 51 63 58
-0.497875 -1.69464 12.7499 41 57 64
1.00851 8.10704 10.365 39 42 43
6.71632 7.04807 -2.62138 69 41 13
-5.83554 2.94318 -13.164 57 41 18
-13.1897 0.962816 8.59084 22 23 26
6.8844 2.05902 -7.32191 71 41 3
1.01517 7.34655 -10.4319 36 27 30
4.34734 1.45563 -7.78533 38 17 19
8.69357 -0.865654 -3.49733 58 62 70
-0.133787 7.05613 12.6565 29 49 57
11.1347 -8.27868 7.17968 12 28 24
6.06629 -5.22296 6.64285 39 56 60
-3.893 14.7258 13.0238 21 23 29
2.10402 8.07165 -1.44222 61 41 24
8.90212 -6.41557 3.74245 53 56 60
-4.84381 8.22396 12.0194 36 62 67
-6.15186 -7.46819 13.4701 49 66 75
-6.71292 10.7498 3.57736 16 16 20
4.78015 5.51641 3.68583 70 42 6
-3.50951 14.7513 2.16703 26 30 28
-8.57224 8.24997 -11.7731 23 25 29
7.27453 2.05232 -7.39533 74 42 4
-5.28192 12.9525 -11.1829 39 39 43
-2.29931 5.58536 -12.0016 52 61 67
3.90557 -3.77911 8.4678 37 46 50
-1.6208 7.87395 -12.2493 52 64 71
4.57432 -3.50994 -6.451 55 63 75
1.74106 5.35746 -13.0183 30 23 25
-5.54947 1.22856 12.578 41 64 72
8.57636 -0.211292 -4.83836 56 61 71
8.55511 -5.8147 -11.0027 29 14 2
4.93587 -5.55072 10.7158 44 65 74
-3.18614 12.7237 13.3708 31 51 64
-13.4544 -9.108 5.4685 52 72 82
0.747168 8.25671 -5.55945 38 24 25
-4.85414 13.9378 -1.22424 21 21 26
-2.34937 13.2323 2.12129 36 20 22
-12.7036 1.1172 -1.16638 20 24 29
2.45687 -6.27155 13.1323 40 57 65
-0.036746 -5.93743 13.2218 43 60 67
-0.0465937 -5.45904 13.1494 46 59 64
2.47192 4.08382 -10.7323 32 20 19
-4.8033 5.82034 -11.678 46 63 75
9.01069 -6.39521 2.76222 43 35 37
-6.72636 10.8887 10.1695 25 31 34
-11.5344 2.6627 -0.610701 10 8 15
7.44117 1.14414 7.37302 43 55 59
4.33968 -1.11742 12.2934 57 72 83
-9.66151 6.52625 -10.1102 28 31 36
11.1706 -8.38663 5.97132 19 34 29
-12.2675 2.25762 3.38734 22 26 29
0.207087 7.74286 -13.2367 51 54 59
1.12302 6.69891 -12.7268 30 24 27
-7.91238 8.71074 3.92669 25 28 32
1.99368 5.06155 -13.3246 41 42 48
-5.14386 10.2309 13.067 39 58 65
3.0218 6.90252 1.71727 62 34 5
8.86418 -3.74054 -3.81844 57 60 72
0.283668 -6.29998 13.1199 41 62 70
-2.9605 0.675838 -14.9739 78 43 5
11.4984 -10.2604 1.63117 43 41 43
5.82379 -5.14593 -10.533 25 32 26
-5.62179 12.5304 -8.17616 25 28 33
-12.573 1.1687 13.7565 28 28 31
-12.5265 2.07633 -6.91753 23 24 31
-1.49581 9.85456 -13.4809 50 65 69
-1.67445 12.511 4.88363 61 67 76
8.91286 -5.76672 -6.88666 28 21 9
3.96717 -2.53195 8.03096 50 65 71
-9.33617 6.66139 -11.3938 24 27 29
-2.3091 -2.00131 12.6829 38 65 77
1.65265 6.85322 8.58154 40 40 44
3.34569 -4.14188 -12.5708 30 26 15
-8.42424 -6.4446 13.4388 56 70 76
9.08442 4.4606 -1.55325 68 41 5
8.15297 -5.14486 -6.65843 44 50 55
11.3773 -9.28201 -2.33225 44 38 40
1.90955 -0.0603542 -12.2187 55 64 72
1.49042 5.78647 13.6678 33 47 47
-0.823452 -3.74129 -15.0299 59 70 77
2.57202 -9.66091 13.4738 19 40 38
-5.87747 4.33356 12.3633 42 64 72
10.8323 -7.10796 8.88944 29 49 37
-6.75535 3.02709 -13.0507 61 44 20
-1.20763 11.6246 10.7946 34 39 41
-9.60465 -0.861891 12.7608 51 70 76
6.16398 -5.30708 -9.68843 24 38 25
7.55778 5.53619 -4.12959 73 43 0
-5.87669 12.5107 -10.9872 28 31 35
0.309484 -4.16367 -12.352 52 57 60
-10.0115 5.46663 13.4512 31 34 39
-2.80797 17.2375 8.84631 41 57 66
3.97211 -2.53667 -11.9819 60 61 68
-4.83609 13.8121 -0.77367 31 33 39
8.34206 5.18598 3.08583 66 43 13
-1.4777 12.4175 9.30967 44 61 67
8.272 5.03269 -4.54742 74 42 5
-7.00379 10.0048 9.44748 19 19 22
-6.91184 10.7002 4.16141 27 29 31
0.332713 9.05437 11.3319 40 46 47
-9.28249 -8.129 13.5827 51 72 80
8.97512 -5.22722 -5.6846 56 59 61
-2.85699 -0.299888 -15.8654 79 43 6
11.5842 -11.2134 1.0741 43 41 42
10.2336 -7.6827 11.5822 9 25 14
4.17424 -2.39038 7.2036 55 65 71
2.13923 5.89069 11.2283 36 38 40
1.48202 7.16913 5.45016 37 41 47
10.7746 -10.3648 10.6188 7 32 21
8.69067 -4.3756 4.33007 58 62 71
8.63914 0.739559 -3.51493 56 60 69
1.0307 8.00116 3.61867 32 34 38
5.54606 4.97666 -4.40228 72 37 0
-8.998 6.94806 -10.9333 29 27 27
-7.94433 8.71131 13.4384 27 27 29
8.7978 -0.450909 -2.36899 55 62 72
7.14835 1.61247 7.11648 33 37 44
-5.22199 -4.21058 -15.4646 54 71 78
-7.57329 9.48135 10.1539 19 18 23
4.69268 1.21468 11.0809 24 22 26
-2.55766 14.2263 2.67189 39 27 32
0.0541749 -1.95976 -12.3011 55 65 72
-1.58034 12.4349 9.56638 38 49 53
-2.88176 14.4709 -3.3456 34 11 8
4.94643 4.93595 3.83351 58 33 0
-4.95564 13.7479 1.45974 18 22 24
11.5358 -11.059 5.48904 51 59 49
-2.78316 9.27995 -12.1718 56 66 72
-12.3152 1.78158 2.38612 23 25 30
-4.47128 14.6171 11.945 25 30 36
6.84534 -0.334314 6.18009 41 60 71
5.81398 -3.13056 -6.51881 56 66 75
9.69487 3.75165 -3.59225 68 40 4
4.50467 1.22965 -12.1937 29 9 9
-0.094099 9.89353 -3.66083 38 26 27
2.04815 5.01285 -11.5485 32 23 24
-1.90981 -0.883876 -16.2358 61 45 37
-8.9247 -0.905069 12.5831 54 74 85
4.24968 1.81617 -7.21814 38 17 11
0.310949 4.50496 12.3842 39 57 64
-2.9422 0.665689 12.4446 38 63 72
2.64819 -5.65604 12.8261 38 57 66
-9.72008 5.48078 7.48947 6 8 14
7.35477 4.22161 5.07883 52 32 6
7.57827 5.91884 -1.20408 76 39 2
-12.4532 1.38395 8.9139 7 7 12
4.66703 4.04726 4.67041 68 45 3
-2.46804 12.6798 13.6304 20 20 24
-2.62418 13.8667 10.5294 32 35 38
-1.58214 -11.4656 13.7204 37 44 49
8.84161 0.552486 -5.43581 65 70 76
0.375655 9.39273 10.0285 40 48 49
-9.12434 7.02274 -3.24261 25 24 27
8.89182 3.74117 5.54578 63 38 1
3.37544 3.17947 -12.1974 36 29 30
-1.69473 1.81162 -14.1175 62 44 21
-1.01669 16.8437 9.05689 52 66 68
8.66814 -4.7054 -4.47866 54 67 71
3.55905 2.43264 -8.50769 32 11 15
-8.72819 -9.57401 13.8512 55 69 77
0.855681 3.39282 -12.1645 52 70 83
-1.35346 14.5849 8.95783 49 66 73
4.89038 -5.07527 -11.501 16 29 11
9.70247 3.59652 -2.26874 64 36 8
0.644477 8.66563 3.41025 34 35 38
6.8993 -9.17738 13.5953 15 35 25
-11.9692 1.0057 13.9513 42 52 56
0.380722 13.1141 6.12078 61 78 87
7.90627 5.49163 -2.30066 69 36 5
-13.1152 0.782021 2.45687 10 13 17
-0.408379 0.193102 12.4785 37 60 70
-10.9855 3.91 0.385702 20 24 27
-11.9311 2.32036 13.3392 22 23 27
-2.25837 13.1653 -2.66119 33 19 18
-4.53826 9.59601 -12.0525 48 58 64
7.04505 3.68531 -5.81371 81 44 21
-8.67511 7.50813 -0.0683594 28 30 31
-4.98698 -11.5332 13.8741 21 21 28
11.4619 -11.0151 -2.75456 37 38 36
-4.52457 14.2049 6.92747 26 34 35
-10.2684 -8.73143 13.4851 55 75 82
3.46356 3.12723 -6.02493 59 25 4
11.3787 -8.64089 0.914961 44 40 38
-2.71229 14.024 -7.38068 33 12 12
-6.81195 -10.8955 14.1298 42 60 65
7.50171 4.1001 5.37262 56 34 6
10.2679 -8.07475 2.63114 44 32 29
8.20532 5.36111 -2.5581 65 37 1
6.70356 -5.23156 8.63888 58 69 77
8.88219 -1.60279 5.9305 53 70 81
-9.28527 5.85183 8.04823 17 16 20
-4.46518 14.2846 6.26762 26 30 34
-6.12704 8.90665 13.2617 42 60 68
5.11497 -4.79098 -8.86383 41 40 36
2.78855 -6.69682 13.1864 42 60 64
-2.46296 13.4239 -0.218447 33 17 19
-14.2596 -10.8887 -7.68857 30 42 47
-12.0941 1.70913 9.97966 12 11 18
3.65093 0.572548 13.513 35 47 53
3.80695 0.458555 13.6158 33 47 51
-0.923418 15.2536 9.16427 50 64 67
5.70601 0.743913 -7.67459 55 48 49
-7.00413 9.97453 -1.58278 13 18 19
7.18587 6.3991 -2.94136 61 36 5
11.4842 -9.1465 8.32426 49 63 54
8.762 -4.92718 -6.29291 60 63 68
-2.49241 -9.54396 13.6173 46 67 76
-2.02538 9.54676 12.4081 39 60 69
9.05412 4.49424 -2.81674 67 37 1
4.19198 1.36744 -10.229 29 10 9
-5.01228 13.7065 -2.36126 25 26 29
-2.21517 10.4372 -13.2376 55 61 69
2.94505 4.66224 10.9247 38 37 41
1.16873 -1.88746 12.5677 41 59 70
-2.09341 12.6396 -8.40055 40 18 22
-8.69374 -5.52001 13.1497 52 75 84
9.04479 1.66408 7.30974 60 50 31
-8.37321 -1.80394 12.7271 49 70 80
-11.5754 2.80717 -5.21523 20 18 20
9.4499 3.72035 -2.16591 61 39 19
4.32206 5.75882 3.05283 50 33 11
7.44656 6.28958 3.03322 45 43 24
-5.39383 12.9286 9.71222 23 29 32
-9.96318 -11.52 14.0871 20 29 36
0.61079 8.62313 2.63123 38 32 35
