ply
format ascii 1.0
comment Created by Open3D
element vertex 1394
property double x
property double y
property double z
property uchar red
property uchar green
property uchar blue
end_header
2.28384 5.2537 11.7819 33 29 33
4.16438 1.8803 -11.6005 35 19 21
0.65305 7.82858 -8.35752 33 26 26
-0.606606 16.9507 5.26352 59 63 65
0.3131 8.45294 -12.2992 46 39 43
6.1899 -4.92707 -8.54034 26 32 24
-13.8577 -11.0051 0.804248 13 26 33
-5.42729 13.019 13.4647 28 32 35
1.21854 -10.231 13.4805 42 55 59
-2.97628 14.5796 11.0369 35 35 38
-5.53268 11.8179 -13.4408 52 60 63
0.762268 5.42366 12.8452 32 46 55
-7.78369 -0.658755 -15.7054 52 62 67
6.80962 -11.8139 13.6526 22 33 27
4.5392 -12.016 13.5849 16 19 19
6.05498 5.15727 -4.25696 82 44 16
-0.220331 4.70538 12.3903 38 52 60
-6.17489 1.45072 -14.4874 58 44 26
-9.9415 5.98821 -8.24153 27 27 30
-13.8309 -9.87263 -4.4817 59 79 85
-2.58772 3.31628 12.4893 41 60 70
9.68967 2.60635 -5.01369 58 53 54
-7.08447 10.7237 -6.25664 28 28 31
-0.424985 3.18975 12.2882 35 58 69
-10.1227 3.3333 -12.8479 45 52 54
3.85744 2.33838 -9.71114 34 15 18
6.93832 6.74628 0.29335 75 40 2
5.59594 -5.35376 6.92485 42 63 71
0.939665 -2.22488 -12.2261 55 70 80
-14.1979 -11.3724 -7.32493 30 46 51
6.11535 7.95862 0.919231 55 40 6
-13.69 -10.7181 3.80223 44 51 57
-7.66608 -11.132 -16.3954 15 29 35
-5.85937 12.4524 -8.25444 30 34 39
2.05259 -9.91139 13.4733 41 60 68
-4.68452 10.3654 12.6818 39 55 60
-11.932 -8.81456 -12.5086 50 73 80
-12.3948 -1.64346 0.875264 46 66 75
-13.0554 -9.66976 12.2328 48 67 77
3.73384 2.79836 7.81384 25 24 27
0.886244 1.29264 12.5603 36 56 64
10.1397 -6.63982 10.1616 12 42 26
-8.29383 3.3099 -12.0794 53 70 77
-6.79602 11.025 7.71724 25 30 33
-11.8309 2.66619 12.6667 22 25 29
-8.89974 7.16436 -10.0066 26 24 28
4.45163 3.62594 -5.51585 69 37 0
8.85937 -0.234711 -1.85818 60 65 78
4.40232 7.7698 1.22914 54 31 8
-12.9248 -10.2954 12.85 49 58 58
2.61825 0.394087 12.7538 31 53 61
-8.16349 -0.588367 -15.6834 48 64 70
-10.5698 4.27622 1.42731 14 14 19
-12.0753 -1.62425 9.58259 36 62 72
7.97385 -7.69616 12.9509 15 28 18
2.79664 -1.27918 -12.3144 58 69 80
-9.84344 5.85075 -11.0544 23 31 32
9.69177 1.70723 6.99537 53 50 34
-12.2395 -0.818233 10.1535 42 58 69
1.64225 8.5736 0.0181694 24 22 21
4.81984 0.424484 9.25899 41 50 54
0.357051 14.4932 7.27155 58 78 84
9.94056 -5.88631 7.32935 28 49 39
11.444 -9.89144 1.98558 46 43 47
3.30175 -0.405222 12.9906 30 48 58
0.439573 9.13972 6.80492 42 44 47
3.81359 -4.86834 -13.9189 34 37 30
-11.3798 3.87404 -12.4942 25 27 31
11.0053 -8.68081 -6.77915 28 23 14
-4.51661 4.16253 12.2889 41 65 79
1.8209 6.24518 8.58816 37 35 37
6.3903 -5.12806 8.96606 48 59 60
-3.04148 3.95398 -11.9122 46 63 71
-0.630449 10.7086 12.0621 27 33 37
-13.1233 -0.149898 -1.66757 32 51 55
-0.555955 9.89172 -11.1054 34 22 22
-6.08306 11.6098 7.31681 14 14 20
-6.09072 11.5756 6.46825 19 17 22
-13.3013 -8.32182 1.92323 45 68 78
-9.69656 6.49822 -6.67664 33 37 38
1.93786 5.13185 -13.1774 33 31 37
3.98034 -6.38622 -15.0941 26 24 11
10.1671 -7.94772 -2.08703 48 41 41
-4.29622 14.6969 -1.62827 28 28 31
-2.52986 -10.2114 -15.8378 47 56 62
4.81426 -5.74684 -13.5144 35 29 15
-5.76994 4.87006 12.3559 41 60 72
5.42545 -5.20432 8.59599 30 50 55
5.77999 -9.26457 13.6248 14 31 19
-13.2736 -7.70328 0.280588 49 69 75
8.63097 2.47096 -7.17476 79 42 2
-0.621609 10.7575 4.94601 39 53 61
-10.0503 5.38691 -2.43983 23 24 27
-3.77549 14.8353 9.99602 31 39 42
-13.0646 -4.30655 -3.9218 52 73 81
8.96378 2.94239 6.43061 62 41 10
-6.91794 11.0538 -6.05572 26 26 29
6.93631 6.48964 2.7861 46 35 16
2.3703 -0.772898 -12.2763 55 69 73
0.461761 8.86536 10.2888 30 34 39
-1.00788 -4.98309 -15.1157 55 64 74
-4.0739 14.6485 5.78219 25 24 30
0.460403 8.73505 1.11438 35 24 23
-0.290699 10.1814 1.69309 35 18 23
-1.65695 1.95475 12.4417 38 60 72
4.25208 9.06764 0.111898 62 33 4
-12.8484 -6.51927 9.34747 45 68 77
-6.80455 10.4624 7.79392 19 20 24
3.38023 -2.55939 10.2897 50 64 71
4.52587 1.85655 11.7662 32 31 34
-13.482 0.680357 3.92246 25 23 20
4.09146 4.60411 -4.38783 72 37 1
-0.255795 4.33132 -12.0558 54 66 72
-13.1084 -4.46078 -4.14253 54 74 82
-10.9562 3.57466 11.6028 14 14 18
-0.251276 9.59995 -11.4589 46 37 38
-13.0482 -0.256544 -3.65434 37 46 53
-0.0917988 8.7658 -8.8656 36 25 26
5.42305 5.98238 -3.57939 70 35 1
-7.88584 8.75447 -2.75637 35 32 33
-6.85338 11.0775 -5.06264 28 29 31
-7.93524 9.3513 -6.97314 34 35 38
-11.266 3.66228 3.5109 30 32 35
4.13142 -3.28419 8.82192 43 53 62
6.08428 -6.55835 -15.238 31 29 18
-7.41333 -11.2206 14.3683 47 55 62
-8.03062 3.06442 -12.4893 54 57 50
-0.28091 -1.22387 -12.2093 54 58 67
-1.33816 9.20056 -13.4343 54 57 63
-10.9726 -0.951057 12.9697 54 67 72
8.97517 -6.62731 3.23909 42 33 40
-13.688 -8.286 -6.24732 62 79 85
-6.7121 10.3079 11.8909 21 23 27
1.59918 -8.2232 13.0884 39 62 72
-0.117938 7.39394 12.8387 29 48 54
3.12898 3.84912 11.8454 32 25 27
-13.2652 -7.00966 1.19344 50 68 75
2.05882 4.91542 -12.4674 30 24 25
-8.36876 7.79214 10.5809 10 12 16
-10.9312 0.418108 13.3986 48 62 69
-10.16 4.93878 12.0265 15 15 19
-0.419324 8.20848 -13.4504 52 57 62
-3.49499 6.0116 12.2227 37 62 73
5.2133 8.11183 0.952962 50 35 7
-2.20399 12.4232 -8.93526 33 15 15
8.31077 -5.88573 -2.09044 30 13 5
7.97599 -6.1311 -13.6055 42 57 56
9.9424 -6.93341 -10.6313 32 29 15
8.93058 -6.03654 2.43162 47 41 40
7.31595 6.38396 1.85356 64 38 7
7.67882 3.93141 5.57182 64 39 4
-5.57052 4.55932 12.2654 42 63 74
-5.71418 12.0413 9.54439 15 13 17
-3.04805 16.4855 5.18023 73 84 88
1.15503 7.84501 13.229 32 34 39
0.370362 11.1385 5.21791 61 73 79
7.20047 5.56416 3.64135 56 35 9
3.60486 8.96189 0.129622 55 35 2
0.316505 11.5382 6.64568 55 71 82
-7.32032 9.85505 -7.73588 24 25 28
-13.2994 -9.00274 -12.3943 58 77 84
7.14772 -1.77033 -6.15932 56 65 77
-5.2408 0.17005 12.7498 45 65 75
-7.15333 9.11515 -13.3302 51 60 63
7.16237 -1.2612 -6.24033 57 68 79
7.99206 3.61369 5.67332 65 39 7
7.19357 -5.3852 8.77925 48 49 50
-13.2829 -6.17165 -4.78089 55 75 82
4.13995 -4.81256 11.3672 52 75 85
-9.4075 6.1405 1.64632 25 25 30
-13.0329 -4.80074 -2.10245 51 71 78
-12.842 -8.51831 12.3409 48 68 77
1.03089 7.75852 9.55441 33 34 35
0.589928 7.54852 -10.8482 38 28 29
9.70009 3.74153 -1.11161 67 39 3
3.55393 1.91273 13.8231 29 53 58
9.11871 1.18156 6.62068 57 57 54
-6.87617 10.2263 4.95414 19 24 26
-4.84575 13.3226 9.95685 21 28 30
-13.3824 -8.82518 5.66942 47 69 80
-12.1373 2.31937 6.74059 28 29 33
-12.7277 -4.1897 4.2985 44 63 75
-4.98052 12.3965 13.8011 43 49 55
-2.42809 -7.3052 13.3802 45 63 70
8.27311 -4.03914 -1.29844 35 11 10
4.55679 -0.461545 6.48658 36 57 65
4.91845 6.27333 2.5878 65 37 0
-12.1572 -2.51439 8.52458 45 68 82
1.28043 3.75798 12.8267 32 52 62
-8.80776 -8.55942 13.7847 57 73 79
0.576216 -4.20194 -12.3252 54 56 61
-4.41918 14.6228 11.3958 19 19 24
-12.6263 1.29262 -5.5265 18 17 19
-2.51787 13.7354 0.481895 33 19 20
-0.227721 -0.308735 -15.8627 74 43 14
-9.63421 -4.26292 13.2037 46 71 81
4.34826 -4.25154 10.8301 40 45 50
4.88434 -3.11024 6.44064 46 61 67
3.93538 -3.03498 8.38062 47 61 70
-12.9506 -4.40066 -1.84043 50 72 80
-4.545 14.3135 0.229701 20 23 27
-6.96211 10.4628 -10.759 25 24 28
6.0817 -6.91176 -15.4413 26 26 18
-13.7602 -8.71986 -6.09799 60 80 86
4.06988 -4.29857 -8.5023 52 59 65
-7.74446 9.32006 4.11867 20 21 24
-8.8735 6.9998 1.58298 24 21 25
-3.37618 14.3235 13.7242 22 25 22
-3.19465 -9.68009 13.7005 45 66 77
-9.78016 6.56123 -12.4922 33 36 39
-13.2606 -0.0684104 -10.2909 32 49 52
11.5266 -11.361 5.83686 48 61 55
5.3477 -2.74982 6.30519 49 66 73
9.24425 4.15639 -4.30416 77 41 13
-9.97664 5.52735 6.2692 22 27 29
-0.0372276 0.889887 -14.6741 61 48 36
-13.2384 -4.59341 -7.92863 54 78 87
-6.74329 10.3646 8.11755 16 15 20
-0.615384 -2.19702 -12.5014 57 64 74
-7.91192 8.96873 -0.93574 23 22 26
11.3556 -9.20397 -2.55522 46 39 41
-9.04045 -2.50188 -12.0339 46 69 86
4.84709 0.313359 8.22891 35 40 48
1.40488 7.08063 10.3818 29 29 34
-7.48469 -3.86242 13.0518 52 72 80
-1.77723 14.0579 5.31107 77 82 93
-13.2095 -5.63246 -3.45274 52 75 84
1.25284 -0.119547 12.3956 36 62 70
-2.71386 17.3777 8.39977 37 54 62
-13.5965 -7.36597 -9.07348 56 76 81
-11.381 3.01823 10.1255 16 11 18
8.1045 -1.6981 -2.26119 53 59 67
-12.8625 -6.72791 10.5323 50 69 77
-6.41018 11.5654 -13.1284 29 37 40
8.60516 1.70863 0.621927 51 53 59
-0.823485 -2.63456 -14.5121 54 62 69
6.7399 -3.14616 -6.51287 58 66 74
8.66409 -5.13729 2.25073 37 22 19
6.45385 -4.83667 6.41505 44 57 67
-6.89753 10.3118 -3.31518 21 22 26
-13.2646 -6.62225 -2.23126 50 74 84
-11.3266 2.88256 -2.36181 21 19 24
-8.79905 -7.92336 -13.4489 56 71 76
-5.21761 12.7756 -8.23989 22 22 24
-1.26071 7.50084 12.3022 34 55 66
4.92586 0.560149 -9.56249 40 28 35
8.37261 -5.4244 -1.19859 31 7 6
-7.39356 9.77591 -2.1367 29 38 39
2.29152 5.0128 -7.20902 36 22 24
-8.14241 2.60394 -12.8834 51 56 52
2.18371 5.95689 9.97583 36 40 40
-13.023 -6.50207 6.62599 46 65 73
10.083 3.03351 5.07201 69 48 25
-5.90849 12.4976 -10.4739 29 33 37
-6.94745 10.2187 -2.58137 19 14 18
-7.304 4.8658 12.542 43 62 72
9.3903 -11.2356 12.9887 27 48 40
4.09335 2.40124 13.1798 24 24 27
-11.2512 2.84195 8.5209 13 11 15
-9.54108 6.76017 -12.2129 21 27 30
-13.8031 -10.1704 -1.22589 54 65 64
11.3715 -9.63559 7.26184 24 37 30
1.42282 7.25116 -6.11463 37 21 21
8.3711 5.06076 2.75951 74 47 7
4.29727 -2.60369 -7.49499 51 55 65
-1.02293 11.4525 -0.619629 43 20 23
-0.792677 -3.97395 -14.1437 62 68 76
-1.25175 -2.39978 12.7635 38 60 69
-4.93748 -6.44847 13.4471 47 68 77
0.92324 7.41827 5.64116 27 27 29
0.616252 8.66549 4.1061 40 38 42
-8.76439 7.50681 -0.659262 31 32 31
1.55885 -3.44346 -12.2656 54 64 72
-13.3944 -7.26013 -6.22835 54 77 86
-8.12196 -3.78241 13.017 51 71 78
-10.1233 -4.46605 13.3151 51 71 80
-2.17145 -9.26462 13.416 42 62 71
6.42985 -0.188993 -6.3355 56 69 74
2.23878 5.81945 5.74873 35 41 45
0.80369 6.72669 13.5548 32 40 48
-10.8684 -1.72579 -12.0928 47 69 83
-2.42317 14.8508 5.32347 67 74 85
1.52466 7.13369 5.35428 40 44 50
11.8807 -12.1943 2.31427 30 19 26
8.84063 -1.13784 4.43865 57 66 76
2.1475 3.20657 -13.3622 53 59 65
8.51367 -2.02306 2.20523 42 38 43
-2.6031 7.94162 12.2008 40 53 61
3.54096 -8.01953 -15.969 30 42 37
-3.57281 -5.78916 -15.5216 53 69 78
4.76306 0.459284 9.66332 38 49 52
-3.83267 14.8444 -1.33857 26 34 25
-0.896414 11.0756 -2.67312 37 23 23
-9.80048 6.23744 -13.0648 45 56 58
-4.12313 9.57866 -12.0315 53 57 63
8.74665 -7.04638 1.99835 33 9 10
8.73479 -0.925201 4.57841 61 70 81
2.83906 -6.00978 -14.638 21 22 12
4.22967 1.89722 -7.04904 38 17 16
-10.4892 5.03343 -11.0242 22 27 31
-5.5109 7.4051 -11.8551 45 63 74
-8.40579 -4.42517 -13.0383 54 72 76
-2.49916 13.3096 -11.2597 32 9 10
-3.71077 11.7056 12.7567 35 56 66
-6.32149 -8.95763 -15.7614 48 66 75
0.0594773 9.57562 -5.35285 42 29 31
-8.4697 4.14932 13.0034 47 64 71
-8.19136 8.33112 0.0554905 18 22 25
2.79185 2.84346 -13.6343 52 59 60
1.62715 -10.9226 13.5736 43 56 60
-10.4897 4.29398 5.29539 12 16 21
11.0292 -10.0699 -7.92399 40 41 31
8.88068 0.0809593 2.28741 57 61 68
-8.70574 7.35978 7.48115 22 24 28
-5.57617 -6.68696 -15.6113 43 63 73
-13.3833 0.713499 -9.40244 17 18 23
9.85355 -6.4726 -8.92925 30 25 5
-2.29853 16.1656 5.21906 78 84 90
-1.50652 11.7136 -8.6374 38 26 27
-11.6266 3.57348 -12.4973 30 32 36
2.39824 2.09068 -12.8961 52 57 64
-8.26275 8.4225 11.3634 28 29 32
-4.08796 14.7768 -2.48047 32 27 35
-4.98248 13.2223 -0.0711355 25 28 30
1.56239 6.25344 -8.25644 36 20 23
-5.86099 11.7431 11.0324 24 24 28
-4.76522 11.3039 -13.028 53 59 61
-13.2029 -0.0952549 -6.71691 36 48 56
-11.2781 3.00459 5.07322 12 8 15
1.9614 3.88098 -13.4948 51 61 63
-5.81267 5.20939 12.4636 45 60 67
6.95473 2.88642 6.01098 52 29 0
-12.7039 -3.6694 -8.56668 52 75 83
-6.87987 10.6055 4.05493 25 27 29
-6.40039 1.67071 -14.3581 60 46 20
0.174288 16.1004 5.23334 69 67 70
-4.6796 14.2501 8.80129 15 16 21
-2.06596 16.9036 9.26267 50 64 69
-1.77495 10.1702 12.7138 29 50 59
-5.93296 12.4402 -7.88277 27 32 37
-7.9869 8.63958 2.76209 22 26 28
-12.7866 -1.28089 -6.96653 53 67 72
10.1816 -9.44607 11.8537 10 31 15
-12.7296 -2.33666 -3.79627 52 68 74
-13.1652 -7.16196 -1.60901 50 74 84
-1.91008 13.2567 5.22866 63 67 75
3.53144 2.35048 -7.59495 32 11 12
-9.59026 -3.53226 13.1935 49 70 78
8.20904 -8.04252 13.183 28 43 35
-6.1474 -3.57609 13.2165 52 71 78
-2.97263 -8.81494 -15.7407 52 68 76
11.4233 -10.2507 -1.86756 46 40 44
-9.98882 5.30255 -0.0099988 23 27 30
-6.86604 -5.19617 -15.6852 53 69 78
3.4093 3.27159 -9.1457 42 29 33
-11.329 2.81934 3.89277 11 10 15
-10.9193 -1.64558 12.9238 52 71 76
8.39103 -4.0819 2.03846 40 23 23
-2.57095 14.2788 1.52938 31 13 13
-13.5271 -7.7392 -2.70752 56 78 87
2.81819 -5.26978 -14.0564 28 30 23
-10.1981 4.84991 11.8414 22 22 23
6.78804 3.44115 5.71658 70 40 4
-12.857 -5.05698 3.22633 44 66 76
-12.9968 -7.20295 9.80373 51 68 74
-3.5434 -4.30823 13.2134 48 68 72
-10.6107 -7.56886 -12.3734 52 73 81
9.62262 -7.02194 12.3439 20 36 30
9.04225 -11.1268 -14.3975 27 33 17
-3.82009 2.50077 -13.4812 62 43 13
0.168797 9.23544 -3.1077 37 20 23
1.95375 -7.53989 -16.5497 30 37 28
-0.487993 6.7583 12.3276 36 55 69
10.8059 -11.7152 -10.9873 30 18 17
4.47299 -3.50695 6.57365 48 62 68
-3.89328 -4.21631 -15.5479 50 67 77
-12.8688 -9.66423 12.9002 49 67 73
-12.9318 1.17345 8.7761 15 15 20
0.440784 10.3999 5.1977 48 52 51
8.6004 4.74424 -0.538164 66 37 3
-6.68246 11.1051 -1.51402 25 29 31
1.98593 6.06281 -5.20057 38 25 28
-13.209 -5.16151 -4.02019 54 74 82
-4.73927 3.72161 -12.2766 62 45 32
2.64605 -4.78334 -13.61 29 35 31
-4.72608 -6.95813 -15.4559 45 64 73
8.4196 -6.95001 1.03408 33 7 7
3.04575 4.37475 13.0832 41 42 48
-10.1306 5.29009 -13.208 50 59 63
-5.04362 12.0094 -13.3942 54 58 64
-7.76627 8.48819 10.5228 14 15 20
9.01759 -7.22659 -1.207 36 12 14
9.01777 1.54937 5.07983 54 60 64
5.48693 7.86732 -2.13641 65 40 6
0.383361 1.49975 12.3583 39 60 72
5.03586 0.91821 13.2641 36 40 45
-0.227379 9.51368 -10.9418 45 33 34
-13.2568 -5.1633 -5.86589 57 76 82
0.892916 8.2937 8.88039 37 42 46
-11.9363 1.77502 -13.1801 43 56 60
-13.4923 0.116562 -7.74381 28 38 43
-9.18591 7.06515 -12.4474 20 17 26
0.358046 7.40597 13.4444 31 41 49
-9.10368 7.26601 -12.8785 23 21 26
11.0913 -9.77135 -6.59782 30 28 13
4.39293 1.44447 13.8323 37 46 47
0.147095 12.0453 8.93406 54 70 74
-0.337777 17.0816 5.63088 55 59 64
8.76 -1.52056 -4.11369 56 59 61
9.08578 -5.3273 -5.48607 54 58 63
0.918089 -9.48374 -16.8205 34 44 39
-9.48764 2.85671 -12.187 46 58 67
8.96568 4.58035 -4.37996 63 37 8
11.1669 -9.83937 -5.16734 33 33 21
-10.1473 3.30591 14.0045 47 58 60
-1.0013 0.58027 -15.3635 68 38 5
-3.06119 14.5461 4.59846 54 49 59
9.64332 -5.83636 5.9891 43 51 50
8.64839 -1.58752 -4.44562 53 63 71
-2.15785 8.947 -12.4456 53 62 69
-2.90513 17.4177 7.35592 40 56 64
-11.0564 3.88703 -2.50408 23 26 30
-2.53128 13.5416 1.70606 37 15 16
-6.12139 0.972801 -14.8414 62 37 8
-13.0889 -4.32039 -8.54924 56 77 85
8.8393 -4.52404 2.48907 46 38 39
-13.4922 0.253552 -12.6411 47 52 58
-12.7035 -4.5238 2.17261 46 69 79
-6.87689 10.1361 8.25033 15 15 20
9.03972 -3.89928 -5.60547 57 59 64
-8.28815 2.75888 -12.1621 48 68 76
-5.81507 12.5146 7.06099 23 28 30
-7.22447 5.60429 12.6638 39 60 66
7.18986 -1.60241 6.28436 50 63 71
3.6487 3.06936 -5.94265 68 34 11
-7.69984 9.43499 -13.1554 50 61 62
-1.45574 4.55866 12.2135 37 58 70
9.32397 -5.49039 -5.6397 51 56 63
-11.6819 2.57411 3.11751 11 10 14
9.88714 -11.4245 12.2729 33 56 53
-6.70242 11.0825 1.54919 24 30 34
-12.5973 -4.57401 4.45925 43 67 78
5.62479 -5.07221 -11.5063 31 31 18
9.89083 2.07419 -7.02961 67 59 54
-14.0555 -10.8808 -6.36802 31 44 50
6.88624 -1.39361 -6.22901 53 63 74
-0.55359 8.6355 13.0794 29 43 50
-12.7052 -8.8034 12.1731 45 67 77
-0.78953 10.8701 4.72876 44 48 55
-5.02987 12.9731 8.7022 18 22 27
7.72169 3.26578 5.89427 58 31 9
-5.03646 1.03269 -15.0179 61 39 8
8.90231 -4.86693 2.56291 47 41 45
-12.8919 -4.4035 0.13985 44 67 77
-14.0387 -10.2424 -8.5054 55 64 66
-8.60245 -4.33689 -14.6412 58 75 79
-1.51399 -7.14553 -15.6471 29 38 28
0.246824 10.9686 7.29444 65 79 87
3.81336 5.4809 -3.69775 73 35 5
-9.43862 6.78104 -8.0815 28 30 33
-7.14387 9.9806 -2.01565 25 31 32
8.52044 -7.30371 12.6672 14 32 19
-13.1121 -5.06685 -9.53995 51 74 83
4.3495 -0.774258 9.80637 56 81 95
6.06179 0.427945 -7.27166 50 49 52
-7.39243 5.27979 -11.8733 46 64 73
-4.22944 13.9023 13.8101 36 40 46
-12.5126 -1.40805 5.45299 44 58 66
-13.5303 -10.2933 4.92079 53 76 84
-7.58113 9.05083 9.20484 16 19 22
-9.79371 6.38833 -6.49848 32 36 38
4.2762 1.3297 -11.1898 27 6 8
4.06876 2.17191 -11.627 41 26 28
11.4231 -9.12405 7.06298 42 59 51
0.659078 8.09672 -6.31899 42 23 27
-10.8966 4.07342 12.8457 26 29 35
-2.90173 13.641 -12.8268 32 22 22
-13.8491 -10.4198 -2.41186 48 61 67
-0.607497 0.0262251 -13.1545 61 63 72
10.9876 -10.1401 -8.35751 40 41 31
-6.40953 8.59784 13.3627 42 58 66
4.86615 0.841564 -9.13198 31 7 11
-3.26339 -8.58824 13.3769 45 64 73
-13.3737 0.90203 -11.0483 17 19 23
-8.40305 7.98824 -6.98556 13 14 20
-1.43873 1.19822 -14.7306 63 37 9
7.44643 2.99476 6.20811 50 33 0
3.28896 3.75135 9.34197 32 27 31
4.1925 -2.77156 12.3826 59 73 79
-12.6789 1.23267 9.40191 17 19 23
-6.45818 11.5208 -9.11736 25 25 29
-9.31653 -7.98099 13.4685 50 73 82
5.11771 -5.91161 -12.9471 27 30 18
-11.1092 3.83661 7.11073 29 29 32
-0.762394 10.858 10.9332 31 33 36
-11.304 2.84221 -0.0723667 19 18 22
7.71967 2.8777 6.49042 51 35 6
8.10923 5.37853 1.22065 62 46 27
-10.609 4.56538 -4.16079 22 21 26
8.66503 -3.1504 -2.41919 30 6 8
0.237503 9.58631 0.696566 39 25 26
-6.84279 -8.84781 -15.809 47 67 73
-0.474239 -2.22275 -12.4072 57 63 74
-2.62961 11.8802 13.1089 25 48 58
-5.81837 12.5068 7.70432 26 30 32
-10.0136 -0.107028 -11.8908 44 62 71
9.07643 4.11565 -2.23731 65 47 37
-3.91461 -11.6581 -16.3753 17 26 28
-12.529 0.0421743 12.5614 29 44 51
-12.5892 -1.49556 -5.81116 51 72 80
8.52719 -6.533 -0.307784 33 13 13
-11.6149 2.56783 0.737622 12 13 19
4.25135 -10.4245 -17.0561 23 32 16
3.29989 3.35086 -11.8025 37 33 34
2.38856 5.63139 9.28609 43 39 41
-8.63769 7.58982 6.7146 21 23 29
-8.78571 -6.5422 -12.8262 54 73 77
-13.6645 -9.4848 -2.12031 55 74 84
1.31247 7.49284 11.927 36 39 42
10.7762 -7.04736 5.48305 23 37 30
-1.15053 -3.96553 12.7094 40 63 74
-0.0570083 1.47508 -13.984 56 55 58
-6.7349 10.6098 8.31023 16 13 18
-12.372 -3.40509 10.1697 43 64 72
8.83594 3.88953 -6.01817 76 36 2
-6.44318 11.416 -4.81644 27 30 30
-5.81756 12.5355 -11.0253 27 29 34
4.81365 -5.0927 -10.0702 29 18 6
-13.226 -6.03273 -1.66589 51 73 82
-4.02254 10.3615 -12.2696 49 55 57
4.12444 -3.97721 -11.1775 32 24 16
-6.20618 4.74851 -11.8875 47 65 74
7.20349 -8.0033 13.1206 15 31 21
2.29044 5.76102 3.42665 22 19 18
5.9043 -10.9478 13.7924 18 32 24
-13.2949 -6.2988 -8.48554 54 75 84
1.3511 7.42392 -3.9781 42 27 29
4.91098 3.86535 -5.20503 72 37 1
-6.33034 11.3822 5.74052 22 26 32
-11.504 0.865679 13.882 48 63 68
3.78816 2.5441 9.84089 26 21 25
-12.7304 1.19952 4.3368 9 7 15
-10.6324 4.36229 10.9857 21 24 27
-13.6889 -10.4478 3.59647 51 68 72
6.00086 -2.35864 6.38192 49 65 72
4.58357 1.27163 8.50661 22 19 25
-13.1855 -11.3286 12.4381 12 20 28
-0.664093 -0.504469 -12.7396 57 58 63
11.2796 -11.3695 -7.19551 42 38 29
-4.584 14.3065 4.97377 18 16 19
2.05447 5.36179 -7.36104 34 18 21
-12.4621 -4.90304 10.1951 48 71 82
-13.1489 -7.35481 7.3532 49 71 81
-8.33212 8.51174 -12.3014 25 26 32
4.50832 1.06559 -9.50192 30 7 9
2.75856 3.82327 -7.81272 34 15 17
-13.1766 -4.86983 -4.02616 54 74 81
9.67864 -7.44902 -2.82331 51 44 46
-3.5145 5.09631 -12.0502 52 61 65
0.460743 10.979 5.311 60 68 74
-0.174005 8.96323 -13.5578 41 45 48
-10.0966 5.29668 -0.183228 25 29 32
-13.983 -9.88691 -7.9383 62 79 87
-11.878 2.52888 6.79287 22 24 27
4.36618 2.14938 11.2644 29 27 31
-4.00343 -11.0481 -16.0413 10 24 26
-10.0459 5.4214 3.14698 25 30 34
1.73005 6.49323 8.81378 30 27 31
10.2732 -6.37796 8.43626 21 40 33
-11.4305 2.72352 -0.439374 12 10 17
8.90529 -11.0804 13.3465 32 47 41
-11.3516 2.58634 8.03871 14 14 17
-3.54619 -9.08713 13.6243 45 66 76
1.33638 7.2021 -7.2737 42 28 30
-5.48534 -2.44965 12.7152 46 70 80
-11.7815 -9.08855 -12.5178 51 71 79
-9.94732 -1.45454 12.9196 56 70 77
4.65792 -1.15569 6.35632 45 60 67
8.49628 -6.62189 0.37702 35 7 9
-12.7239 -0.868265 -8.44727 45 65 74
-8.72764 7.78401 -3.49489 13 15 22
2.33418 5.68611 6.01451 39 44 41
-7.88644 -0.858618 -13.4906 60 73 79
-12.9219 -7.79977 7.9562 49 72 81
0.65344 7.95962 -6.66578 31 13 16
-1.53217 14.6272 5.27938 73 80 87
8.90499 -1.79707 5.9215 53 70 80
4.22802 -1.4893 7.57306 52 70 78
-8.61444 7.40909 2.83113 28 26 29
-1.13085 11.7636 9.23939 38 57 66
-4.8265 4.2569 12.2161 41 64 78
-13.0132 -4.51721 -2.98333 49 75 85
1.55582 6.60749 3.60909 21 26 25
2.91989 3.58743 -9.16692 31 16 18
-3.71906 16.2365 6.25725 47 66 71
6.72264 7.24319 0.0168762 57 36 8
8.90721 -7.31754 -2.99485 49 42 51
-12.5317 1.33345 3.43165 8 9 13
8.9111 -0.0516453 0.30397 63 67 74
4.06017 -0.421966 -11.4879 58 58 66
-7.73915 8.78936 11.99 17 20 25
-11.7488 -5.45994 -12.1937 50 71 80
-6.17357 -8.40475 -15.7164 45 66 75
-4.42251 14.458 4.84099 20 17 22
-8.90574 8.03245 -12.3111 35 36 38
3.65007 -11.725 -17.7254 26 26 25
0.631525 7.6771 -8.88559 36 22 27
6.96482 -5.58056 7.8307 41 47 53
-2.50128 13.3027 -2.9452 30 11 12
-6.60168 -4.46884 13.102 49 71 78
-4.63736 -1.50072 12.7014 46 66 75
4.22035 3.51475 -5.59674 72 39 0
2.50862 -5.23629 -14.0421 27 30 27
0.676503 -11.4652 -17.221 19 12 8
0.332497 12.5232 8.2655 60 75 81
-13.4975 -8.28832 -4.3494 58 81 90
-9.20152 6.68986 5.61185 17 19 24
-6.66333 4.33344 12.4429 43 62 73
11.6879 -12.1341 -4.89582 27 4 10
-2.81745 5.93692 12.351 42 58 67
-3.90509 10.9301 12.4309 38 61 72
-12.5899 -1.05157 4.82815 43 59 66
2.76899 4.87118 11.0714 33 32 37
-5.92203 -0.523783 12.8639 50 70 78
-7.22117 2.80248 -13.2652 55 43 26
-12.663 -3.80555 2.59144 43 65 75
1.10166 5.87309 -13.4864 49 56 66
-9.36893 6.6188 5.87767 24 27 31
11.4266 -9.57029 0.68038 48 41 45
-10.5029 4.24418 6.17187 23 22 24
0.905941 7.66142 -6.87406 37 22 24
-4.46063 11.5328 13.134 38 56 63
1.33527 -6.9524 -15.6124 26 34 26
-7.74829 -3.50062 12.9735 54 73 81
-9.13313 -0.567675 12.4474 51 72 82
0.345154 9.00806 11.5642 38 42 44
10.0891 -6.1686 -7.84003 41 37 31
8.41709 -6.45615 -13.5197 36 29 14
5.02292 -0.904716 6.33432 44 61 70
-0.322633 10.5743 10.6055 34 44 45
-11.7024 2.77788 -11.5738 21 18 23
-13.9354 -9.55152 -8.13227 64 82 88
-4.50849 -5.65994 13.1511 44 67 78
-0.81947 10.8089 -6.70221 40 26 27
10.754 -9.712 11.1326 38 55 45
-0.501917 6.50083 12.302 34 55 67
-12.5672 2.09124 -7.14694 29 31 37
1.5101 6.86156 -5.38849 38 27 30
1.15758 7.53098 10.8633 40 39 42
11.5611 -11.0964 5.32633 51 60 51
10.065 -8.65659 12.5527 17 38 26
2.18653 5.33864 12.2956 39 35 37
10.5874 -7.39182 7.61595 19 34 29
5.95418 7.16632 -2.6639 72 34 0
4.14879 -0.0807047 8.9312 44 65 74
-7.79959 8.45874 -13.3142 46 57 58
1.04394 8.17678 11.457 45 46 53
-10.1092 -3.43143 -12.1218 46 71 81
2.69006 -4.52931 -12.9156 32 27 19
-10.7017 -1.97483 -12.1699 44 68 80
2.9813 7.38534 -2.32531 60 43 18
8.93793 1.44294 7.20435 57 48 39
-13.4964 -7.26849 -9.50115 57 75 83
4.50688 1.94066 -6.96864 52 30 13
-11.2523 3.24575 2.17705 16 14 17
-5.96951 11.6685 4.77878 25 27 30
3.94547 2.24513 7.0926 20 18 20
-4.69987 8.84133 -11.988 47 63 71
-8.25 -3.04867 -12.6339 53 73 82
-3.88858 14.6813 5.94937 26 29 35
-9.046 6.88817 -9.71209 19 16 23
7.58074 6.03197 1.11285 69 43 17
-6.52751 3.3386 12.5129 45 68 79
-13.333 0.865766 0.223159 18 15 18
-8.26343 1.75626 12.7114 45 67 71
-10.1679 2.68604 13.8868 44 55 67
0.889704 5.60594 13.0746 30 44 52
2.91055 2.31646 -13.5855 54 60 63
3.73565 -10.4709 -17.1122 25 35 21
6.20247 6.27366 -3.53014 78 39 7
4.38979 -2.84334 -6.64344 59 63 74
-8.10862 -9.22293 -15.7511 49 67 79
-13.556 -9.80167 5.61378 55 72 82
8.629 -6.01855 -10.173 35 33 11
6.64022 -5.4243 7.05716 55 68 73
-2.28092 3.85816 12.5128 40 61 66
-2.60175 15.8349 5.25147 73 86 96
-9.51363 6.32391 -1.77942 20 22 27
-0.926544 -1.31269 -12.9376 52 57 62
1.15988 7.76532 12.8912 34 36 44
-7.18979 9.98562 8.38381 23 23 27
11.0922 -8.9149 9.41703 3 24 13
10.7432 -9.67613 -10.7197 38 39 24
-0.416757 3.55116 -12.3274 52 64 66
-8.5336 7.23982 12.2996 20 23 28
0.251207 10.095 7.31029 46 57 60
-0.565781 10.6873 4.44853 37 32 38
-9.08858 4.79872 -12.7201 49 52 60
1.63503 -9.17315 13.4744 40 59 63
7.52615 6.18046 0.339759 67 46 2
-7.18488 10.217 -13.255 51 56 61
-10.9373 3.69967 13.5026 27 30 33
6.62277 -5.10392 -7.77572 26 35 39
6.73763 -5.09957 -8.07208 20 28 23
-7.6008 9.70598 6.69325 30 34 37
6.48159 2.23615 -7.19659 72 40 0
1.0644 7.53596 2.12904 22 23 25
-5.10439 -5.24928 -15.7102 51 64 69
-6.00352 3.63278 -12.4127 54 50 43
8.98675 -0.266994 5.15328 58 63 69
-12.4286 -0.638864 6.23608 36 56 64
8.6912 -4.75445 -2.3853 30 3 5
10.6925 -8.29072 -10.6945 43 47 36
-5.17396 -8.8562 13.559 45 64 75
-6.01299 12.0156 0.316692 19 21 23
4.91805 -7.6707 12.8344 12 25 14
-1.27395 -11.6935 -16.8486 18 14 13
-1.88672 16.4138 9.1988 47 64 70
8.60508 -4.20472 -4.54748 54 60 75
-10.4179 -0.922547 -11.9084 45 68 78
-6.60348 -8.48707 13.5846 50 66 75
2.85699 3.92243 6.74747 20 17 24
-6.37945 5.20669 12.4251 44 63 71
10.2815 -8.46408 11.8185 16 31 23
8.5933 -0.681618 6.21519 53 62 68
-0.0632982 8.77835 -8.18195 35 27 28
-4.86347 11.3871 13.4314 39 56 65
-0.801814 -3.79463 -12.8713 54 65 74
1.16316 7.26043 6.28385 31 31 34
-5.10803 13.0302 -8.69 23 23 26
-2.5813 15.7159 9.18778 48 64 68
6.65685 4.704 4.60448 70 43 4
3.88874 -0.951228 -12.6037 60 63 68
10.979 -11.901 -10.3247 30 15 16
-1.69596 12.6829 -0.420589 43 30 31
-13.0988 -6.81125 -0.349216 53 76 87
-5.60189 -4.39766 13.2447 49 68 76
-10.5711 4.2287 8.71127 10 13 20
8.85423 -5.40131 -7.89066 25 17 4
4.41015 -5.53406 11.14 46 66 72
-6.65414 -3.10551 13.1513 52 70 76
-12.0816 2.19559 -10.717 18 18 21
1.40374 3.73625 12.9359 32 51 60
-8.32307 8.30054 9.41353 25 31 32
-8.7232 0.0193119 -15.2721 57 71 75
6.76138 -8.79356 13.3444 0 18 11
-14.025 -11.4474 -5.20504 30 49 54
-3.90848 -4.94707 13.2681 51 65 70
-11.3501 3.49005 -0.687286 33 31 34
-13.4601 -8.26875 0.151468 52 69 76
8.69625 -2.76841 4.26266 57 70 79
11.5735 -9.6933 8.05794 41 53 45
-12.7033 -0.671213 4.51504 38 54 59
10.4719 -6.44402 -7.33437 45 48 43
-5.64322 12.6404 -10.1439 21 24 27
8.29248 -2.46657 -1.40463 39 22 16
4.35069 -3.66549 7.25041 51 66 72
-9.8664 6.17412 -9.84725 29 33 33
-7.12298 -1.49412 12.9649 52 69 76
-9.72153 6.1335 -9.00582 17 18 24
-9.48691 5.87836 6.84076 21 16 21
-2.01977 12.685 -6.40726 44 25 21
-3.24481 8.36217 12.3335 43 59 63
7.39616 6.20402 -0.974057 73 39 6
10.6266 -5.82664 -5.42461 50 50 45
-7.43737 9.76643 -11.3687 25 27 29
-13.2867 0.144246 4.25971 18 24 31
-13.006 -0.31175 -8.13376 35 54 60
-9.49664 -5.66384 -12.2596 53 74 82
-6.78238 11.1711 -9.45351 30 31 33
-8.59394 -5.36743 -12.7489 54 73 81
8.7941 -3.29881 -2.53375 32 15 16
-12.9268 -4.27919 -2.86011 49 75 85
-12.452 -0.541502 8.29755 42 57 62
-10.9725 3.79389 12.2449 20 20 22
11.5117 -10.0002 8.67696 37 52 39
-2.30827 13.1671 -2.72173 33 18 17
6.65703 5.58604 3.55027 71 41 3
1.64178 6.28343 -4.89577 36 15 17
-2.50672 17.4852 7.7613 40 53 60
2.56438 2.99724 -13.5927 52 60 63
8.33347 -5.28297 -1.44254 35 10 5
-1.41656 8.61812 -12.9743 55 57 62
-12.6021 1.86325 -5.12089 23 24 26
0.275946 9.84754 8.7768 55 71 74
-1.20506 11.0082 -12.1248 32 17 18
-2.24635 13.2566 9.096 38 50 62
4.19345 -3.32099 9.02396 39 44 52
-7.93594 -1.74948 12.7946 47 68 77
4.54076 1.60233 10.9576 32 30 32
4.83333 -4.87587 -8.30588 45 58 69
4.80985 -6.19169 -14.5989 18 1 0
-8.0158 -4.00027 -15.5992 53 71 80
-1.63435 12.6904 10.0561 37 43 49
0.533606 -2.17168 -12.3113 56 61 66
0.887968 7.91936 -4.17672 44 26 26
-1.08005 11.9284 13.54 41 49 49
8.90279 0.337267 3.73402 61 71 78
11.7979 -12.0901 2.01292 31 23 26
-9.05433 7.09656 -6.93485 25 25 30
-12.3104 2.07959 3.86909 21 25 29
-7.91958 -1.07727 -15.3811 55 65 72
9.22297 4.07091 -0.327404 79 39 5
1.12954 7.42702 3.54171 30 29 28
-8.41786 -8.63668 -15.7193 46 65 72
10.5202 -8.11377 1.65782 50 32 32
-4.71285 14.1739 8.23029 15 14 19
4.55702 2.10733 12.6817 33 33 37
5.11128 -5.90683 -13.1175 28 30 17
8.74736 -5.03572 -4.83113 55 57 68
-10.1724 5.30439 5.18587 30 36 39
-6.51336 11.2973 -4.51165 21 21 23
-12.0257 -11.2602 -12.9789 25 31 37
-0.752961 10.5208 -11.131 43 31 32
-10.461 4.30699 2.03602 9 11 15
-6.71471 4.78372 12.3201 45 67 74
-5.08136 3.78751 -12.1376 57 51 48
8.52794 -8.30378 13.2175 19 35 23
-12.7946 -2.30088 -9.30099 53 71 77
-6.42225 11.5565 -9.50858 33 33 37
-9.31281 6.45678 1.61896 31 35 41
-12.5577 -4.59497 10.0263 46 71 83
-2.96308 15.6263 5.26309 71 86 95
5.01917 0.586433 -8.26138 32 17 20
-12.8283 -3.86794 -12.1229 49 68 75
5.90492 2.3834 -6.8301 82 47 6
-6.89386 2.51235 -13.534 63 43 16
4.3248 1.03138 -8.0753 30 12 12
-4.68428 2.65162 -13.4611 55 37 9
11.5639 -10.8813 4.14978 41 43 45
1.13648 3.38368 12.6403 38 53 59
-9.06875 7.08808 -12.2874 20 16 24
-6.73083 10.993 2.14284 28 30 35
10.6111 -8.2783 10.0525 19 35 24
-8.50271 8.29384 -2.89215 28 28 31
6.54351 -2.51375 6.33963 49 63 71
-13.1627 -4.85182 -11.834 55 71 76
3.26311 3.37563 -5.72546 51 26 8
9.89766 -7.34872 -1.13611 38 20 23
2.32642 5.46778 11.0631 35 33 36
11.088 -8.95529 9.80657 33 52 41
-5.06758 12.9422 -5.59207 22 25 28
-7.912 9.05176 -6.60048 19 19 24
-9.77616 6.53865 -12.163 33 37 38
-10.2229 3.51221 13.9967 43 52 57
-9.98244 3.49803 -12.8164 45 53 56
1.08546 7.6498 9.30837 29 30 31
-7.96599 8.6598 -3.88237 20 20 23
0.395605 -11.1289 -16.9296 20 11 7
5.92666 -10.5465 13.7702 19 33 22
11.3295 -10.1238 -3.34932 40 38 38
-8.00157 0.153116 -13.1858 56 71 78
-6.87226 5.58371 12.5149 43 62 69
2.26163 5.86254 12.8888 36 40 43
-11.959 2.60748 10.6454 22 24 27
-5.64998 12.5476 -7.76963 22 25 29
9.58143 -9.54412 12.9269 20 40 31
4.5723 -9.96468 13.3917 16 31 25
8.13318 5.48414 1.98589 62 34 11
7.44614 -11.4671 13.6748 32 48 45
-13.458 -8.07206 0.595016 52 68 75
-1.42974 -3.06368 12.9494 43 61 68
-5.84943 12.452 3.82953 26 28 32
-13.348 -7.39075 -5.84863 56 78 88
1.90402 -0.886036 -12.1077 54 68 80
6.58043 -10.5935 13.7243 16 25 16
-3.31823 12.5456 -13.395 54 59 68
10.7678 -7.97616 -9.14295 33 32 14
-3.237 5.20082 -12.0303 53 60 67
-11.038 3.93898 -7.14297 26 23 27
-6.81171 1.78974 -14.2198 62 43 11
3.40496 3.27792 -8.57219 43 28 33
4.19741 -3.52359 8.31514 44 61 60
11.008 -10.1083 10.4092 24 41 33
-0.711614 -2.28299 -12.6252 57 64 74
9.26898 -9.64712 13.1218 23 44 35
0.580145 2.22534 12.3225 35 58 69
-6.58402 11.3218 -12.2604 23 23 26
-13.2686 -6.7576 -4.57312 58 80 89
-8.15512 -6.45444 -15.6911 51 66 75
-6.34496 11.6887 -9.79405 37 36 40
-1.65082 12.2367 10.2918 46 48 57
-12.1269 1.15037 13.9377 42 47 51
-13.052 -3.60154 -10.5259 56 72 78
-2.12316 12.2668 -9.80275 80 62 65
-12.9508 -4.27685 -1.06344 48 71 80
0.0829754 1.29812 -12.5139 54 63 68
-12.4034 -3.39568 7.72569 44 65 73
-12.0639 2.04612 9.89731 18 14 20
-3.37813 1.47824 12.6155 39 60 72
-5.64419 5.83578 12.2847 43 64 76
-12.5597 -3.09763 4.62041 44 69 81
-8.42424 8.28333 2.08387 32 34 35
-0.826585 10.8726 3.89383 31 18 17
2.75785 -3.44721 13.0436 48 59 64
-10.1223 5.40562 12.0483 24 25 32
1.86839 6.04505 -8.70423 41 30 29
-8.09981 8.51801 -3.6793 21 24 29
5.25253 -1.21072 6.25966 45 63 72
-4.98517 13.3797 -1.25856 21 25 26
10.6862 -7.53653 -8.94203 38 34 23
4.8187 -10.9022 13.5159 11 33 22
-4.87213 13.8422 10.5441 29 30 33
5.09235 -11.6116 13.6683 20 36 26
-12.6965 -1.8962 -1.37025 48 65 72
7.892 -11.0787 13.6643 29 43 35
-11.4777 3.42929 -9.40601 24 24 27
-12.9505 -3.14875 -10.8006 55 73 78
-5.92056 12.0749 6.72515 16 18 18
1.19691 -10.7646 -16.7799 22 26 10
4.32947 -4.12907 10.6691 28 31 32
0.351245 12.6312 7.09448 56 75 83
0.0863819 4.75699 -12.0443 55 66 76
8.78297 -6.57038 10.7229 5 21 12
-12.7556 -0.726135 -4.84348 48 64 70
8.82307 0.0905647 1.73786 56 65 73
-5.73562 7.88632 12.4758 39 62 73
0.367954 15.8676 6.35109 66 80 87
-5.9563 1.22467 -14.6002 59 35 10
3.05059 4.35948 11.1383 40 38 36
4.02413 -0.652672 -11.872 60 60 64
8.82899 -1.83992 -3.83163 59 60 69
-0.989568 5.237 12.0268 35 59 70
-13.9096 -9.85279 -9.79809 58 80 88
7.44693 6.20513 2.08545 62 41 11
-0.99381 12.7766 5.16047 77 81 95
-6.61053 -2.83117 12.9746 49 70 77
-2.65623 13.4225 -8.87725 34 11 13
-7.40215 -0.000275612 -15.8825 68 45 12
-0.39317 10.6063 10.3485 32 42 44
11.3293 -9.03332 7.26384 26 42 36
-13.5354 0.594302 1.68732 25 26 28
-6.65245 10.6099 13.2721 18 23 24
-5.55629 12.8806 13.2566 32 39 41
-10.0302 3.69743 -12.9415 46 55 55
-0.160889 8.94619 -12.1835 31 16 19
-11.0105 3.7671 11.7585 20 22 25
-2.13465 13.2122 -5.38223 36 16 18
-3.68312 14.6535 7.18745 35 44 53
-1.33223 11.5953 -7.1647 37 22 20
2.00856 5.98942 -6.58729 40 30 31
-10.6803 4.52967 -11.8404 21 21 23
-3.65983 15.9235 5.91125 45 65 71
-5.82678 7.3942 12.46 43 60 74
-11.6025 2.67248 4.80468 16 13 21
-8.73682 8.20102 -12.9263 30 35 34
11.3635 -11.0567 -4.79112 48 57 56
-11.2417 3.52859 -5.21126 22 23 25
-13.4562 0.114203 -10.2339 29 41 44
-12.5461 -0.117913 9.17257 34 52 59
0.344234 7.70471 -11.186 35 27 30
7.72881 4.43485 4.91028 52 33 3
-12.4893 -1.83738 4.72912 40 62 70
-11.2087 3.33358 6.85664 18 17 20
-2.55523 -2.28168 -15.4968 53 60 64
-7.15924 10.1634 -11.8515 22 23 25
2.39434 4.95909 5.63498 23 18 19
-5.7324 12.149 9.24281 21 20 24
-13.3022 0.850135 -6.24891 16 15 21
-7.51265 9.70183 12.8823 24 29 33
-6.55016 2.72142 12.566 43 66 78
4.26964 1.95874 7.19187 25 23 22
8.10649 5.49182 1.73331 64 37 4
2.96882 -8.72118 13.2768 3 21 16
1.71181 3.38794 13.1358 32 51 57
-2.09136 -8.82012 13.2056 42 63 71
4.29897 -1.54872 7.89543 54 72 82
3.65532 2.36891 -12.5846 30 14 14
-1.65124 12.2473 4.16781 32 16 19
7.44559 2.11871 6.59354 71 41 5
-4.7826 -3.60646 -15.3929 50 67 75
8.25122 -9.95762 13.4615 10 24 18
-0.830568 -3.44204 -13.4895 57 66 75
6.72322 4.93142 4.52649 71 43 4
-6.90342 10.1847 -3.55785 22 20 24
-12.7856 -0.872965 -9.24309 50 65 70
4.15829 2.06183 -10.1267 39 23 21
-0.821855 16.8626 5.1664 65 69 75
-5.2554 12.9172 -7.13285 27 28 30
9.86532 3.60528 -0.876833 70 39 1
-3.34653 -4.384 13.2224 48 67 72
-6.02245 10.5551 13.7561 43 58 63
-13.1227 -9.51545 10.4029 48 68 77
10.7838 -8.05856 5.92955 22 31 17
-0.0376253 -6.78235 13.0041 40 62 70
7.94407 -5.98027 10.8159 12 30 21
6.42548 -5.39134 7.58636 59 62 71
1.94462 6.42317 -3.25913 40 23 18
-4.13331 10.9528 -12.5856 49 56 59
6.86223 -7.97532 -16.002 34 34 17
-8.41465 5.91291 13.9415 35 50 52
-3.59962 15.8795 9.02875 50 66 72
-1.17019 -1.31959 12.8007 42 60 66
-7.4474 -5.84466 -15.6487 51 69 79
-5.69629 12.2418 9.8216 19 19 22
-12.701 1.31449 5.13919 10 8 15
-1.66209 12.5471 0.287823 44 23 24
-6.82585 10.3288 12.9938 18 21 26
8.9464 -1.75747 4.50084 58 66 74
-0.318521 1.36614 -14.5696 62 44 14
9.35371 -6.63844 -4.19565 48 48 55
-5.29536 12.6352 -2.65719 16 16 20
-8.68519 1.42967 12.7744 50 66 71
-13.1586 0.369147 7.49164 21 24 27
10.2811 -12.3362 10.7697 21 32 33
-1.17116 11.4609 -6.28024 43 27 25
-2.27735 14.7268 9.22257 47 60 67
-1.75307 10.6042 13.1388 29 44 53
5.05376 4.64195 -4.80294 68 36 4
1.57892 7.20635 -4.11011 40 29 30
4.33834 1.98333 8.1163 27 27 30
9.1844 1.34219 -6.36675 53 50 57
-0.0295038 9.80999 1.51404 31 24 21
-7.32888 9.79246 5.61263 19 20 25
-12.7043 -3.41088 2.96318 45 63 72
-7.90187 8.79089 1.64202 21 20 24
-12.6825 -2.03306 -9.87154 54 70 78
-5.76757 -9.1264 13.6784 46 69 79
-8.05251 -1.78927 -12.7979 52 71 76
10.612 -10.5918 11.4722 36 51 45
-12.424 -1.37724 -12.1653 50 65 70
-2.55591 -2.84335 -15.3785 55 67 77
-5.05226 11.016 13.3965 42 57 67
-12.4959 -5.90757 -12.3831 51 74 82
-10.8183 0.589884 13.4028 48 62 69
11.3716 -11.5265 -5.15911 43 45 38
-9.87936 5.77193 -7.22435 20 21 24
11.5035 -10.7275 4.83206 51 53 50
-0.885628 11.1549 2.14458 39 21 22
-5.93852 11.8629 4.77236 23 26 30
-12.6345 -3.50328 6.44817 44 66 77
9.33504 3.91562 0.206794 72 38 4
-13.5717 -8.14462 -3.3986 58 75 82
9.00223 -5.8949 -7.76135 20 19 8
3.16285 -7.15 13.3135 21 40 34
-13.024 0.900143 -9.46468 13 14 20
-10.6683 4.17701 6.42697 24 24 26
2.01034 -4.65515 -12.706 27 32 24
0.962997 8.19941 -2.20065 49 40 47
-12.7967 1.20599 -3.84053 11 11 15
-6.95452 9.81788 0.386166 15 14 17
-2.11793 8.59784 12.3336 38 58 67
-11.4744 3.1895 -3.96171 19 18 23
1.32398 -0.615074 -12.1444 57 62 72
4.18041 1.93153 -10.8991 36 24 24
4.53327 5.23254 3.74369 73 42 4
6.46074 -8.30646 12.9475 1 19 5
1.36107 7.20057 2.82709 30 36 36
4.48761 0.301111 12.2831 47 64 74
3.30449 3.21498 -7.9337 39 23 26
6.45312 1.36411 7.1521 16 18 23
-2.60942 17.4706 6.6244 40 54 60
-9.94785 5.61939 -9.11455 22 26 30
-13.2185 0.673234 -0.958087 18 17 19
10.0408 3.20779 -1.83622 65 45 13
-5.97873 11.5048 3.88295 20 23 25
6.6466 -5.15508 8.81428 57 65 72
-7.31594 9.94902 -5.93221 24 27 31
-12.3681 -3.60313 8.03204 42 64 74
5.0837 -4.96804 -7.82286 51 61 72
-4.33751 -2.50004 -15.313 49 68 76
0.176702 6.74647 -13.3033 53 59 68
-12.8478 1.21544 7.68266 10 8 14
8.37985 -5.69624 1.41051 32 8 9
7.72621 -11.5741 13.6078 35 49 50
-12.9308 -4.00622 -8.28181 54 76 84
2.06768 6.02894 10.4104 35 38 40
-13.2792 -8.52119 5.59842 47 68 78
2.75589 -9.82069 13.4819 11 34 30
-6.1356 -6.45949 -15.5169 52 75 84
-12.8957 -8.95141 10.9491 49 69 79
-13.5253 -6.62077 -10.8834 53 75 86
-10.4221 4.66021 3.42916 24 24 27
-10.3319 5.26259 -4.78244 32 36 39
2.99055 -11.4105 -17.6003 28 28 28
6.41341 7.29207 -1.40017 72 41 2
11.3867 -9.49708 3.65796 48 46 53
-4.83723 13.1228 1.12163 20 20 21
-0.752655 10.1627 -11.9313 35 21 23
-11.1349 3.79412 2.76209 28 27 32
-8.23858 8.36525 -6.20768 25 27 30
-13.1265 -7.51109 7.61025 49 71 80
7.92212 -6.599 11.8459 5 32 21
9.71788 -12.4425 12.0905 23 26 26
10.9729 -11.9165 8.51584 25 37 30
0.174185 10.043 4.91121 38 31 34
-2.82866 13.6541 -11.6142 30 9 10
4.06112 -0.0692129 11.2797 49 70 79
-2.54231 13.937 4.29051 54 53 59
-0.542626 2.15062 12.4639 40 55 63
-7.42062 6.69153 13.4242 42 58 64
-6.70677 10.342 8.43586 10 9 16
-13.5597 0.146429 -11.6655 35 43 50
-9.07886 6.62111 12.6292 12 12 16
-0.985472 11.5329 9.96501 43 48 48
-1.76928 11.5106 -13.4887 52 56 62
2.7275 -6.8822 -15.8153 26 30 18
5.64744 7.08859 2.29314 62 44 16
-13.2544 -5.83969 -0.964171 50 75 84
2.95798 3.5611 -9.00117 34 19 20
7.3921 -7.84921 13.0871 12 26 14
-13.5641 0.268893 -3.2946 25 28 34
-3.05601 12.4905 13.2541 30 51 62
-13.2135 -6.06757 -8.77909 53 77 86
4.4392 1.48609 11.6556 25 23 26
-0.474283 13.1908 5.07118 75 79 90
0.14302 1.54895 -12.3312 54 63 69
-0.972332 -1.51284 -12.7962 52 61 69
-0.201876 9.00383 -10.9805 39 33 34
8.23336 -2.95916 -1.74262 38 19 17
-9.35204 6.68399 2.3875 33 34 38
8.82144 2.25549 -7.25337 81 47 7
-12.9291 -6.83947 5.68798 44 67 77
10.196 -9.10991 12.3189 31 48 38
9.97754 -7.38028 -3.73852 41 37 42
-12.9981 0.500553 10.8547 21 23 31
-13.5622 -6.80629 -7.93013 56 77 85
0.255999 15.6753 8.74215 60 78 84
-8.69913 7.95004 -9.08099 32 34 36
-5.31481 13.0397 12.1511 28 28 32
6.32176 -5.15844 8.50648 78 89 97
11.1878 -11.0175 -7.6685 46 49 43
-11.2548 -7.87435 13.539 57 76 84
-11.159 3.34785 7.32461 16 15 18
9.99792 3.33656 4.96475 53 48 21
8.9375 -2.86582 4.85765 59 66 73
-12.5724 -1.28201 4.33922 42 57 67
-3.41923 14.8619 7.25182 39 60 71
9.67451 -10.9903 12.7801 28 49 40
9.23188 4.01465 -5.59117 73 34 6
5.60834 -4.86793 -8.11023 41 59 66
3.55165 3.79615 4.73706 72 38 1
-8.68927 7.99696 -9.9012 35 37 39
-12.6791 -2.29777 -5.44079 50 71 80
-4.85052 14.1374 -5.30279 20 13 21
4.63541 2.77704 -6.17891 74 40 2
-12.9357 -2.88217 -5.37169 49 72 80
-2.89141 -8.35782 13.3135 43 63 71
4.37954 2.01497 9.31393 28 28 29
-7.40544 7.28169 13.5876 42 55 59
0.949883 8.13975 12.0435 29 34 35
-10.9066 3.28343 11.4731 16 12 18
-5.67442 3.84634 12.5572 43 65 75
-1.14634 -1.92297 -15.4952 61 69 76
-10.3173 0.344471 13.0464 50 66 73
-1.71959 -0.195698 -15.9961 75 42 7
4.82746 -11.7918 13.606 24 35 31
-1.99029 12.1951 -8.59111 30 18 18
8.54087 -10.6042 13.5157 27 40 31
-13.5052 0.737475 -2.73377 24 26 25
4.6339 1.63067 10.0414 35 31 37
0.444898 14.6166 6.75734 59 75 81
5.75672 -8.49565 -16.3722 26 27 6
0.137437 9.55001 -3.28805 41 28 31
8.25488 -3.49917 -1.73651 34 14 12
-12.1573 2.44534 -12.5776 16 18 23
-13.0484 -10.5035 11.9492 46 58 66
3.66801 2.7485 7.27817 23 22 26
-12.6868 -8.30354 11.5555 43 65 74
8.06088 -6.62354 12.1056 13 39 25
-12.5771 -1.93171 -12.0805 52 67 76
-0.660488 -8.84406 -16.4353 30 37 28
10.3714 -8.51748 11.4821 22 39 26
2.43988 4.58389 -11.7548 43 36 38
-6.99187 -3.10439 13.1284 52 71 78
2.09959 -3.20738 12.8682 44 67 78
-8.32223 8.12812 7.29447 11 13 18
5.44826 -9.44921 13.4447 6 19 11
4.20728 -2.44985 7.29372 55 65 72
-12.0877 2.35487 8.64064 23 22 27
7.56583 3.39909 -6.38924 68 38 11
0.97781 4.39288 12.656 35 52 63
11.4339 -10.1592 9.04043 40 53 43
11.7133 -11.5235 3.96527 43 47 48
-4.33586 14.569 0.18277 23 25 30
-5.00734 13.6931 -2.25287 26 27 29
-12.8077 -10.8349 -12.8258 21 34 38
4.74205 5.86494 -3.42196 77 36 0
-8.02773 1.98925 12.5838 48 73 80
-9.65485 5.75574 5.96832 19 21 26
-11.097 0.35091 13.4662 49 62 69
-13.6011 -8.34007 -2.91105 58 77 85
-0.943163 11.3901 3.3433 36 23 27
-5.12143 12.6172 1.89158 16 21 25
-6.23519 3.4866 -12.5307 58 44 29
-12.0667 -1.29891 9.57134 41 68 78
3.47592 2.92617 -9.52576 36 22 23
8.86959 0.157835 -1.51595 61 67 78
-13.3279 -0.03442 2.27327 27 36 42
10.8243 -12.4054 9.42562 27 33 30
-0.982986 11.702 -0.483976 44 30 33
-12.1591 2.41962 -11.571 16 15 20
-11.9519 2.43129 4.20778 12 15 19
0.289177 16.1984 5.33045 65 69 69
-7.55702 8.76567 -13.319 48 59 60
-12.4653 -2.28973 2.3847 42 61 69
4.31867 -0.791067 10.3855 63 72 83
-9.02259 7.1148 -8.17197 21 20 25
9.487 3.71048 4.14927 64 39 1
-6.79704 -11.0626 -16.296 22 30 38
-10.4441 -2.30061 12.9505 52 70 78
0.855201 3.58484 12.5292 40 51 62
-10.6954 3.21578 -13.1806 47 54 57
-0.674809 3.36021 -12.5101 50 63 63
8.34726 -4.80891 1.53328 34 8 11
-13.6546 -9.61901 1.16964 46 69 77
6.09374 3.19675 -6.08578 75 36 2
9.27502 -7.18085 3.09638 37 28 31
-10.2736 -2.105 12.977 54 70 76
6.51379 7.03426 -2.89707 62 40 10
-7.24233 0.681334 -15.322 62 44 6
-9.54999 5.93235 4.09259 20 19 23
-3.62351 17.0355 8.60312 45 63 69
-12.5835 -2.29617 -7.88307 52 73 82
12.0027 -12.5767 -0.167711 29 23 27
9.12222 4.26938 1.8281 67 43 15
6.90928 -8.98216 -16.3036 37 40 30
-12.9664 -7.13414 8.27607 49 72 82
-9.3513 6.74453 -5.9962 22 22 27
10.6114 -6.3416 -6.79669 41 44 29
8.64057 2.41125 6.55176 63 34 4
-13.5318 0.176158 -5.84489 27 35 43
11.3754 -9.27499 -2.87445 42 40 40
1.66988 6.62753 12.2595 33 35 37
-12.4545 1.29509 9.61192 9 10 15
-8.64833 -0.724594 -12.0536 47 61 67
3.56122 8.41692 -1.17488 66 40 10
-3.09326 11.1611 -12.8577 48 60 63
6.11595 7.15471 -2.72503 69 36 2
8.30618 -2.92671 -6.19373 58 68 79
-8.57473 -3.83911 -14.8286 59 74 79
-8.28842 8.38977 11.9596 28 33 35
8.752 -2.49853 -2.94896 53 53 63
-10.995 3.6891 2.09044 18 22 26
-2.29269 -7.10365 13.3622 45 62 68
4.88493 -6.67494 11.9382 5 23 13
-9.34242 6.1982 7.03412 20 18 20
-11.6076 3.09312 -10.3607 25 26 30
-3.61092 -4.07785 -15.6535 50 66 74
-1.74262 12.79 -4.619 45 30 29
-3.53709 4.22374 -11.9182 45 61 66
6.56404 2.42602 -6.92567 74 40 3
1.83642 5.78926 -11.2847 30 22 23
-1.54589 11.8614 -9.58364 41 31 33
10.6238 -12.0525 9.4095 59 64 57
8.68118 -5.10747 3.86684 56 62 70
-10.4564 4.77586 2.40366 20 21 24
4.64217 -4.6512 -9.03517 27 23 18
2.67743 4.47074 -10.066 41 26 27
-1.75909 0.0536613 12.4539 39 64 74
-10.4486 4.77472 2.95702 21 21 24
4.07097 -4.90629 8.55871 45 57 67
-8.95204 7.00581 -4.91378 14 15 16
-3.28157 0.0610523 -15.5362 67 36 1
3.33543 2.22696 -13.6667 48 55 58
-1.02178 10.3263 -13.5325 45 45 52
-13.4481 0.0963202 -8.31995 26 33 39
-6.9825 4.36141 -12.0861 50 60 66
-12.7565 -1.37013 -4.92949 55 65 69
-4.30756 -7.18185 13.4232 48 68 74
-2.54802 -6.68132 13.4084 48 64 69
-12.2936 2.3048 -9.61602 23 25 27
3.29355 -11.7313 13.5989 29 40 37
4.26111 -2.57114 -9.75719 54 58 62
10.3018 -6.51268 -8.13794 35 27 19
2.93916 7.49914 -2.0408 57 37 12
-6.66269 11.1881 5.45692 26 27 31
-2.26291 1.21095 -14.6867 58 37 8
-12.072 -6.76655 13.2598 55 75 80
-8.21166 -7.67147 13.3298 49 70 77
1.04699 7.74066 10.4362 37 39 38
9.629 3.60087 4.18067 63 39 2
0.883917 8.07103 1.68386 29 28 30
-8.90106 -8.79564 -13.618 57 70 76
-12.9579 -2.60395 -6.29913 52 72 76
-2.70536 0.0369244 12.426 44 68 79
-9.2297 6.96729 10.4143 26 28 30
-12.5304 -6.549 12.4391 45 68 79
8.88517 2.20977 2.01397 40 48 47
-4.47971 12.2685 -13.2529 52 60 64
0.512694 14.6864 6.10256 62 73 80
-2.05153 -0.409628 -16.0875 75 43 12
9.02761 -3.00996 -5.62466 58 62 72
-8.49734 7.71102 9.79816 24 25 26
8.46897 -5.91294 -0.311413 30 11 10
4.11203 -0.54733 8.66354 51 69 79
-12.9628 -4.53392 -9.2864 56 75 82
-12.8364 -4.09067 -0.864532 48 70 81
-2.40367 17.3654 8.53028 38 54 60
10.6761 -7.12543 5.11667 32 43 37
8.4492 -9.28709 -14.6123 27 26 15
-8.4385 -4.79521 -13.2662 56 73 78
-3.64924 14.6919 4.26454 27 24 30
2.50995 4.66626 -9.14375 31 19 22
-5.98829 12.3928 -7.55459 27 33 37
-13.0139 -4.49215 -0.748713 50 73 84
-0.210224 9.03126 -11.7914 31 19 22
-13.3447 0.916813 -3.94407 15 19 23
7.51365 -2.61495 6.20869 52 68 73
-4.16657 14.7775 11.8041 30 39 42
4.41341 -4.25465 -9.97819 35 30 30
7.49564 -5.48112 -12.9413 27 35 21
-1.60218 12.6295 9.52236 42 56 59
-10.3285 4.57649 4.00077 20 22 25
3.30895 3.70244 13.3158 29 26 34
0.273834 7.72777 -11.9842 27 21 25
1.78565 -8.8151 13.4083 39 56 62
-1.04662 -7.32741 -15.6851 23 33 23
-13.5967 -8.8625 -4.51054 59 81 89
-2.63855 -11.6488 -16.4476 16 20 24
-13.2907 0.802002 2.10771 22 26 30
-14.1515 -11.4021 -6.85384 31 45 51
5.73678 -6.0943 -14.6118 34 34 13
2.60095 0.887584 -12.5458 55 63 66
0.368324 10.9536 6.09777 56 69 76
-3.12805 -5.28759 -15.5321 53 64 72
6.46598 4.49073 -4.97633 76 40 4
8.84968 -5.92828 -3.48808 55 52 59
4.20334 4.12773 -4.91343 77 44 6
-6.79531 10.9216 -7.39079 27 27 32
-13.2159 -8.8698 6.85386 45 70 76
3.40993 3.64578 13.4914 32 31 39
-10.6262 4.18361 3.10339 20 19 22
8.8158 -4.8467 -3.47687 54 55 63
-11.3567 3.23788 -0.426698 21 18 21
-0.395319 10.4945 -4.71521 44 29 30
10.1033 2.10995 6.36025 86 66 46
4.99256 7.70181 1.45765 61 46 23
8.96792 -6.05773 -11.5805 27 22 6
-12.7637 -5.36019 5.92089 43 62 72
7.731 5.66221 3.3961 49 40 12
9.86143 -6.51806 4.7642 46 52 56
6.94667 -5.63628 7.99882 44 52 57
-12.505 1.35595 8.87211 7 7 13
-6.91301 10.8319 2.78495 28 31 35
-13.6865 -10.0993 -1.81028 54 71 77
-1.194 10.903 -8.11262 35 25 25
-5.25672 2.87574 12.6597 43 66 77
-0.893942 17.2565 7.88452 42 60 67
-5.17786 13.1083 11.7368 19 22 24
11.7932 -12.1071 3.82743 23 18 20
3.97029 4.24816 -4.85398 76 45 13
-2.11187 16.9315 5.14166 67 70 77
-1.00508 10.8501 -4.7866 41 40 41
-0.792274 9.91996 -13.5343 43 43 50
-8.68749 8.20893 -11.8378 26 28 31
2.1718 5.79505 11.5186 32 33 37
8.67161 -6.55384 2.14303 26 16 13
-5.53118 5.30725 -11.7696 42 59 68
10.387 -11.0257 11.6968 39 56 48
-13.1865 0.239766 6.52492 31 36 41
-7.81235 8.79146 -9.25832 30 33 36
1.6876 6.99289 -3.70587 47 33 32
-12.7769 -8.71902 12.5287 47 67 76
-0.720358 -2.18506 -14.2936 57 62 69
-10.2764 -4.51119 -12.2407 46 72 82
-8.1194 -2.51855 -13.2449 58 74 81
-4.89937 -6.8446 13.3813 45 68 76
4.40483 -3.64907 -7.81858 51 51 56
-4.44961 3.72456 -12.2378 56 43 34
-3.69155 16.9711 8.44781 44 61 65
-8.8049 7.26808 -11.1834 29 30 33
1.54327 6.87295 6.6812 21 19 25
-10.8822 3.95609 4.02755 19 24 26
11.1553 -8.21497 0.811071 47 33 34
-7.96232 8.99455 -1.23425 22 25 28
-13.0445 -0.325072 -8.75621 35 53 60
-6.34462 11.4097 -10.6061 21 21 24
0.938547 7.61613 3.9383 25 24 25
7.4428 0.732298 6.82585 49 55 68
-8.55884 7.87759 7.86543 23 24 25
-1.53109 12.2059 -1.16753 43 33 31
10.0611 -6.58893 -9.6028 32 31 19
10.5942 -8.73676 -11.5321 31 29 8
8.74208 -4.70243 -4.81592 53 59 68
-13.2421 -5.86814 -9.38099 50 76 86
9.31923 1.88925 7.26518 64 55 28
-0.119187 16.6432 5.25832 61 66 66
-9.60003 6.0001 13.3301 16 20 24
-13.2282 0.933808 -5.23247 22 19 23
2.02169 6.12004 7.76287 31 32 33
-12.6826 -2.85231 3.93946 43 64 73
11.527 -10.5996 -1.35596 42 38 41
8.22554 -5.14209 -6.62971 46 51 58
-12.3439 2.2931 -2.37363 21 22 27
-5.88613 5.77137 12.3677 42 61 70
-8.3156 -5.09148 13.3347 52 73 80
-12.6801 -6.20651 10.01 47 70 79
1.21074 7.22344 -10.3161 40 30 32
-8.79429 1.37022 -11.8071 45 68 79
-0.000823528 2.8473 -12.3813 51 59 70
-0.418062 7.84505 -13.3424 53 57 63
-7.81552 9.47631 1.22669 28 32 34
-9.27835 -2.76207 13.0057 53 72 80
