ply
format ascii 1.0
comment Created by Open3D
element vertex 1390
property double x
property double y
property double z
property uchar red
property uchar green
property uchar blue
end_header
-4.64256 14.421 11.6558 21 23 29
-10.478 -2.02958 -12.2414 46 68 77
-4.55466 13.93 -13.3215 45 46 48
1.15771 6.5739 -12.7286 32 26 28
-7.65254 -0.496391 12.9065 51 69 77
0.00270462 9.56704 4.13216 37 29 31
8.01957 5.42377 -0.985865 73 48 23
9.51978 3.75106 1.00551 68 38 3
-12.6847 -8.96833 12.5104 43 65 75
-6.02857 4.3517 12.3326 45 69 79
-4.002 13.8371 13.8038 29 32 38
9.88485 3.67578 -3.3242 69 41 6
-10.1324 -8.7276 -12.4538 51 74 86
4.17283 0.231367 13.6652 35 53 59
11.3904 -9.02529 -2.11208 41 35 37
-12.6989 1.23029 -9.94163 15 13 20
1.69406 2.32527 -12.4304 53 64 66
0.921377 -6.40738 12.948 42 66 74
-1.69383 12.8205 -3.33028 39 27 27
8.79729 -0.760166 -2.59599 55 60 68
-9.40192 6.53183 -9.0667 20 21 28
6.26266 -6.13382 11.5445 14 30 21
0.240939 16.7151 7.45519 55 71 76
2.56306 7.39101 -1.96363 65 35 8
1.87898 -3.88835 -12.1432 50 61 67
4.19744 2.93331 5.77564 56 35 4
-2.44705 13.3813 -12.9283 36 15 18
8.89804 -4.77472 5.43328 55 63 70
-0.263263 9.95286 2.69602 36 16 20
-12.8473 -6.44519 9.91011 49 70 78
-2.28378 -1.66476 -15.6685 52 62 62
0.0782886 13.3927 5.11528 72 76 87
-12.4097 -5.71314 10.2301 45 69 80
-4.98107 8.64137 -12.1105 49 62 70
1.38007 7.41287 1.1885 29 30 36
-4.08367 12.8709 -13.4249 52 60 62
-0.632274 10.6113 9.63589 36 42 47
0.676752 0.905529 12.6526 41 60 68
-1.07356 -5.7729 -15.5088 31 41 35
11.4209 -9.626 -1.15518 44 39 39
-12.2557 -2.49847 8.36595 46 69 82
-11.0195 3.89664 -10.0857 19 20 23
0.203302 16.8445 5.81676 57 64 69
-6.77781 10.2301 10.3806 19 22 25
0.290292 8.41314 -11.8327 42 37 38
-2.95651 -2.26999 12.9709 46 64 73
-8.73397 7.92299 -7.68988 33 34 39
-6.94844 10.1777 -8.86159 24 25 27
10.9504 -7.55177 -5.22346 28 26 14
-5.23864 13.4569 -12.086 33 32 36
-1.67222 12.2835 1.09961 32 16 18
-13.5331 -8.15346 -4.07474 56 76 85
-13.041 -7.94044 4.98489 48 67 76
1.35411 -8.06702 13.1987 41 66 76
-5.83797 8.50698 -12.2483 46 59 66
-12.8742 -5.41475 0.676098 50 70 82
-3.62422 14.5633 -10.7883 22 18 18
-6.82398 -8.56216 13.6396 50 66 74
2.79555 6.2815 -3.01923 65 34 3
-12.7352 -6.15875 8.83051 48 71 83
-3.25094 7.12736 -12.0232 51 60 67
-2.79078 17.4087 5.83014 38 55 60
-8.29774 -6.63716 13.4635 55 70 76
-5.26118 12.5768 13.7227 34 37 41
4.55026 2.14513 5.95755 53 30 7
8.15816 -9.24315 -15.235 39 45 32
-11.0349 3.69356 -5.03108 10 12 14
-0.990959 -8.03312 -15.9667 30 37 26
-4.85497 13.8944 -13.246 40 40 44
-13.1711 -8.93577 9.11633 53 75 84
6.1791 4.74262 -4.8541 70 43 9
7.25694 -3.69011 6.3343 50 64 69
-8.79865 7.3445 10.364 23 24 29
8.93573 -2.63693 4.81212 56 65 75
1.08534 8.06671 -1.7384 44 47 48
2.0946 5.87796 3.90604 26 30 30
-12.1497 -1.39513 -12.1799 50 65 72
-7.90087 8.75799 13.4476 26 26 28
-6.69828 10.6186 9.04604 23 21 25
8.03083 -5.16931 -9.78051 32 23 10
5.16976 -11.9175 13.6409 17 24 19
-3.38128 9.50904 -11.9806 50 68 77
9.04132 4.53264 2.08653 61 38 19
-4.9391 2.53814 -13.565 59 42 21
7.78649 -10.209 -15.7742 33 40 25
-9.88273 5.82798 -7.44551 19 19 23
-12.3474 1.95475 1.91928 23 23 26
-0.168362 1.78105 -14.0584 59 53 40
-5.72102 -1.58012 12.8268 48 69 77
0.918715 8.08982 4.81587 39 37 39
5.95126 -10.6683 13.7704 19 33 23
-8.82254 7.27892 -13.2164 48 50 55
9.83527 3.52487 1.30885 62 39 10
3.52633 0.646397 -13.4786 55 59 66
-6.46446 -10.9226 -16.1867 24 32 38
-13.2078 -6.24466 1.13121 48 67 73
4.27464 2.05836 9.09259 26 26 27
-5.96236 10.4394 -13.3285 55 60 65
-1.56615 9.30088 12.5082 34 54 64
-0.561612 -5.71466 -15.246 40 47 40
11.5268 -10.2266 4.15464 58 61 56
-12.5066 1.35339 3.78979 11 10 13
-12.3587 -2.42145 4.61426 38 63 72
6.73362 -0.92479 -6.41318 56 61 67
5.2659 0.151659 -7.2856 47 48 57
-8.53552 2.40604 12.7719 47 63 69
-6.93159 10.6351 0.41073 29 29 32
7.80587 -5.07657 -7.463 23 29 18
2.29935 4.97214 -5.20356 32 13 22
-6.93323 10.5957 -4.45436 25 24 26
3.96448 -6.27008 -14.8513 27 26 15
-10.8055 3.9964 4.62023 20 24 27
10.8929 -7.38563 6.35058 25 44 39
8.67097 -5.39364 -8.75276 33 35 23
-13.0839 -8.35537 7.46662 48 69 80
-7.87047 8.98841 -13.19 52 58 60
-7.22271 8.119 -13.0327 51 55 62
-5.254 9.25053 12.5934 43 59 65
-4.66765 -6.34693 13.3259 50 71 81
10.4998 -7.18018 -7.13653 32 28 10
8.54695 2.7487 6.46321 66 40 2
-0.255198 10.7056 13.299 38 45 47
-12.4876 1.37253 -13.0995 46 56 61
-9.49956 6.16207 3.78116 23 21 25
4.43636 -4.05335 -6.65133 57 62 69
-12.0279 2.15283 4.55636 5 7 10
5.17677 -4.84248 -9.14438 29 26 20
0.461776 8.97593 6.84842 42 48 48
-12.4912 -7.2177 -12.546 52 70 77
-10.9647 4.00444 6.9326 27 27 30
-8.80009 7.24944 5.0633 26 28 31
-0.466658 11.1968 9.17749 48 66 73
-5.4135 9.62317 12.9679 42 60 67
7.2453 -5.02524 -10.6991 30 27 14
-3.21003 14.4058 -10.0481 28 12 11
-3.61379 5.71011 -11.7852 52 69 78
4.8771 1.13833 13.1652 27 29 34
-13.2683 0.810839 7.07634 26 29 34
3.03658 6.5065 -2.56281 71 37 1
10.8047 -7.82031 -3.4459 38 27 29
3.0051 5.20199 -4.08762 67 45 19
9.48662 3.49063 5.78913 55 36 8
-9.62668 5.55436 -1.1162 19 19 20
-0.452295 2.5532 -13.4016 62 59 57
0.131669 9.34531 13.6612 34 34 41
-11.8696 2.52608 -11.0698 24 22 26
4.28555 -0.776966 9.13403 55 74 85
-1.6547 8.705 12.3809 40 59 70
0.80267 5.15836 12.7498 32 48 57
1.06335 7.32101 6.12688 34 34 36
-5.56909 12.362 12.7586 16 23 27
-2.6531 2.83733 -13.0037 73 44 14
4.6635 1.44955 7.09834 25 25 23
-12.5831 -1.67588 2.046 44 62 69
3.63612 3.51253 10.0566 31 29 32
-0.289746 -4.82936 -13.8752 47 53 56
-8.70375 8.03679 -1.74144 32 34 38
-7.61301 -4.43437 -15.5727 49 70 76
0.712893 -4.24252 12.9734 39 59 65
-13.0284 -7.7998 7.74866 51 73 82
1.17301 -10.0441 -16.8391 29 47 39
-7.97984 9.18589 -12.9256 31 32 34
-1.9391 13.0742 -0.159369 38 25 27
-2.81684 -9.51208 -15.7653 51 60 68
-1.54467 8.26982 -12.5119 55 60 65
-4.59075 11.4958 13.2282 38 56 62
-8.02433 0.226 -15.709 55 64 52
8.22099 3.25053 -6.61458 73 41 6
-8.00788 9.08298 -12.6528 24 23 26
-9.17032 6.78838 5.68343 23 25 29
-6.91718 -5.93444 -15.7199 49 68 76
-5.75839 0.829868 12.5557 47 68 78
0.308193 8.94228 -4.30857 40 26 27
2.34061 5.99626 2.87991 19 14 18
-7.01169 10.3339 -10.4484 29 28 32
3.97595 -11.5963 -17.7284 29 29 22
-2.10701 17.4005 8.27726 46 57 63
2.21882 5.08247 -6.87795 36 18 22
-10.7054 4.24858 -6.74078 19 18 23
-9.68391 6.48583 -8.21151 36 37 38
4.14848 7.7649 -2.02933 65 36 8
-12.7613 -11.0803 12.8272 20 33 39
8.95784 -1.07519 2.71379 56 64 68
-4.79446 14.1149 1.16014 15 14 18
-12.755 -9.965 -12.6791 52 71 77
3.33691 -5.35782 -14.5407 39 38 28
5.34759 8.0719 1.06609 49 37 9
-8.1833 5.35586 -12.1432 46 55 62
-0.597841 6.28068 -12.2406 50 60 70
0.770988 -2.38034 -12.2697 50 66 76
-12.8616 -7.13051 10.6626 52 72 80
2.89379 3.89066 7.18041 42 40 43
5.26854 -5.07024 -7.09013 54 58 64
2.81612 -8.34492 -16.2636 31 31 22
-11.7431 2.50739 -0.887039 12 11 18
-4.91869 13.847 -1.35449 25 26 31
-2.72873 13.7994 -7.62061 34 13 13
-3.83008 14.7907 -2.83909 33 23 26
-8.95109 3.07034 -11.9514 41 61 68
-12.978 -4.07688 0.898564 47 71 79
-0.891308 11.0789 10.3796 30 36 34
0.465917 12.0727 5.90154 61 70 78
4.90015 -10.234 13.4704 10 26 13
10.2501 -10.5518 -12.5401 40 51 40
-11.7578 2.46035 -6.90426 20 16 21
-12.3979 -3.01886 9.47722 43 60 69
4.28867 -2.3824 -7.30631 51 56 65
-13.4579 0.243584 2.52065 21 27 32
-13.3564 -6.09292 -9.52079 50 76 86
4.66774 6.36172 -3.18806 78 50 20
-8.26744 5.63789 -12.3153 46 55 62
5.7455 -8.14692 -16.0761 32 37 23
-5.39187 -9.84083 13.736 48 67 78
-12.8224 -3.81015 -2.82029 46 71 81
11.4179 -11.9937 6.72618 29 41 33
1.24622 8.23778 0.429575 23 10 24
-4.52604 -8.12702 -15.6519 50 69 77
-10.7279 4.68359 -6.33279 28 29 33
-9.12252 6.12766 -13.2889 48 55 60
-7.66375 6.33229 13.4994 44 60 64
-12.8697 1.25523 -6.58441 16 16 23
-8.97934 -8.76119 -14.7328 58 73 78
-6.80727 -1.88362 12.877 49 68 75
-13.5429 -10.8135 5.60063 37 43 51
3.0245 4.53849 11.2955 42 41 42
7.49522 -10.8119 -15.9631 33 34 21
-8.6549 -5.51442 -15.3164 54 74 77
-13.8478 -9.06178 -10.3725 58 79 88
1.7186 5.49508 -13.0872 34 27 28
-10.7074 4.22246 -9.28977 26 26 19
-11.7279 2.47691 -6.62209 13 11 17
-13.7723 -9.79923 -2.33798 54 74 83
-8.65842 7.83835 2.81631 32 33 33
4.29386 -4.11234 9.74236 52 48 45
-3.19667 14.3707 -12.5898 28 25 26
-12.7132 -3.76748 -0.590916 50 70 80
-13.2566 -9.04966 6.7715 48 74 78
1.12381 8.89556 -0.322142 37 21 21
-13.4042 -6.19254 -5.3748 56 75 83
5.35643 4.89621 4.06182 48 34 3
-6.37472 11.2853 -0.0352335 17 20 23
4.16546 -1.04972 11.9222 60 79 89
3.94177 1.90806 -13.6227 46 44 46
-5.37145 -10.8725 13.7697 45 63 72
-13.6759 -8.66086 -10.7947 60 78 85
5.19709 -7.5487 -15.9273 26 24 15
8.68568 -3.58216 -4.74745 56 63 75
-9.28959 6.77463 -0.242846 31 31 36
-6.39926 11.337 5.2961 25 24 27
-12.7513 -1.2217 -5.29863 51 67 72
4.17948 -1.08865 8.62751 54 67 72
-6.46477 -8.17924 13.4275 48 67 76
-12.8437 -2.2431 -8.93266 52 69 76
-0.592037 -0.19088 12.5251 39 59 69
-3.42943 14.8769 5.68851 40 53 61
8.24958 -2.95251 -2.1337 35 15 18
6.79217 -5.11408 -8.08241 19 28 21
-13.8092 -10.0489 -1.11217 54 68 68
6.95863 6.70306 0.982082 72 37 0
-9.50013 -6.4783 -12.4509 55 72 77
2.40066 4.84491 -10.0989 35 25 26
-0.798049 10.5746 -8.92735 41 30 29
-3.07458 2.61132 -13.2892 58 39 18
11.253 -8.24623 1.07677 44 34 34
-13.3134 -5.21849 -10.9879 53 73 80
-11.9931 2.52129 -11.6617 16 13 18
3.8075 2.97013 12.7522 37 37 37
-1.18684 3.2535 12.284 38 60 69
-2.35432 6.97471 -11.7866 45 67 78
-8.06935 8.51817 8.1365 28 29 33
-8.68548 7.29957 2.54004 25 26 28
-7.41499 7.05636 13.5112 42 58 62
-8.72494 7.20094 1.7366 16 15 17
-3.66339 10.0012 12.2382 34 60 72
11.4266 -8.68264 -0.102309 41 36 35
-2.87309 15.0719 9.27286 45 61 67
-2.01745 -3.68779 12.8757 37 62 74
-13.031 -6.40886 -12.3705 56 73 78
-0.17062 14.9088 9.08266 47 67 73
-1.68711 12.7807 0.970071 43 27 30
-3.31242 13.9417 -13.1218 52 48 50
-12.7802 -0.453378 -0.124367 39 57 64
-10.221 -11.5814 14.0718 21 30 37
-8.33697 3.46774 12.7765 44 61 69
-13.3838 -9.69483 8.89466 55 76 84
-0.0779486 8.94837 13.6511 27 39 42
-13.5683 0.631341 -5.91885 24 25 28
4.11103 5.55362 -3.73091 69 38 4
-12.7138 -1.17303 -10.4743 48 71 81
-8.78772 7.31893 -5.88169 22 22 23
2.64143 -6.4937 -14.772 19 17 5
5.22016 -5.10412 -10.0133 34 21 8
3.29896 3.57316 8.46051 23 22 28
-9.24821 6.39582 9.5872 18 21 27
-7.90697 9.00451 -6.30135 27 25 30
-6.88352 10.8526 -1.84103 31 32 35
10.7022 -7.26954 -5.68993 25 18 1
-8.18483 8.30407 -6.59719 25 25 27
4.11596 1.86628 -7.12756 37 16 12
0.497289 12.0007 5.60526 65 75 84
3.32591 -6.40688 -14.7452 28 26 15
-2.13465 13.2122 -5.38223 36 16 18
0.958646 7.76337 3.75912 25 24 26
-5.22133 12.7499 -9.05225 21 22 26
-9.66533 5.52302 -0.0888987 19 23 25
-2.41381 4.088 12.5052 41 61 66
-3.12441 14.7461 11.449 35 34 34
-9.61859 -3.61127 -12.1725 54 74 83
-11.9173 0.205975 13.6517 46 61 67
8.23092 0.460619 -6.65419 56 58 64
-2.97521 13.1635 -13.3916 53 58 61
8.9282 -3.97878 2.7799 57 55 59
4.15374 5.36327 3.73818 61 40 10
-4.8948 13.3337 2.93361 21 27 30
-2.07789 12.6341 -11.1028 37 17 18
-13.5949 -8.49572 -2.21381 56 80 89
1.40818 7.36485 11.7882 36 37 43
4.78487 4.98769 -4.14268 78 43 0
5.93484 -5.60775 10.8761 30 51 43
-11.4343 2.49617 -13.1924 47 56 60
-10.2801 5.03499 6.05341 29 29 34
8.72786 -6.79987 -1.2864 43 32 33
9.51357 -6.68323 -11.0801 26 14 4
10.7242 -6.65761 -6.64804 35 38 24
0.780445 8.52912 0.556153 30 33 34
-13.0152 -5.46807 4.5439 46 65 74
-13.302 0.306261 -12.8854 47 52 56
-10.5458 4.36364 0.609389 20 21 26
1.3262 -3.82778 -12.3365 50 58 64
0.247569 10.9603 7.31848 63 76 85
4.52489 -4.53545 -8.91562 39 38 39
-12.0663 1.82102 11.5718 12 11 18
0.982248 8.25722 10.1545 42 46 49
3.66146 4.21385 -4.9502 73 43 12
-10.8912 4.03258 -11.8025 14 16 22
4.23234 -1.45003 9.6412 53 66 76
-12.8962 -2.98458 -11.7471 49 71 82
-12.132 -6.42834 -12.5048 54 71 78
6.09433 7.90239 -0.816023 68 42 7
-4.97469 13.1076 -3.937 26 25 29
3.36275 0.902039 13.4362 31 48 56
3.03953 3.7852 6.20825 50 29 13
4.4068 -4.01367 -7.66236 50 54 60
-6.09128 12.3112 -12.4172 41 43 45
-12.8257 -2.86064 -5.00198 51 73 83
0.100986 9.75633 0.345977 43 26 23
-4.8201 13.2215 8.3779 19 21 28
-12.84 -3.05683 -1.96995 54 71 77
-5.78997 -6.50037 -15.5688 47 67 77
-4.63652 14.3024 8.79977 16 16 21
11.3742 -9.07957 1.09149 41 39 38
8.32675 -3.07327 -1.16902 38 17 15
10.0655 3.0985 4.35224 68 43 11
-4.08421 -2.15417 -15.327 49 63 73
-0.986442 -7.26958 13.3435 43 63 70
-3.85589 3.28714 12.4276 39 61 72
-6.96441 5.33394 12.4713 42 61 68
4.94018 4.33136 -4.87104 77 40 3
-0.140912 9.68737 3.3404 32 23 21
7.12936 -7.66629 13.1186 24 39 30
8.96127 -5.58462 2.64119 54 53 60
-0.0682716 1.6774 12.4122 37 56 68
0.457561 10.9529 5.55568 57 64 70
1.65834 4.42042 13.4197 33 45 53
2.72397 4.62965 -6.20001 35 28 32
2.04162 -4.19402 12.84 35 59 72
-3.48596 0.00423813 12.7515 44 61 68
-4.82072 6.74565 -11.8408 51 69 80
-0.546811 -3.21485 -12.703 56 64 74
11.3586 -9.382 3.21925 43 40 42
10.9613 -11.6458 -9.21411 30 14 8
-9.4694 6.0899 3.05239 21 22 25
-8.34374 8.24823 12.061 25 30 32
-11.6691 0.609462 -12.6661 40 52 59
-1.22549 8.70224 -13.2394 56 56 64
-8.0034 -3.11491 -15.4548 46 66 72
-6.46084 11.0605 3.37259 23 26 29
-13.4436 -6.51122 -5.83442 55 77 84
-7.55609 4.20233 12.6399 46 60 64
3.28603 6.63479 -2.50465 77 39 5
6.64051 -10.4146 -16.5626 36 44 30
0.412998 16.4139 5.92186 63 73 77
-12.2105 1.61333 7.91402 16 14 22
0.0468135 12.3233 5.03776 58 71 79
-6.81549 10.9694 -11.0135 31 30 34
11.6546 -12.0676 5.26438 31 37 35
-3.88553 -8.83136 -15.8102 52 62 67
-3.49494 2.74167 -13.277 56 45 22
2.45001 4.35503 -13.2688 38 34 37
-5.83156 -4.28568 -15.5004 51 67 75
-5.60165 12.6381 -12.2789 23 27 28
0.771402 8.53197 10.6045 39 45 47
0.746328 0.271265 12.5666 34 57 67
3.26638 -0.498549 12.9633 31 50 61
-12.5325 1.53279 -3.51892 17 19 21
1.74006 6.05061 -10.5448 33 21 26
-3.10282 6.11317 12.3312 42 59 69
-6.86234 10.9682 -13.136 49 58 62
-12.3075 -0.508517 11.1139 40 59 68
8.93543 -1.98318 3.95291 63 67 76
-5.05163 13.6273 -10.936 23 28 31
2.4188 -6.92729 13.2201 41 61 65
-1.24816 -4.81397 13.0262 46 65 71
-2.00123 0.8599 12.6667 41 59 70
-1.06716 10.0494 13.5068 31 44 52
-6.98613 10.7925 -5.14193 30 30 32
-8.44155 8.12071 -0.392421 23 23 29
-8.77418 -6.28659 -14.6735 59 75 82
-4.64302 -0.748539 12.6625 43 65 74
-0.943944 5.30134 12.0425 36 59 70
-2.52219 13.267 -13.2418 46 40 43
-2.18185 12.9865 -10.6349 32 24 21
5.05731 4.07072 -4.94444 81 40 0
-13.3732 1.81198e-05 -4.29225 32 39 42
3.37039 7.63177 -2.01143 64 37 7
1.30772 -8.82751 13.3044 35 55 64
8.94386 -7.22783 1.73833 39 7 10
-12.3359 -6.94536 -12.5334 54 72 78
10.1524 -7.87044 0.271579 40 28 30
-0.820715 10.6473 -12.3145 43 35 35
-5.04763 -10.1556 -15.9019 46 58 65
-9.18939 3.53105 13.3963 47 61 68
-0.587276 10.0239 -7.50948 33 19 23
1.36122 7.1942 -8.12734 39 29 30
0.480326 12.2563 5.36301 58 71 79
-13.6599 -8.71879 -9.05001 57 79 89
-10.2179 2.32401 13.7702 48 61 67
-3.63537 -2.80167 -15.4568 52 67 72
-12.9322 -8.49222 10.1746 52 71 81
11.0592 -11.3737 -8.46666 38 33 21
-12.1105 1.93286 8.98713 12 12 17
-8.0734 1.22817 12.6495 48 69 79
-1.93695 -3.39083 12.9368 39 62 73
9.69066 -7.19783 0.483654 38 17 20
-9.58074 6.49133 -8.49858 28 27 31
-13.6573 -10.1066 3.88618 52 71 76
3.24251 3.24776 -6.10414 45 17 10
-2.38927 13.3322 -6.24993 28 9 10
2.16889 -8.71907 -16.8212 21 24 9
1.37483 0.222798 -12.0646 57 69 78
-7.13309 2.24068 -13.827 57 39 13
-11.3726 3.21573 -1.31171 16 18 22
9.52696 3.73489 2.18015 62 36 4
-0.73021 -2.31253 -14.835 53 59 67
9.6269 -10.7082 -13.6469 32 43 29
-12.5696 -5.20051 10.0413 48 71 81
-6.84081 10.6015 5.07535 19 19 22
-12.7469 -4.94364 9.58168 50 67 75
4.49203 -4.6585 -6.66171 52 57 61
-3.51107 12.0808 -13.2424 46 58 66
1.77616 -2.78767 12.8218 43 64 78
-1.1933 11.8301 0.167354 39 28 29
2.11739 -6.83378 13.188 42 62 67
-0.210085 -9.41325 -16.712 37 48 36
-3.35539 4.55581 -11.9697 50 59 65
-12.2105 -1.9358 10.3995 45 68 80
-8.75055 7.99247 -2.35723 33 35 37
-7.08855 1.32974 12.8177 50 65 72
0.793355 -1.90294 -12.118 51 68 77
1.19977 7.33077 -8.44265 45 32 36
-1.28068 -11.1267 -16.5025 8 9 11
-2.85543 13.8194 -10.6793 28 12 12
-1.38209 11.0692 -8.28373 34 20 21
0.666275 7.37985 -12.3538 36 30 33
1.61472 7.06488 9.17701 41 45 49
-8.27629 8.43522 0.416748 26 30 33
-3.81611 14.5972 -11.1278 21 19 19
-8.92923 -8.90344 -13.592 56 69 76
8.92622 -5.62619 3.07819 53 57 63
-8.7688 7.21858 -1.13965 22 24 24
-3.71353 -3.82697 -15.6522 53 66 74
-13.0846 -0.28916 -8.75029 34 52 59
0.673821 8.5775 4.85352 42 38 47
2.70974 4.84032 9.99844 32 31 36
4.15029 -2.52762 -8.34709 43 34 36
2.7342 4.50153 -5.85339 41 29 31
-3.62401 15.7324 6.15755 42 62 67
11.5734 -11.0893 1.5516 42 40 41
4.06725 7.12897 -2.43338 75 40 2
-9.9969 5.58684 -8.64376 22 25 28
5.30151 -8.65324 -16.7862 40 46 35
-0.209051 -1.31803 -12.1869 55 61 70
6.82614 7.18846 1.83252 51 41 18
-8.21478 8.46269 12.9239 30 33 35
-9.85975 -5.18075 -12.1995 53 75 85
-10.0075 -0.21715 12.8523 52 66 73
3.24443 3.54061 7.04943 23 22 25
-5.63055 8.31241 -12.1549 49 63 70
-2.45066 17.039 9.19272 47 59 65
-6.13996 2.11879 -13.9376 57 45 26
-8.63061 -4.95416 -12.4191 61 77 87
-4.12612 -7.12044 13.4634 50 67 73
-6.25654 11.1549 2.26865 14 15 21
8.9288 -5.06641 2.68431 52 48 56
-11.9603 2.11998 8.08223 11 10 16
0.217733 -2.37287 -12.4258 52 61 66
-3.60944 16.1524 7.09106 40 64 74
-14.2746 -11.102 -7.5029 25 40 45
-5.49219 12.4994 0.249565 15 18 23
1.24766 7.37163 2.03384 25 32 31
-13.704 -8.37688 -11.7564 53 73 79
-8.84155 7.16247 -1.97597 21 24 24
-12.7611 -0.992085 -6.30563 51 67 74
-3.55287 14.0242 -13.2477 56 54 57
-1.65652 11.9863 -6.64626 39 21 22
0.394346 8.9674 12.7388 45 43 47
-13.9071 -9.23255 -8.11413 63 80 87
8.49713 -2.79721 -6.25722 60 67 76
0.38919 15.7619 5.82704 65 75 82
-12.8768 1.18448 4.64077 8 6 16
-13.0163 -9.18071 10.6016 48 67 77
-12.4273 1.51052 4.46265 13 10 17
-1.24305 1.45853 12.3477 38 59 68
-4.52742 -3.72094 -15.3573 50 69 77
-5.95514 12.3447 -5.91757 30 31 33
-8.75305 -4.24648 -12.2021 51 77 84
-8.62966 7.74473 1.15385 31 30 31
-10.1581 4.96776 12.008 16 16 19
0.882832 -5.79187 13.1281 45 59 64
8.56168 4.72014 3.27884 61 36 4
10.622 -7.22141 -8.07864 31 30 16
9.22472 4.02875 -5.54809 74 35 6
5.93314 -2.86406 6.32098 48 64 73
6.81381 -2.89627 -6.51065 58 65 74
-13.6492 -11.3434 10.4824 27 36 43
9.89906 2.00392 -6.73302 56 56 60
-12.6103 1.96661 -5.54085 28 28 29
5.04525 -3.27005 6.45834 47 61 66
-3.74317 13.8142 -13.3615 54 58 62
-9.5945 -6.16216 -12.3914 54 71 78
2.91735 -5.615 12.8757 41 60 68
-10.3337 5.2741 -4.37523 29 34 37
-6.54565 11.3008 12.7634 31 36 39
2.01034 5.27503 -8.40343 32 14 17
-13.508 0.602597 3.29704 34 31 30
-12.5627 1.78133 -3.68968 15 19 20
3.26123 5.20742 3.61742 50 31 4
-2.6757 -6.38019 13.335 47 64 70
0.289392 -3.24949 13.0015 40 60 66
-1.99863 10.624 -13.3858 53 61 68
2.09959 -3.20738 12.8682 44 67 78
-0.741455 10.9429 0.23473 39 26 29
-11.4139 3.32331 -4.75711 20 17 21
-5.44629 2.45479 -13.459 71 40 6
4.84665 3.89424 -5.1022 73 37 1
-5.44865 10.5083 13.4635 44 59 68
-5.72585 12.5816 -11.0828 26 28 33
-8.67818 8.10581 -6.00003 33 33 35
-2.1131 12.9528 -7.13867 33 16 15
-9.58513 6.31581 -8.98466 15 15 23
-9.20371 6.22201 10.4887 23 27 30
-13.0612 -10.3924 12.0167 46 58 67
6.88271 7.18538 1.51277 51 40 24
-5.67091 -3.13848 13.0527 48 68 77
-6.42483 11.5879 -12.9556 24 26 32
-14.1836 -11.1662 -6.75377 33 43 50
-5.95451 12.0465 2.35603 23 22 25
-13.0322 -4.55807 -1.01562 51 73 82
-12.4434 1.69375 -0.936969 19 21 24
-2.29962 13.2222 9.15619 39 54 65
0.382574 11.2385 5.2548 61 73 79
5.51346 -5.13794 -9.81628 47 21 11
-0.75079 12.4074 8.98629 42 59 68
2.89993 4.34031 6.33352 25 21 19
-8.63067 -0.0472431 -14.9338 50 75 77
-12.6453 -3.64799 -12.1742 48 69 77
-9.33569 -0.559459 -12.0947 43 60 66
5.75549 -5.31817 7.585 60 78 86
7.71964 -5.74663 8.47924 45 39 38
-1.06429 11.133 -3.47147 35 19 20
-7.70369 9.34438 7.16761 26 23 28
6.032 -11.212 13.8086 21 36 26
-12.846 -8.99646 11.6003 44 70 79
-12.4478 -2.51099 6.51788 39 58 66
0.106832 2.79037 12.2307 31 58 69
-4.30578 1.75503 -14.3115 58 41 17
-8.7037 0.0748539 -12.0375 44 57 65
-10.3322 4.77983 3.62442 23 23 27
0.708858 3.18943 -12.115 51 70 81
5.70859 -9.98322 -16.9844 42 50 47
-1.16183 11.6969 9.43214 42 59 68
-6.71501 -11.4252 -16.4157 20 30 32
-5.60852 12.6406 -9.97279 21 23 27
9.98489 3.03859 -0.0352659 70 45 18
-8.46515 8.29667 -4.10625 28 29 33
1.73185 6.59885 7.47993 38 35 36
-5.72634 4.95674 -11.7917 47 66 75
2.66022 4.02025 -8.66013 32 15 15
-2.05937 13.0436 2.99313 37 27 30
8.16719 3.08963 6.40376 52 35 5
10.0079 3.06052 2.14663 69 48 18
-8.62565 7.76216 2.244 22 21 25
3.27862 -2.58454 13.0508 45 61 69
-6.7861 11.1366 -11.5006 28 32 33
-4.99764 13.641 -1.76259 26 30 32
7.35766 2.07694 -7.39315 76 44 5
6.47437 -2.08195 6.37443 51 63 70
7.73646 -5.82794 10.5886 19 38 32
2.56005 4.92366 13.1808 26 24 27
-3.53801 -10.5345 -15.8912 43 52 59
-11.3068 3.63866 1.12289 34 36 40
-12.9199 0.991184 -4.94148 17 16 21
11.7027 -11.4577 1.48328 44 46 45
-8.79671 -7.4944 -13.8202 60 71 75
-2.083 12.5467 -8.24677 36 15 19
8.85918 -1.75077 5.06283 60 72 79
-2.89229 15.6816 5.25806 72 87 97
-11.0072 3.97216 -7.95696 22 27 27
-8.92223 7.06819 -10.9768 33 32 33
-0.445689 12.0108 9.0159 43 61 68
-7.53703 -0.920777 -15.5366 51 66 70
-8.03103 1.61717 -14.533 58 50 26
-13.9102 -11.2951 4.06566 25 43 46
-7.54418 9.56434 8.86325 20 19 23
-1.83646 -2.41599 12.8538 43 62 70
11.4995 -10.1368 1.57847 44 42 44
-10.4538 5.07793 -7.01661 21 18 23
-0.143466 4.49045 -11.9799 56 67 75
-0.0660686 -10.4276 -16.681 30 38 28
-10.5141 4.73598 -1.8063 22 22 26
11.3349 -9.48561 -3.58718 42 38 39
-12.7534 -5.40911 5.93721 43 62 72
-4.87382 13.4037 10.9549 15 18 20
-2.47331 13.3696 -7.64516 27 5 7
8.95925 -4.87612 5.96946 51 61 72
-6.84942 10.7446 5.67505 24 22 24
-12.7137 1.33322 -6.91848 19 22 26
-8.89029 1.03145 -11.7921 45 70 83
1.35954 4.193 12.9889 31 48 58
9.79663 3.5932 2.58307 58 39 7
-12.0465 -1.5034 12.5705 45 66 74
-3.77133 12.5744 -13.3613 52 59 66
2.31337 5.48038 8.47072 29 26 28
-13.2935 -7.41461 -5.34403 57 81 93
-10.1416 -1.35112 -12.1196 43 64 73
-9.2698 6.93326 8.72585 23 31 38
0.354524 9.47742 13.0238 40 44 47
6.7034 -3.56985 6.25407 47 62 71
-12.9299 -5.50152 1.23192 50 65 74
-13.0421 -5.62101 1.68304 52 67 74
-5.53692 -8.60554 13.3873 47 65 75
-13.1042 1.00645 -5.26024 19 16 21
-9.506 -1.95815 12.987 54 73 79
11.6501 -11.1236 3.46635 42 40 35
-4.26333 14.7136 9.60952 32 39 43
-8.03918 -0.0576248 12.756 50 70 78
-11.5966 2.88326 -9.79603 16 20 22
-5.4538 -10.1595 -15.9516 47 63 69
-12.2966 -8.37454 -12.4196 50 75 82
-13.2794 -11.3895 -12.753 27 41 43
-8.15848 2.61782 -12.331 49 65 70
-5.1092 13.0241 -6.23835 25 24 28
1.05298 7.63619 1.62655 32 28 28
-13.4742 -10.0367 8.52804 58 71 78
-6.21498 12.0769 -11.4731 30 30 33
6.68044 -4.78301 6.37263 45 56 63
8.88994 -2.73865 -2.88242 52 48 56
-5.64463 12.6628 -10.2975 20 23 27
2.09198 6.70599 1.86101 22 17 22
-9.19825 6.88526 -0.702734 30 30 33
-6.82436 11.0202 -2.93644 30 35 36
-5.54911 12.4717 -13.2522 49 54 58
-14.3113 -11.0992 -8.8746 30 45 49
7.76607 -5.48765 7.23764 32 53 58
8.11194 -2.00951 2.0291 38 23 27
-11.3339 3.1474 -0.360269 18 16 19
-10.2776 -9.61978 -12.5735 52 73 84
-8.07039 -1.98674 -13.4176 58 71 77
-12.7571 -0.604508 -8.3555 40 63 71
-12.0074 1.79482 10.3653 9 8 15
-0.807304 10.8964 3.79376 34 20 19
-12.8473 -3.28946 0.0170736 51 69 78
2.91863 3.59568 -11.0909 29 13 17
3.8919 6.20394 2.58928 66 37 2
-12.14 -2.12978 11.8451 39 62 71
-0.209066 -7.38547 -16.0409 25 33 23
-9.60391 -7.8649 -12.4838 53 73 80
0.499975 14.8335 6.21535 62 73 80
0.609206 8.71856 6.44434 40 37 41
1.9359 4.97939 -12.018 33 22 27
11.0243 -9.27975 -8.2396 41 39 27
-5.18626 10.1865 13.0795 40 58 65
-11.4899 3.48779 -7.07641 33 33 37
-7.02175 8.52138 -13.094 52 56 61
-7.32079 9.29312 -13.3496 53 59 64
11.9697 -12.3072 1.42776 27 19 19
8.69367 -7.10729 -1.85804 33 15 16
-4.31592 5.53685 12.2348 46 68 78
4.63257 7.09151 -2.49409 75 43 15
-5.0726 13.7095 -6.86863 33 37 39
-10.3443 0.333029 -12.0336 47 58 65
-12.8714 -4.57859 -0.122898 43 69 80
-11.2625 3.24111 3.75918 18 14 21
-9.84156 6.29873 -9.97696 31 33 36
11.7587 -12.0148 3.81836 29 24 25
-7.72062 8.99909 6.47651 19 21 24
-12.494 2.1514 -8.73218 25 27 30
2.80007 3.99032 6.63545 17 15 21
-1.20901 11.0003 -12.223 33 17 19
-12.769 -1.6793 -4.76559 56 66 72
-10.6095 -3.01586 12.9656 52 72 83
-4.29283 -11.0214 13.8536 44 55 61
9.44254 3.74469 4.16136 64 39 1
-8.93305 7.1151 13.5073 25 29 31
4.05141 -4.58728 9.23214 46 44 54
-9.38044 -10.8385 -15.3213 22 31 32
-9.33843 -9.27676 13.8578 51 71 81
-4.81544 13.6093 9.12971 18 18 22
8.2872 5.10827 0.531069 73 42 4
12.0027 -12.2547 3.54701 20 10 19
-9.17245 6.67157 13.2544 24 28 29
9.12279 3.94164 -5.90836 73 35 3
1.88311 6.27419 2.69216 22 22 19
6.72139 -5.2263 -8.94962 35 26 15
-0.724701 4.94788 -11.7672 49 63 73
10.5587 -7.07235 10.2427 21 41 28
0.325981 12.0095 7.18187 56 72 80
3.72505 -6.77047 13.0025 15 32 24
4.30225 -3.92512 7.08485 51 66 71
7.44537 6.18314 -0.673182 64 38 12
-7.03547 8.80282 13.8344 41 55 64
-12.7382 -2.82099 -2.80982 51 70 78
11.6273 -11.5616 -2.60696 40 34 36
-3.60962 3.82825 -11.9815 46 57 63
7.21354 -6.15487 -13.8058 28 36 34
-12.7029 -3.76597 -1.3364 50 74 81
2.8765 4.25166 6.84225 30 29 32
-13.2189 -5.1257 -9.24124 52 75 83
-7.47262 9.80156 6.25647 26 29 33
4.60829 1.03204 -9.64594 30 7 9
-7.93889 8.39558 -9.31098 23 23 27
-3.09544 16.5526 5.18412 67 78 81
8.92806 -7.20268 12.6334 12 26 14
9.2319 -7.25391 1.53674 41 12 14
3.87638 -3.01106 9.02869 65 82 88
-6.37408 11.3785 -0.568858 26 31 34
-7.52701 8.92246 10.0637 19 20 25
-0.0853043 7.94252 -13.4796 49 56 63
-0.925959 10.9113 11.75 32 28 34
11.2559 -11.9178 -8.03651 23 0 5
-12.7551 -3.25983 1.91803 45 66 75
1.69432 -7.6829 13.0703 36 57 64
-8.33393 2.92536 12.6826 44 63 71
-0.971765 11.5066 -2.80404 45 28 29
11.3298 -10.7399 -5.8919 45 52 41
3.53841 6.50768 -2.86957 63 36 9
0.078229 9.3035 -1.54363 41 18 21
2.97123 2.61863 13.7755 36 54 62
11.4796 -10.2303 0.134373 45 40 42
1.80725 6.13165 -5.59606 40 22 24
-8.14018 1.27817 -12.709 27 42 47
-12.1545 1.58734 9.41864 12 13 17
-0.142137 9.91713 10.7296 35 36 42
3.79167 1.94253 -7.18846 35 11 14
1.68761 4.29294 -13.4441 54 60 64
-0.802747 9.08212 13.1158 28 44 51
-11.9044 2.34958 -7.5275 10 10 17
-8.45714 -4.42656 -12.5587 53 72 77
-8.76078 -8.56368 -15.6268 55 70 76
-13.5958 -11.3365 11.4023 26 31 40
-9.81919 -7.61834 -12.4923 54 71 76
11.3409 -8.48341 3.20915 41 36 35
-3.11266 -10.4775 -15.7893 44 56 63
-8.69824 8.14762 -4.29459 29 30 34
4.16731 -1.93852 10.9886 47 50 57
6.99516 -1.80369 -6.10464 58 67 79
-5.91896 -1.93972 12.7212 47 68 76
-8.17164 -3.01751 -13.3813 55 72 79
6.14602 7.78997 0.434982 72 42 5
3.5627 3.35227 4.8312 67 39 8
-0.284702 -6.84618 -15.3369 33 40 29
1.60842 8.1548 0.413705 25 20 16
11.5762 -11.1169 1.9945 42 39 37
-11.4389 -9.78423 -12.5287 52 71 81
-8.57512 -3.98223 -12.25 53 77 85
-12.119 2.36992 1.4875 23 25 31
-6.98323 10.0359 3.17841 26 27 29
2.24163 -10.2706 -16.9514 26 37 25
-1.5792 16.744 9.21392 45 66 68
-2.93051 10.5548 12.3576 40 63 72
-12.1986 1.78833 4.5507 11 11 15
9.05444 -5.3346 -5.59511 54 59 65
-0.0944967 -4.20532 12.8762 40 63 70
-6.45347 -0.407928 -16.0472 58 45 20
-2.92408 -7.83138 13.461 45 64 71
8.54985 -3.65394 -2.28954 28 4 8
2.45835 4.20355 -11.8221 31 18 17
-8.50977 -5.20279 -12.914 56 73 76
10.5855 -10.0878 -11.7697 36 45 29
-11.5342 2.99962 -5.2696 23 22 23
-3.91461 -11.6581 -16.3753 17 26 28
-8.58454 -3.88373 -15.1567 56 75 80
-7.22074 -0.202636 -15.9884 65 48 20
8.90709 -2.24233 -5.75681 62 58 72
-0.391059 14.011 5.14752 70 80 86
-12.9672 -7.66006 10.545 52 72 81
-8.9331 1.98136 -12.0241 45 63 72
-9.27473 -10.1093 -13.2051 49 69 76
-1.5932 12.3072 5.02788 72 75 86
6.57804 -5.41189 7.01518 49 60 65
-2.85279 -0.280846 -15.8467 79 43 6
-12.8761 -4.55783 -10.718 53 75 83
3.49484 2.13585 -13.6634 46 52 54
-5.25016 13.2226 -10.5688 32 32 34
4.63723 8.50358 0.509101 70 41 7
-0.281809 8.77733 -10.1376 33 27 28
-4.41921 10.0237 -12.2459 49 55 60
-8.05348 8.59166 -2.67782 25 26 28
-0.391189 9.65642 -11.9933 28 21 21
0.337781 9.65408 6.30224 44 36 44
-1.47114 11.8808 -10.6112 43 33 34
1.79123 6.59776 2.72728 29 34 35
-12.7669 -2.86027 -7.61433 56 72 79
7.8312 -6.67934 11.4996 7 29 19
9.97717 2.30454 6.47288 69 56 32
-12.4956 1.82504 -3.13043 18 16 20
-12.0267 2.2818 -10.299 17 15 18
-7.34089 4.37985 12.6247 45 62 67
9.89526 -5.99302 7.19851 25 43 35
-5.91815 5.53888 12.4573 46 61 66
8.46449 -2.24416 -6.29025 61 65 73
-9.63086 6.5219 -9.5037 26 32 34
-12.0733 -1.89212 11.3613 41 63 74
0.781511 -6.76432 13.0015 37 60 70
-12.4806 -6.65693 11.2419 50 73 85
-9.32407 0.00958824 12.701 48 65 72
11.1749 -8.19982 1.64203 46 37 38
-0.305887 -1.59558 12.7536 43 58 65
-1.40469 11.7206 10.5835 28 32 35
-8.90215 7.28165 -3.26488 32 31 32
2.18976 -4.37662 -12.4443 27 27 20
1.85522 -4.70598 -12.6864 37 42 37
-7.39882 -0.46567 -15.9168 55 59 49
-2.05271 13.1081 -3.01028 34 18 16
-7.71777 9.55766 -0.453335 29 36 37
4.61511 1.21381 8.14084 10 8 13
2.63454 -10.167 13.499 32 54 59
-0.618281 -1.09752 12.7334 43 59 66
-6.11871 11.6419 -3.49847 26 27 30
-0.409611 10.6902 13.5882 31 39 41
9.46348 1.92063 -7.51133 73 47 12
-2.50584 13.672 0.524275 31 18 20
-8.91886 7.11156 -10.5542 40 33 37
-2.66948 14.1395 0.764441 35 21 24
4.16736 -6.00609 12.0056 12 30 21
-1.84371 17.4489 7.84408 44 55 60
8.94366 -3.12102 3.38541 60 59 67
-1.63691 12.7348 2.97839 41 30 31
5.09904 -8.21706 12.7057 12 28 20
-13.4983 -7.47656 -7.60083 58 80 96
-12.9997 -10.4921 12.3087 47 54 61
-0.173153 0.501338 -14.0339 62 62 59
-9.17013 -9.55908 -13.1767 56 68 78
-1.3947 8.92533 12.4715 37 55 66
2.51696 5.00359 8.2423 25 23 25
-6.02138 11.6484 9.90296 16 19 22
10.4419 -6.39217 6.58753 32 42 35
8.27585 -5.63137 -9.48207 17 12 0
-6.83293 6.55511 12.7399 43 60 66
-9.30929 -3.62092 -12.2108 57 67 80
4.9178 2.02727 6.31688 35 19 10
-1.62288 12.2204 -0.310692 38 17 20
1.27772 6.26246 -13.38 40 43 48
11.6958 -11.8549 -1.38599 41 25 27
-13.2197 -7.95999 6.55879 48 69 78
-6.61754 10.7936 12.7358 15 16 23
-10.8859 4.18009 11.3665 30 32 38
3.86529 -9.00218 -17.0455 24 33 16
-12.8265 -2.67985 -7.20014 58 74 79
-13.4548 -7.24783 -10.917 49 75 85
-7.14754 9.90707 9.37094 15 16 20
-14.1115 -10.6734 -9.67578 29 43 51
0.242691 10.9611 5.07143 59 70 76
-3.66279 16.0769 5.68297 44 63 77
10.9067 -8.86444 -9.1966 45 46 37
-9.37031 6.71513 3.63941 34 33 36
-4.75123 -4.79763 -15.6375 53 63 68
4.21678 -5.07466 -11.2146 22 26 10
1.96374 -8.47623 -16.6691 21 23 9
-1.67488 12.5482 1.18758 45 23 26
8.57708 -6.15471 -1.36296 36 31 24
-13.3705 -7.15798 -6.152 53 77 86
-13.6725 -9.51077 -2.55766 54 75 86
-7.53188 9.90474 -12.3519 23 23 26
8.33865 5.16938 3.11074 66 43 13
6.61265 -6.45447 11.8392 13 26 20
4.43332 -8.09876 13.2382 27 46 38
5.74943 5.94638 -3.80496 66 36 9
-13.9739 -11.3157 -1.73903 21 35 41
4.1035 -5.98543 12.4716 20 40 34
-2.4476 13.3808 3.67458 55 51 57
7.02134 6.60909 2.35711 50 33 9
3.07847 -0.456952 -12.6329 58 66 74
-13.7307 -9.5701 -0.807225 56 74 83
-1.74475 -9.22312 -15.8701 26 34 27
-3.98746 14.7369 2.63228 22 20 22
4.35327 -7.86983 -16.4003 24 30 22
-12.249 2.22589 -3.29304 21 21 25
9.58065 3.73991 -0.438634 66 38 7
4.35521 2.10322 9.91718 32 28 33
-9.93108 -5.64726 -12.2928 52 74 82
-3.2521 15.6497 5.2832 68 76 92
0.580961 -6.61116 -15.6489 35 40 32
4.29379 6.94047 -2.48486 79 39 1
8.45196 -5.07877 -8.26677 45 49 39
9.45761 1.12863 -6.76865 51 49 55
-0.659879 1.88636 -14.1743 67 43 26
-9.78476 5.55058 -10.6621 35 46 50
-3.64774 7.87225 -11.9062 53 67 73
-6.97896 10.077 10.2632 21 23 26
-3.25868 2.36075 -13.6267 54 43 20
-4.30563 10.9598 -12.6563 50 57 62
-4.8016 13.6136 -3.9608 20 22 25
10.0904 1.74343 6.35602 74 56 35
10.6305 -6.11917 -6.4053 40 40 30
-6.36193 11.4737 7.92382 22 21 25
5.68084 -8.43236 12.9945 10 26 15
-5.33449 -5.52268 -15.6521 49 66 74
6.68503 -11.1698 13.7471 18 27 18
-0.136945 1.2699 -13.5147 64 66 69
0.234675 9.5565 2.49185 40 31 34
7.69913 -0.293793 -6.18295 58 68 80
8.91308 -4.58869 6.00853 52 64 73
-13.3381 -7.53778 -4.79404 55 79 93
-5.77242 -3.959 -15.563 51 66 72
-11.0495 3.95659 8.89165 18 27 32
-12.8723 -3.36042 -12.0492 50 70 77
-10.6675 3.90181 13.8579 47 47 52
11.3415 -10.6301 -3.6471 38 46 36
-12.2736 -1.3654 11.6909 45 63 72
-5.0416 13.0182 -5.55602 22 25 28
9.51888 -6.77235 -10.4677 20 9 0
-4.93841 14.0756 -13.0516 35 32 36
-0.988731 11.0502 -1.55688 31 16 16
7.80976 -5.64091 7.67792 18 40 39
-9.86809 5.70371 -5.53831 21 24 27
11.1032 -12.1183 -9.99791 33 21 20
-7.48007 2.76163 -13.3362 58 46 25
-11.5173 2.6561 -3.56424 13 12 16
-5.25259 13.3583 -9.6842 30 29 32
-7.71221 9.43198 3.73341 27 27 31
6.11088 -8.30922 -16.3501 32 33 23
-13.679 -10.2816 2.50093 45 64 70
-2.9523 -7.29045 -15.6207 52 67 73
-12.6706 -2.49607 -11.8803 49 70 76
-3.52813 14.0345 13.8032 19 19 24
-1.30219 12.0035 -1.99281 39 23 25
-10.7386 4.09998 -3.40937 19 19 22
7.81155 -5.33596 6.86461 41 61 71
-2.76398 12.6229 13.4864 25 40 48
11.3377 -9.00042 3.01717 42 36 38
-12.7421 0.300093 11.9226 24 35 43
-1.1386 10.8465 -8.46091 34 24 23
-8.83297 -11.3388 -15.9656 22 35 37
5.14744 -7.00083 12.362 3 25 13
-9.98022 5.18198 10.8613 8 10 14
4.7572 -4.61474 -6.57001 52 60 68
-7.54383 9.01412 12.244 21 21 26
4.28943 -4.96389 -11.6166 21 17 17
3.49736 7.80311 0.788813 62 33 1
-12.6115 -1.54295 -7.79311 48 69 78
-7.40381 9.79189 5.80188 29 30 35
-12.248 1.81266 2.79091 13 16 21
1.72179 6.54455 10.35 25 30 32
-4.2677 -9.23583 -15.8201 49 61 67
1.37178 -1.64809 -12.3079 53 65 77
-2.57514 13.8333 -2.04518 35 21 20
-12.6048 1.26668 -0.776571 14 16 21
8.82229 -6.12296 -2.5799 40 22 25
-12.2429 -1.8687 9.87289 40 63 73
-12.7066 -2.31637 -4.15168 52 68 74
7.92402 -5.2665 -12.7352 35 40 28
-1.0542 12.0837 5.16447 63 70 82
7.51007 2.68893 -6.87008 78 44 9
6.0879 6.24998 -3.5445 75 40 7
8.24348 -2.30081 0.888812 38 14 15
9.25373 4.09919 4.59032 65 42 14
3.54704 2.32971 -7.61824 32 11 12
-4.82282 14.0587 0.860252 12 13 17
10.1956 -9.70001 12.0977 26 40 29
-5.80568 11.0327 -13.4212 55 62 68
9.57616 -6.61631 9.89151 8 35 21
-1.35817 11.7457 -7.05154 39 29 25
-2.48116 13.8025 1.71522 44 25 22
6.43503 -2.61337 6.3349 49 64 72
-12.3918 1.53076 0.942598 19 18 21
-11.6632 3.01674 -13.0738 41 47 52
-5.2329 7.96081 -12.0373 48 59 66
-9.23764 6.91818 -4.54356 28 28 30
-10.0437 5.43364 5.7602 30 38 41
-6.34195 -2.18021 -15.3547 48 64 71
-12.6306 -0.942071 -7.90407 48 68 80
1.24474 7.45414 -5.75016 36 23 25
4.38744 1.11004 13.8713 42 55 60
-4.53693 14.3939 5.41707 19 15 19
8.46589 -6.43915 0.229354 34 7 9
-8.24752 -0.468975 12.8556 55 72 77
-13.4258 0.806444 3.92498 27 27 26
-0.837875 11.4381 4.6052 46 44 52
-10.3353 5.2722 -3.87481 28 32 38
-4.63314 -4.78046 13.2247 48 67 77
8.47634 2.00065 -7.35641 79 43 1
0.933376 8.15859 -3.2787 47 34 42
-1.46507 11.939 2.6891 33 18 22
1.31519 7.34522 9.50976 34 38 40
-10.1913 5.23825 2.32838 30 33 36
-11.891 2.44806 -1.28844 15 13 17
7.44759 1.59829 7.13843 46 46 45
-8.72935 7.51749 -1.01135 24 26 25
-6.44508 -6.41272 13.5279 49 72 80
-3.82812 14.8031 11.0087 31 37 41
-4.98478 4.1314 12.3369 40 63 73
-10.4269 4.36737 3.79637 18 18 21
-7.66993 4.74477 12.7302 43 60 67
-8.82707 7.17218 3.45889 25 26 29
-12.9568 -3.25918 -10.9114 57 72 77
-11.076 -3.56392 13.1911 52 78 87
-13.5448 -8.3167 -1.6141 54 77 88
0.7677 -10.3293 -16.7546 33 40 26
-7.34503 -1.68067 12.9294 51 69 76
-3.83116 2.32334 -13.6785 59 43 13
8.79887 -4.64092 -3.25744 51 55 62
8.35398 4.86951 -4.74486 69 38 6
-10.5742 2.72014 -12.8984 40 51 56
10.5566 -8.14908 -0.131197 45 27 30
1.66072 7.04787 1.54749 20 17 20
-12.4328 -2.12924 0.372355 46 66 81
-7.98588 -1.40931 -14.0843 60 74 75
-6.45709 11.387 8.90626 25 28 30
-8.85733 7.18833 -9.36645 24 28 31
-13.4187 -8.61462 1.79596 48 66 77
-5.4038 12.7358 -11.7444 26 24 24
10.7819 -10.4152 -10.875 33 39 18
-8.3102 -1.6324 -12.1515 54 70 76
3.75852 2.30579 -9.50614 35 13 18
-12.3841 1.55003 1.41841 12 12 14
-13.4137 -9.59135 8.17138 53 74 82
-6.97238 3.92311 12.5858 44 63 72
-5.84175 11.7615 9.03324 20 19 23
-2.476 13.4446 1.10136 30 14 13
-4.10391 14.1285 -13.3071 52 54 56
8.15489 -2.31829 -2.23799 52 40 49
-7.75894 9.63025 -10.2769 30 34 36
6.31721 7.45666 0.0598114 64 34 0
-13.3563 -6.29698 -6.3853 55 76 86
4.12332 2.30542 11.2496 27 22 28
-8.1832 5.42557 13.5554 46 60 64
-13.3357 -9.71662 9.37076 53 75 86
-3.00745 14.078 -8.39828 35 12 16
-11.119 3.921 -11.3793 23 25 30
-5.7595 2.51382 -13.4991 56 37 16
-0.176457 -1.33621 -15.5529 57 59 62
4.4674 -4.69557 -10.0834 23 18 5
-14.1623 -10.7035 -7.45561 31 44 46
11.3486 -8.44772 1.6292 46 41 40
4.21301 2.27676 12.611 26 25 29
-6.95848 2.86124 -13.174 57 40 19
-7.72909 9.45962 4.47618 28 31 34
-9.50383 5.94321 2.60144 17 15 21
1.80983 -4.89514 -13.6184 31 39 32
-3.30655 0.871057 -14.8793 60 34 5
2.30168 5.15228 7.22105 22 17 20
-13.7908 -11.1212 6.33581 27 44 47
9.15763 4.13342 -2.45822 65 39 13
-3.81307 0.489382 12.7451 44 61 69
-11.8431 2.71519 -12.9683 27 34 41
-0.0919895 1.77059 -13.3654 65 74 79
-12.9843 0.57674 11.5176 20 20 28
-12.9133 -7.02949 10.3618 50 68 75
-5.00314 11.1507 -13.0639 52 60 60
2.55617 3.13659 13.7504 37 54 63
-4.5632 14.4775 -9.28697 18 17 28
0.339578 15.8978 6.84862 61 80 88
-8.34686 8.34145 4.39343 28 33 37
-13.3779 -6.86462 -7.03916 51 76 87
-0.455021 2.14844 -13.8061 57 50 42
-6.71888 -10.6152 -16.019 32 39 48
6.40097 4.31538 -5.13647 77 35 0
-4.99712 12.9281 -2.05158 22 23 27
-0.708633 -2.89464 12.7321 41 63 70
-13.0722 0.852399 -4.75493 11 11 17
-13.2007 -10.428 10.7213 53 64 71
-2.66131 14.5853 11.7985 30 31 33
9.97365 -5.46786 -5.27565 54 56 63
-0.363462 5.7773 -12.1699 50 62 70
-8.70709 -6.71389 -13.5747 60 74 78
1.47676 6.98754 -5.85515 38 21 24
-12.7126 -1.18558 -1.79645 51 66 72
-13.5046 -7.97978 -7.56307 56 81 92
-13.1438 -4.47099 -8.50585 57 78 84
-7.90392 9.0872 -1.47855 30 35 37
-11.2165 3.29661 6.55398 25 26 28
6.94749 6.74426 0.387251 74 40 0
-11.5097 3.14194 -5.8216 25 26 26
2.80958 3.789 -8.40262 32 13 14
-12.8337 1.28457 -11.825 15 13 22
-12.7363 -2.28114 -9.59093 55 73 78
1.07341 7.04475 -12.8268 38 35 39
-1.5148 5.86256 12.3154 41 56 66
-0.809561 9.52038 13.4667 30 43 51
-10.6985 4.08841 9.65365 15 18 25
5.88129 6.3926 2.58751 60 34 2
0.174823 9.7828 -1.08614 41 30 35
10.9772 -8.00113 8.69832 29 45 36
-10.2465 4.58228 6.38134 20 22 24
4.19827 -2.44718 -11.1664 55 58 66
-13.1345 -7.58636 7.57469 49 70 80
-0.650566 10.6892 10.0814 26 33 37
-7.98762 -0.766174 -15.577 50 64 71
1.7156 6.21769 -9.86057 37 27 30
5.21218 7.2337 1.82984 49 41 31
-13.6115 -8.49506 -4.62659 58 81 89
-9.92673 -9.33961 13.8439 48 69 78
-1.18983 5.20166 -11.8713 49 60 70
-12.847 -1.40286 -11.2087 52 67 74
1.4725 6.3469 -9.51318 32 17 19
8.71917 -5.24262 -6.40898 50 51 56
4.12376 2.12679 -11.373 40 27 28
-12.7049 -1.12852 2.17203 42 60 68
-13.1944 -6.51068 -0.354373 52 74 86
-14.01 -10.828 -4.62079 33 43 48
-10.5788 4.76935 -2.8013 29 28 31
-1.78605 -10.1507 -15.8978 39 50 50
3.705 -7.53702 -15.8921 22 22 9
-13.336 -7.69747 -0.8466 49 72 80
-12.7412 1.57329 -11.9998 23 17 24
9.47043 -6.45013 -9.84477 24 14 6
-0.179573 -1.15193 -15.7929 59 57 59
-1.12663 -0.0163026 -15.8184 67 40 6
0.412896 -7.96776 13.4714 35 61 71
-1.45466 -7.14291 13.1227 45 65 72
-1.50051 12.7684 13.4409 43 47 51
-0.588825 15.7555 9.17456 49 67 70
-7.97436 8.75952 -2.29309 22 22 24
-9.44363 -2.62526 -12.128 48 68 79
3.09582 4.24748 9.60919 42 39 38
3.808 1.02124 13.7367 35 49 55
-2.34359 13.2308 -8.40194 30 11 14
-12.6512 -4.63491 -12.2499 51 69 74
-8.59051 7.39924 13.8171 38 43 44
4.49551 1.92748 9.48764 29 31 32
-3.62475 14.7773 -3.37995 34 25 26
-9.25308 0.297153 -11.9887 45 64 72
0.0719433 9.84753 -0.596967 39 25 29
3.48447 2.76817 -11.3007 33 17 18
10.8456 -11.1619 -10.3929 43 51 36
-12.8987 1.00569 6.21277 19 22 27
-11.7042 2.38172 7.9219 11 10 15
-6.81765 1.2909 -14.6952 58 44 18
8.7985 -7.13871 -0.360237 38 5 10
-4.95551 12.8266 -1.09177 25 24 30
-7.67176 9.73291 -7.03311 31 34 36
-9.71106 5.6678 13.8043 36 43 47
-12.7617 -0.963861 -7.08828 51 66 72
4.2397 -1.40121 8.99834 48 54 58
-1.6513 12.3374 2.60927 38 21 26
-5.74883 12.2002 8.26055 24 22 26
-2.33173 -5.31192 13.0538 43 65 76
-0.210952 0.121681 -12.3875 54 58 64
-0.227407 10.2535 2.24326 65 53 54
6.80086 -6.39029 -14.7517 36 41 31
1.63357 -7.40812 13.1078 37 56 64
-9.53671 6.42245 2.88184 30 29 32
-13.6011 -10.5311 4.43546 53 64 72
-5.19184 13.5671 -8.5992 25 27 32
-4.89253 1.47117 12.5441 44 66 76
-7.58418 2.5247 12.5824 44 65 77
6.20949 7.65611 -0.376904 73 38 7
-9.45349 4.47983 13.9393 49 62 64
2.37215 -1.2562 12.8797 39 57 67
-1.27882 11.95 12.1226 35 36 35
-7.02022 -9.9558 13.8322 48 68 78
-4.41166 13.6724 -13.3959 51 50 58
4.26181 -1.30454 12.7656 53 71 79
8.20433 -11.5408 -15.4679 19 9 5
-12.5521 -1.18425 5.0344 43 57 64
-0.548101 4.17757 -12.0974 55 60 67
-12.8493 -0.585166 -9.65111 48 62 68
-12.4963 -1.82874 3.08823 42 62 70
5.38333 -2.92935 6.34562 49 65 72
-2.62923 13.902 -5.46022 32 15 17
7.28049 0.00878048 -6.35647 48 56 69
-11.4966 3.70917 -11.5156 28 30 34
-3.77009 16.6015 6.46084 44 64 69
-6.08693 2.92061 12.6508 39 63 75
-13.2284 -5.2131 -10.0973 50 74 83
-0.0436597 2.65632 -12.5416 51 56 67
-8.00878 8.61776 0.205231 26 27 33
4.5458 1.23742 8.64758 18 16 22
-5.92746 3.46047 -12.6361 57 46 29
5.2249 5.68242 3.64426 60 41 14
-2.52727 13.5651 -2.44904 35 23 22
-12.8937 -0.298954 -0.576528 31 49 56
-10.2883 4.45417 9.53238 15 18 20
-2.21707 1.28906 12.6547 44 63 73
9.54649 -5.59514 5.40998 60 69 72
-0.736639 10.6289 -9.6286 44 35 35
-8.9608 1.35776 12.8133 51 64 70
-12.3866 -2.37502 6.21823 38 58 69
-1.28255 11.0789 -11.2459 28 13 14
-0.305393 10.1621 -0.431458 37 11 12
-12.7601 -0.891146 -10.3858 46 64 73
-6.72917 10.9679 0.130936 27 30 34
-5.28249 -1.7967 12.6418 47 71 80
-6.17739 -0.00305939 12.7619 48 67 78
-11.5102 3.31599 -6.32385 20 21 23
-13.2031 -5.92753 -0.318318 47 73 83
-4.69279 14.2554 5.85037 19 17 23
-1.33302 11.0453 13.6381 36 43 50
-13.0444 -8.26285 7.95831 46 69 79
0.354923 8.8858 -1.89352 39 19 20
-12.8109 1.18865 10.2421 15 21 25
11.0016 -9.47738 -7.43454 34 34 19
-3.49272 -7.17916 -15.6103 49 63 71
4.13675 -2.8542 10.054 43 64 72
-6.71275 10.7856 3.73897 18 21 23
-1.40831 15.5455 5.22391 71 81 87
3.85905 -2.67169 12.9978 57 67 74
1.33699 7.23283 3.06092 34 32 35
-5.15391 12.8922 7.70117 19 18 23
4.64973 -5.54844 11.0336 46 65 72
5.99461 -0.016386 -6.43118 51 56 66
-2.50597 10.8033 12.5 39 60 70
3.10382 3.55021 -9.85931 35 20 23
-2.53627 -2.75843 -15.3943 55 66 77
6.55477 -5.30781 -9.40821 21 25 15
-12.8415 -3.54602 -7.43112 52 73 80
-1.32064 11.5074 -11.0599 46 31 32
-4.45617 -6.50819 -15.5482 48 65 75
2.27181 5.06291 12.7135 27 25 26
-2.15342 2.84734 -13.1356 57 45 28
10.5135 -10.6119 -11.8774 39 49 39
-9.91132 5.56477 4.25327 25 30 33
1.34908 5.08203 -13.4568 54 59 64
-3.21248 8.50622 -12.0783 58 60 64
11.011 -9.70034 -8.7219 37 42 29
-7.47229 9.67653 13.2934 27 27 30
-6.30749 11.397 5.87719 22 26 32
-11.6884 -4.70732 -12.3491 49 72 79
0.365111 7.48605 -13.3239 48 50 54
-8.29647 8.18154 3.54236 16 15 21
9.05666 4.44051 -3.8472 71 39 13
8.61975 0.166509 -6.38138 56 66 76
-13.8405 -9.99368 -4.22715 60 78 84
4.43095 6.82694 2.2819 53 35 13
6.80897 -5.76597 10.627 8 31 22
0.413474 10.6723 6.04253 50 54 56
1.47609 7.29799 -4.19034 38 27 29
3.76819 2.13718 -13.5477 43 41 44
-9.37509 6.43286 8.78522 27 28 32
-8.69548 -8.18175 13.7141 52 71 79
-12.6327 1.92635 -2.34607 21 25 28
-0.784583 0.942408 -15.013 65 35 5
3.52586 2.38799 -9.06322 35 14 18
-3.45181 16.8559 9.19797 46 66 67
0.170732 8.57487 -10.6664 40 29 32
3.20185 -3.49685 -12.6995 55 56 62
-8.60925 8.04132 -10.0395 33 33 35
-12.9083 -3.78947 -4.41702 55 72 77
-8.96916 -9.02822 -14.3714 55 73 79
8.29142 -3.241 0.400781 36 10 12
-12.0131 -2.2341 -12.2005 49 66 72
-13.1436 -8.45571 6.92371 52 73 82
10.7198 -7.52445 -6.87441 44 43 32
-1.89288 7.76378 -12.1052 51 64 77
-11.4481 2.81374 -6.9649 20 19 23
-13.1871 -0.156376 1.14943 32 40 45
4.72012 -11.1308 -17.1977 22 19 12
-2.78502 14.3779 -3.04128 34 12 10
-0.346424 10.6061 3.96758 38 32 39
3.85765 -3.51932 -9.75644 28 18 16
-2.86723 14.3954 -5.58775 32 7 11
-11.949 2.43713 -2.54788 19 17 24
2.75937 7.29555 1.33608 38 27 13
11.7335 -11.4714 2.57644 38 38 38
8.31452 -5.32008 -1.52212 35 10 4
-5.77288 9.75064 13.3864 42 59 66
-3.15523 14.6272 10.1959 42 51 53
-9.1054 7.03413 8.18516 22 26 31
-1.43293 11.9037 -12.4686 42 28 27
9.71366 -6.80386 -12.2149 41 43 26
1.68635 -8.18958 13.0669 38 61 71
-4.53411 6.77969 -11.9811 52 64 67
4.48926 -4.47917 10.0173 33 37 41
5.91169 6.90363 2.40044 75 43 2
-1.86829 12.1469 -13.3156 51 44 46
-12.7648 -1.28047 -4.16372 55 69 73
-10.0516 -3.89151 -12.1206 52 78 89
7.96987 1.53187 -7.78482 77 44 11
4.72227 -6.85651 12.1705 6 25 12
-13.1257 -5.87769 1.59704 50 67 74
-6.90892 8.13889 -12.7188 46 53 61
6.73424 -7.78922 -15.8295 34 36 22
-13.8375 -11.2139 5.00357 25 41 46
-2.24708 11.7901 -13.4509 52 59 64
-2.37715 13.3051 2.54897 34 21 26
8.8225 4.67423 1.24279 65 34 0
-12.7352 -3.01017 -8.86279 52 73 82
-13.2232 -4.70676 -7.12765 51 74 82
-8.13243 8.43363 9.95814 28 31 35
-0.643154 9.80628 -9.69994 32 16 19
-6.4169 11.3851 0.333234 31 35 39
0.344878 9.34734 9.38651 45 53 55
-1.42771 11.7201 -9.79828 43 33 35
-13.9508 -11.2912 3.48582 30 41 46
-10.6452 4.98588 -6.14332 35 35 37
4.28129 1.26344 -10.0781 26 7 6
9.08039 -5.94738 -7.77643 22 23 12
-3.4603 11.3986 -12.8371 44 59 67
-5.66762 -1.7508 -15.3373 51 69 74
-2.50676 -5.07914 -15.5565 51 68 74
-12.7374 -0.812242 -4.32118 51 66 76
-12.7835 -2.67986 -10.8514 55 71 79
-7.36895 8.34007 13.8703 37 59 62
-5.49222 7.12063 -11.8312 39 59 70
8.43824 -4.64436 1.99247 37 19 19
-7.02085 10.1189 -2.74109 16 16 21
-14.1101 -10.6539 -7.16891 32 43 46
-13.439 -7.13345 -6.99839 54 77 87
6.25589 -1.9643 -6.17942 56 68 79
-3.7545 16.3471 8.38484 48 64 71
1.90577 5.92405 -10.3164 40 29 34
-12.5314 1.19384 2.39024 11 13 20
-8.20642 -2.66018 -14.0814 59 75 80
-6.36645 6.2594 -11.992 47 56 67
-5.08615 12.9498 6.73401 19 23 28
4.17074 -0.515213 -10.5817 52 51 58
1.91688 -9.3444 -16.9406 19 30 15
-0.508168 14.5144 5.14922 70 79 85
0.176987 16.7072 8.14433 55 71 76
4.19094 -4.34945 8.13071 45 63 68
-13.3689 -7.86534 0.634785 48 67 74
3.03278 -5.23026 -14.0614 27 27 17
-7.10171 -4.27475 -15.3811 51 71 78
-3.25897 3.3378 12.2755 38 63 74
-9.73292 5.64465 9.79669 20 23 27
11.057 -10.7863 -8.26144 45 53 49
4.20843 2.31063 13.0948 25 24 29
-5.96405 1.33993 12.6369 46 64 75
3.79709 3.07701 5.83392 60 32 1
4.03605 -4.69361 12.8384 60 73 79
4.3289 -1.73512 11.2909 57 64 69
-4.06691 11.9164 13.0697 38 57 69
-4.11917 10.5578 -12.3651 51 54 59
0.333593 16.6584 6.44739 63 72 76
-4.45048 3.19844 12.6064 43 65 76
5.38082 -5.59222 10.8474 29 49 53
10.1953 -7.02596 -9.70615 34 32 19
4.34337 -4.10135 -9.83077 38 27 32
-13.6775 -11.0034 7.23813 26 40 45
-8.4132 -0.931028 12.7918 49 70 79
-6.33001 11.3218 13.6125 37 43 47
-6.98107 10.0358 3.72591 22 23 27
8.54955 4.822 1.29339 68 37 6
-0.363684 3.34127 -12.5041 54 59 68
-2.39568 13.3356 -7.09087 31 14 13
-10.961 3.45874 13.4306 20 22 24
8.36862 -5.10359 0.29812 32 7 8
1.62968 5.90094 13.7022 34 44 46
-2.13534 5.18141 -11.9109 49 61 70
9.38509 3.83398 -6.02561 70 38 0
-7.11382 10.805 -12.1706 34 39 41
-5.31943 12.8787 -13.1143 32 33 40
11.4577 -10.0759 2.01208 46 42 45
-5.43473 12.7709 -12.7928 20 21 24
-0.629371 1.69379 -14.3717 65 43 13
-8.97726 -1.63581 12.9206 51 70 77
-11.2844 3.37855 5.11651 14 18 22
2.14681 -2.36058 12.61 34 61 72
-4.45169 2.62612 12.6554 43 64 75
-0.542791 0.286776 12.469 38 60 70
8.7573 -3.01424 4.1559 56 64 74
5.87994 -2.76115 -6.48352 56 62 71
-9.84945 6.14268 -5.30449 31 31 32
-12.6473 1.19408 -4.61342 19 18 25
-12.9169 -6.86265 -12.4805 56 71 77
0.407247 11.5247 5.90125 60 73 79
-3.15144 14.3501 -10.5966 27 13 11
-5.9361 -11.0454 -16.3022 19 28 35
-0.188893 3.89541 12.3943 38 52 60
-13.0658 -11.5523 13.0141 15 24 29
3.51749 -0.206677 -12.7998 59 59 64
-6.91197 10.1596 2.25576 17 14 17
3.84999 3.08741 -5.84766 82 46 2
6.69905 -10.1616 13.6788 5 23 10
2.10122 5.75772 -5.61129 40 25 30
-0.714484 10.3287 -13.3129 39 34 35
-5.37342 2.20593 -13.6548 73 42 9
1.55842 7.2056 12.7856 33 36 41
-12.9949 -7.24609 9.32895 49 68 75
