ply
format ascii 1.0
comment Created by Open3D
element vertex 1410
property double x
property double y
property double z
property uchar red
property uchar green
property uchar blue
end_header
5.33156 13.7172 12.5156 43 46 50
13.967 27.8152 2.04128 17 22 24
-45.1691 9.76791 -3.09094 80 89 93
27.7505 -4.26237 7.0627 45 51 55
-35.271 -9.89853 -4.44992 23 33 30
30.8042 -3.00606 5.74131 20 17 22
-33.6554 -11.7059 7.5495 26 33 37
39.8692 -4.3832 3.20262 42 47 52
-8.60538 9.30219 10.7471 43 51 54
-14.5297 17.3738 -4.74696 72 78 87
33.3025 -5.02834 3.9092 0 0 2
-8.89213 8.96174 11.437 39 43 47
16.3892 20.3043 -3.91225 7 10 18
6.48061 14.4385 -10.6424 28 42 50
22.181 -4.18056 -10.0397 14 21 27
3.17023 25.4688 -4.84443 55 60 72
33.6224 9.59903 -3.43664 90 92 92
-12.6462 19.4023 5.53288 53 54 60
30.9927 8.06796 7.9777 45 50 54
23.8373 2.50392 -11.6932 108 105 102
-18.2835 -5.95076 -11.6602 122 124 72
0.334413 25.4513 7.63232 35 41 43
-33.4087 12.1186 6.54163 49 53 56
29.3182 15.4442 0.714792 31 35 38
-33.4626 -7.69688 6.63437 44 49 53
-45.1391 -11.4832 -0.0269043 44 43 49
-4.91172 19.2348 -8.14236 87 85 58
-1.39563 23.8534 10.1118 57 63 69
24.8648 1.78384 -11.5874 116 128 138
31.0809 12.1739 5.61553 27 31 34
17.497 -12.2963 6.81552 3 5 11
4.1693 20.2145 10.0562 22 25 30
8.14022 18.2025 -3.35039 48 53 55
-20.0014 15.5782 -1.81115 60 68 70
30.9612 -1.83292 6.43237 43 45 50
11.0262 25.6146 -5.01056 57 63 70
-13.0151 19.6453 -2.61789 56 62 66
-11.3329 -8.0626 12.6195 43 44 39
-1.3451 26.3042 1.29059 47 51 54
1.20382 24.019 9.39617 38 43 48
1.71099 27.3211 4.04912 52 57 61
29.0239 6.70739 -8.89869 42 49 58
-34.4658 12.1255 -3.51058 47 55 56
-20.3027 8.65324 8.25477 32 35 38
35.3911 -7.00644 -4.82651 0 1 2
-16.2229 17.2926 -0.515636 47 55 59
-39.7236 11.7889 1.97312 41 46 50
31.3618 9.48971 7.86812 54 60 61
-14.4813 14.4398 -6.71693 36 50 53
3.73798 20.627 -8.93571 10 4 12
30.9909 7.68852 7.80231 42 45 50
35.1835 1.71823 2.63962 35 39 43
-10.0096 21.6931 3.64905 50 54 58
-11.1399 11.9915 -7.39404 21 26 31
30.7873 13.6993 -3.38172 44 51 56
9.65592 12.2784 -8.19723 16 15 19
10.9564 30.8572 -1.40971 39 46 50
25.946 -1.27067 7.07197 34 39 43
-11.0607 -9.58407 13.361 44 45 28
8.56897 12.4261 11.963 40 44 48
-38.402 -11.7937 6.23269 35 39 41
-13.1105 19.6326 -2.22938 55 60 64
-22.0526 9.31908 6.77248 21 24 29
1.97309 27.1141 -3.44433 80 94 101
23.6476 18.2073 -4.84161 43 49 55
31.0014 4.60806 -6.63239 6 6 13
10.7834 31.1665 -0.524859 32 37 39
-10.6593 -7.82053 9.87882 28 28 32
37.7995 -8.54031 -4.90596 16 19 24
-2.69494 25.214 6.07205 50 53 58
9.80096 10.6942 -12.022 65 69 79
-39.967 11.3597 3.75245 39 43 47
44.7208 -12.4775 -2.70738 76 82 87
-6.3729 23.9317 -1.848 57 63 66
24.6754 17.9539 -2.87906 41 46 52
-44.1362 8.1175 -4.23863 153 161 115
6.90474 30.0206 4.83126 43 47 52
32.1689 -0.098877 -5.66485 75 82 89
3.19493 28.079 4.71687 51 55 59
-19.6949 15.8038 -0.792835 48 53 55
29.062 14.2142 -6.2683 28 33 39
-3.21099 23.2686 -8.7096 90 101 98
10.991 19.8985 1.88804 11 5 13
-14.1667 -3.81671 13.6383 51 56 48
29.1852 2.94756 -4.80979 6 5 14
-26.1054 12.1343 -1.93396 16 16 21
-11.5949 -10.0592 14.5561 79 81 52
14.8529 24.8873 1.50705 11 13 16
14.4935 27.1446 2.03243 23 22 24
33.1958 11.5055 0.516985 17 21 24
4.68761 20.7001 6.48119 4 4 6
-44.7948 10.5576 3.51902 54 59 63
-30.2505 9.86576 -7.8839 89 105 112
-43.8792 11.2814 -2.65877 51 58 56
-17.0216 -5.30439 13.3849 45 49 57
31.7118 12.8913 3.1858 31 35 39
30.3387 1.92226 -3.25462 25 27 38
27.7559 1.75418 8.30135 31 34 37
-28.8437 9.90243 10.0144 46 51 55
26.9601 15.6185 -8.12216 38 46 49
33.6828 9.93784 -2.70129 33 35 34
-14.403 9.61137 -10.5357 77 76 47
-38.4391 11.7966 -3.76477 54 63 56
21.3534 19.3138 -4.04196 40 47 50
-26.8886 11.5546 8.53247 42 45 48
-5.19073 6.27613 11.2328 35 40 44
21.9455 18.9345 -4.42823 44 48 51
33.384 -17.9513 4.85829 40 45 47
5.41225 30.8794 -1.23174 78 86 88
19.9067 20.7313 -0.174668 33 38 39
3.61701 -0.250298 10.3732 52 55 57
29.8027 14.9082 2.70161 30 33 37
31.6122 -5.48694 6.42647 42 47 47
-12.0529 20.3696 -2.25672 54 60 63
-18.2271 15.6811 -4.97256 46 63 70
-45.0237 10.4723 -0.626791 55 61 67
-10.1401 21.6947 -1.74849 53 58 62
-45.3668 9.7169 -2.89245 82 86 96
-2.21499 25.7947 -1.60771 52 57 61
3.9972 20.341 10.2218 24 26 32
6.43422 16.8384 -5.71175 26 27 28
39.772 -13.1378 -5.90021 48 55 61
31.6504 10.0788 6.77456 45 48 53
32.8743 -0.105549 5.24239 38 44 46
-27.3583 14.1075 2.02419 43 47 51
26.5543 0.807491 -8.20367 2 2 7
31.2836 -0.350254 5.57722 41 46 48
-15.3766 -4.58427 -12.7994 153 159 88
12.3329 26.4892 5.19444 22 23 29
29.9443 14.0445 -4.65361 29 37 41
-5.65743 23.4391 7.31825 53 55 61
15.7704 10.6758 -7.25288 23 30 31
31.0788 -4.1662 -6.69417 12 8 23
-37.9116 -15.2094 6.71986 45 51 54
-40.876 11.0503 -3.10729 48 57 58
37.4124 -8.31767 4.60786 28 32 35
-11.3702 20.9031 2.43234 55 58 62
-4.08818 24.6586 6.00082 50 56 59
-33.4833 12.0993 6.73255 47 52 55
1.27734 27.7983 -0.436108 59 69 71
33.9663 9.19143 -2.95981 91 98 102
-22.6773 11.3647 3.01855 22 23 26
-39.0777 -5.03854 4.03607 53 57 60
-17.4526 16.4113 -2.37653 48 54 55
20.254 20.0185 -3.5667 51 57 58
-34.9307 12.523 3.67598 42 48 51
-46.0583 9.41546 -1.54719 61 67 73
30.742 12.1748 -6.31254 12 15 17
-20.6819 13.9673 -5.57369 63 78 79
-26.2903 12.3163 -2.53008 20 23 28
25.6253 16.614 8.32162 40 45 47
14.6498 10.7983 6.29677 15 17 19
2.85965 20.2964 -10.137 48 58 57
14.2375 26.3494 -1.88025 7 6 12
13.201 22.1183 1.02692 15 16 20
34.1913 2.02895 -1.24759 4 4 12
-16.0325 -4.07941 -11.7988 121 127 67
3.62326 20.8734 10.2325 24 26 31
32.8006 -0.012825 -5.54877 87 99 101
37.8713 -2.08679 1.38446 29 31 35
-28.6129 12.1055 -4.46099 41 47 49
14.4543 25.7252 2.53832 29 33 36
24.0974 17.2581 -8.08561 20 20 26
19.606 20.2788 4.08821 35 39 40
16.224 10.6199 -9.64607 29 31 36
5.71252 17.5942 -5.80802 10 6 10
-9.17304 8.22392 -10.9942 63 77 78
30.7927 1.90462 -3.34249 27 30 40
-45.0599 10.5187 -0.24829 54 59 65
30.71 -17.5836 -6.01501 76 89 89
-13.9048 -9.37323 14.6823 58 59 41
7.24374 -0.239037 10.6746 43 48 47
27.0404 16.7976 -0.0939198 18 22 25
-16.2237 -8.27938 -13.629 134 144 106
-29.963 9.98893 9.80504 45 48 52
35.6415 -15.0446 4.63773 27 31 34
-7.2542 23.2605 -4.17514 58 62 66
30.4539 7.4087 8.14461 44 48 51
14.8783 19.1129 -5.7322 6 11 11
-18.1693 15.3675 6.90931 37 43 48
-14.9899 18.1353 3.1949 25 32 36
38.172 -8.74961 -4.83738 83 84 89
10.5021 12.1436 7.85773 22 26 28
1.53055 23.9374 9.24541 36 40 44
-9.20529 -11.4554 10.6158 29 31 29
43.4018 -10.1536 -3.41909 108 118 124
-13.6815 -6.48228 14.6756 60 59 44
9.91109 1.28448 10.6514 50 55 56
25.0976 4.82495 11.1192 49 53 57
28.9857 1.30086 4.13371 32 37 39
25.6082 17.0041 -5.12052 37 40 45
21.4465 -6.51772 8.00646 18 16 25
38.8454 -4.65186 3.41993 23 25 27
10.6616 10.9743 12.1514 39 43 47
-15.8915 14.0007 9.20464 38 43 50
4.38747 20.6405 -6.6954 9 7 20
-6.56574 -0.383789 13.8898 41 47 49
30.4126 -3.00058 -7.24427 70 71 75
-27.9682 11.3533 -6.97603 108 116 122
3.61963 21.9557 8.80997 26 30 35
18.085 20.4662 5.13394 42 46 49
22.3982 19.4252 -1.14674 34 40 43
0.841175 27.3218 2.00525 53 58 61
-14.1554 12.0632 10.7804 39 43 48
33.1157 7.19218 -4.66014 67 64 76
42.5033 -14.3678 -3.31543 91 95 102
-9.70917 -21.8239 8.87609 38 41 44
-18.0163 -7.10149 -13.2034 148 155 112
15.1978 5.44816 10.1004 41 46 48
2.15389 22.622 -8.90445 26 24 29
-45.1611 9.62048 5.61112 60 67 71
43.8412 -7.70244 2.15585 37 42 46
32.3392 -7.1786 -6.47195 15 15 20
-6.73604 7.80428 -9.00526 18 24 28
-3.65562 24.2504 8.32178 58 63 68
24.5568 18.3342 0.205896 28 32 35
5.02263 18.194 -8.77994 9 8 18
-10.9807 11.3899 9.9755 32 36 40
29.5482 13.5817 -6.49596 19 21 26
28.2971 -0.0274506 -5.75185 48 53 57
17.3603 20.7963 3.28151 45 53 54
-20.645 12.5876 -6.91295 92 104 107
-39.241 -3.16576 1.40741 27 33 36
5.85505 14.5711 12.1205 44 51 55
-32.2328 10.9885 8.78425 47 52 57
45.4094 -10.597 -0.330605 74 76 83
7.985 -4.05358 11.2485 81 78 47
-23.8109 10.4016 2.28891 33 38 41
-16.9496 13.9311 -7.93907 96 109 111
-0.554387 24.5753 9.47069 52 59 64
1.65523 23.1387 10.0912 47 52 57
-30.9344 12.1183 -4.02632 49 55 59
-12.5853 9.96556 11.7072 45 47 48
-20.8752 -4.4837 7.53451 40 45 48
-10.081 -2.01167 -13.0625 64 75 71
20.5614 -6.82235 10.1584 53 59 53
-44.1167 10.4036 6.18759 53 58 61
-36.2204 11.523 -5.39352 70 87 90
-6.79698 3.62302 13.253 46 51 52
-15.6784 12.2597 10.7005 42 47 51
36.8947 -1.46273 0.546806 7 5 12
20.8564 20.0787 -2.21227 39 46 50
31.1152 0.0438461 5.3108 42 46 49
-5.79697 7.36651 9.72484 30 35 38
2.25229 28.9624 0.743512 52 58 62
12.7277 29.3933 -0.729919 25 33 35
-7.42142 -5.03795 10.2086 44 48 53
-26.456 8.23167 10.6794 49 54 59
-17.1428 16.6557 1.21907 53 57 61
-11.1156 20.774 -3.49096 62 68 73
22.1242 6.00637 10.3896 49 53 57
-10.5846 21.3585 -2.00131 54 59 63
12.7954 27.0363 -3.59336 39 43 46
33.5306 10.454 -2.43657 31 41 42
-42.3604 -8.27869 3.83034 59 68 70
8.54823 31.0224 -2.69405 73 85 90
34.7893 -12.3382 6.8098 19 24 30
33.3992 2.25932 1.53662 9 10 17
-9.14981 21.6826 -5.22607 73 75 83
-29.0211 11.8269 8.14927 53 52 57
29.706 10.1781 -9.15092 78 94 97
27.4741 1.31008 5.11357 37 41 45
14.7736 26.5068 1.50474 31 33 35
8.18246 12.8792 11.7783 32 33 36
30.2735 2.10448 -1.4327 4 3 5
30.0728 2.29793 2.36278 26 27 32
-19.8113 11.1379 9.44309 37 42 47
31.14 12.6432 -4.93953 11 17 22
25.5672 17.5092 -2.66432 30 36 41
41.2285 -6.59737 -3.47739 80 89 105
-45.1839 10.3785 -0.434536 57 63 68
-34.7949 12.2298 5.29155 36 40 43
-0.69426 23.1732 -9.69215 140 141 88
45.0406 -11.8659 -1.61547 26 32 34
43.7322 -17.1009 3.26259 38 45 51
-11.2439 -8.05702 12.3204 40 40 42
-30.7188 13.1064 3.46216 41 51 53
17.4332 -12.6684 6.80727 5 6 14
-15.4788 17.5629 4.31942 36 41 45
21.0403 -5.87905 10.2171 48 49 48
26.1315 9.72691 10.4192 45 50 53
11.1819 30.8771 -0.745247 34 39 35
38.9579 -2.91404 1.50618 14 16 21
30.9648 6.21368 6.6958 53 59 61
31.1217 13.0855 4.30235 35 39 42
21.305 20.1159 0.766373 26 30 33
21.605 -5.22922 -9.91984 17 19 27
-25.0486 11.074 0.428447 30 35 38
14.6185 19.3214 -8.20825 46 51 51
-9.47485 9.25021 11.4833 37 43 46
17.0678 -11.8887 7.27189 28 31 33
1.37707 23.1108 -9.14037 56 66 66
-7.92868 22.6498 -5.02645 63 68 73
22.089 2.31358 -11.3928 96 103 58
25.8531 17.4621 -1.89039 32 37 42
-30.5924 12.2228 5.95712 45 50 54
12.1112 30.3191 1.0602 27 31 34
-12.548 -7.24646 14.3925 71 75 50
11.404 30.4769 -1.63613 42 40 47
45.473 -14.544 1.39815 38 42 46
-43.9078 11.477 1.8101 45 50 52
-40.3598 11.4171 0.342068 47 52 56
-7.89548 23.0736 -2.0091 60 66 71
-3.66926 -1.44072 13.2401 65 65 50
-46.2954 9.19592 2.40181 48 60 62
31.0789 5.05112 3.14904 12 7 18
-2.37798 1.05744 -12.4581 142 137 51
-27.4107 14.2566 0.990782 41 46 49
-30.0515 11.678 -6.39911 63 73 78
7.43898 11.2541 -12.0936 57 59 65
-23.2725 9.08125 -6.95884 46 54 57
-18.965 12.9536 9.30188 45 49 52
-30.3521 -9.49976 6.66854 43 46 50
15.8066 20.2758 5.47788 32 34 35
-22.2532 10.6519 -4.80043 47 50 59
-33.4173 11.2509 8.31712 40 45 48
25.9536 -1.77539 -7.46789 35 43 49
9.63455 12.2426 -8.74328 20 23 24
11.132 19.8882 -0.645559 13 12 21
-1.85168 19.2421 11.1541 70 71 46
-27.0905 -10.1552 6.97829 22 27 30
26.9896 16.7155 -3.12493 25 36 35
25.1608 16.4053 -8.6106 37 45 54
13.1353 10.9606 6.9368 8 13 18
32.829 12.0223 0.593946 25 29 31
-15.7915 -4.20266 -12.2044 129 137 68
26.2454 16.4056 7.53336 36 40 41
-27.0428 11.8453 -5.77698 47 52 53
24.5095 17.2575 -7.33674 36 40 42
35.9306 1.24732 -3.32896 54 62 65
0.124329 24.7628 -7.98147 52 61 68
-18.4882 13.0464 -8.23146 72 88 90
21.7568 -7.04821 7.04623 8 6 5
42.5395 -5.90549 1.91345 24 27 32
-37.5221 11.7458 7.02453 48 53 57
33.455 10.9913 -0.162893 2 1 2
-12.4746 13.1404 8.73037 41 46 49
-17.4525 7.95435 10.8293 47 52 56
-7.73965 -23.3435 9.1758 49 52 56
-12.9123 7.27046 -11.2901 106 115 57
-42.8609 -7.3053 -0.699069 17 26 29
-45.4043 10.0466 -2.12735 64 67 70
3.3644 20.3811 -9.66699 14 12 31
21.8836 19.63 2.53037 35 39 42
26.884 16.8975 2.33464 28 32 36
28.7079 15.6996 2.88749 30 34 38
-21.8871 13.3583 4.58695 42 46 51
-20.2984 15.2402 3.71632 41 46 49
-12.6002 -4.69758 14.3629 60 61 35
23.7503 16.5705 9.29375 41 47 49
42.1409 -5.53916 1.64147 20 27 30
30.977 4.77314 3.18961 13 16 24
-41.2123 10.6148 6.79152 50 57 60
31.6855 -5.1585 -5.6937 4 1 7
-17.531 14.6657 8.26592 39 47 50
-42.7046 10.8591 6.85177 67 74 78
-7.67262 22.3339 -5.80586 70 77 84
-36.5584 12.0681 6.19104 43 49 52
32.4298 -7.82381 -6.93085 36 46 51
8.15076 31.1236 3.72379 47 52 58
-14.3273 -8.90696 14.6225 60 63 42
-29.2122 13.4414 3.30413 40 46 49
25.7817 10.0666 9.145 34 40 43
14.5548 10.3368 10.8865 45 49 53
20.0088 16.7749 9.88058 48 53 59
-10.6653 20.5281 6.13628 53 59 65
27.6514 5.03273 11.0715 44 51 55
-9.65913 -0.0154953 -11.9227 26 54 49
20.8665 -4.84195 10.7904 59 61 46
22.1266 0.175354 -11.6339 99 99 105
18.9321 8.60962 9.14466 16 17 20
14.5888 9.36743 12.4348 50 54 60
29.6527 15.1776 1.33415 28 30 34
-14.9845 18.2717 -1.85337 55 60 64
29.9782 14.2145 4.50427 28 32 38
13.0272 27.6136 -2.98337 28 37 42
27.5161 13.2622 9.50757 48 53 55
28.488 -1.37364 6.3237 37 41 44
-45.2627 -14.4041 -0.327656 49 54 59
-24.9446 9.98397 -7.12364 32 36 38
13.1403 10.5195 -9.90911 18 24 32
-17.2856 16.2198 -3.49263 48 52 59
-33.1343 12.1785 -2.80629 48 55 58
-5.63923 24.1281 -3.91203 54 61 66
1.77647 23.9106 -7.605 33 37 35
-3.38984 23.1032 9.64853 55 63 72
34.6832 1.46625 3.14464 32 35 41
25.3366 16.7217 -7.75375 18 19 22
10.8508 28.141 -4.53008 34 33 46
-16.0931 -4.13974 11.9382 26 30 34
26.8812 16.8012 3.78194 36 41 43
24.6459 9.25848 10.4642 46 51 54
12.2095 21.3806 -1.58183 1 6 16
37.6333 1.53481 0.788324 30 34 38
27.6523 5.87317 -10.3884 34 39 44
4.80125 30.2571 3.22169 56 62 66
26.5285 16.9999 -2.60481 34 41 44
22.6752 18.1403 7.48804 39 42 46
-11.1444 20.6213 -4.18381 59 66 70
29.4793 10.6229 -9.22892 78 88 96
9.07477 31.983 0.669895 36 40 47
-16.392 12.1198 10.6843 41 45 52
-30.6738 12.1066 7.16477 42 49 52
34.1027 -4.8381 -4.22867 0 0 0
14.7555 26.7512 1.88211 34 29 32
-7.97812 22.0633 6.8952 47 53 56
-26.2699 11.0515 -6.27379 34 38 38
-28.4212 14.0495 0.127785 54 60 66
1.37001 25.3891 -4.29906 38 47 50
16.1674 19.7429 -8.63172 58 61 58
28.3007 0.329628 5.16383 36 41 44
26.7941 16.9859 -0.130704 21 26 28
12.4002 -24.1275 4.63132 20 22 25
-21.6035 14.2513 1.85349 46 49 52
-10.3748 -10.6055 -12.2505 36 38 30
-10.2141 20.5905 -5.36117 86 98 102
16.3495 20.1006 -3.41268 5 5 9
-46.0149 9.14787 2.21336 53 61 64
-6.72192 5.56006 12.8782 47 52 54
23.6117 9.2682 10.1743 36 41 44
40.4592 -6.85886 -3.69485 11 6 23
14.9005 25.1435 1.07256 5 9 13
8.82417 18.968 -3.11035 35 37 49
22.8937 -3.6786 8.60445 26 31 34
44.4986 -8.44761 -0.865364 45 46 49
-20.3239 15.046 4.64043 43 48 52
25.4695 16.9408 -5.95279 32 32 38
21.5234 -6.83959 7.51237 9 8 9
-28.4538 11.1794 9.09077 45 49 53
21.4433 -6.44715 8.51521 16 18 25
34.1336 9.68536 0.331747 3 2 6
11.3438 11.09 11.3564 37 41 45
-6.43394 7.64241 -8.50184 21 25 30
31.1828 5.1313 4.63281 6 8 17
16.9806 20.5298 -2.77172 4 4 7
-41.7336 -7.3619 3.83733 46 52 56
-31.9362 13.495 2.48417 44 51 55
3.95325 17.2445 11.8737 47 54 59
33.1506 0.538784 4.62652 40 43 47
-24.3065 8.49228 10.0702 43 50 53
32.023 10.3676 -5.51345 164 152 153
-26.9184 8.47388 10.6544 49 55 58
-11.0197 -0.740776 12.494 33 40 44
25.3692 15.2225 -9.27522 76 87 94
-14.3903 13.322 9.68504 32 36 40
41.0151 -3.78414 -1.02652 31 35 39
-7.11592 8.23571 -8.70942 18 24 28
-2.202 26.0105 0.400833 58 66 69
-6.01869 18.3325 -7.7085 99 100 69
8.16607 30.4166 -3.53318 96 104 114
37.9629 -7.86499 -4.4599 1 0 0
-31.9313 12.1481 6.4516 42 48 51
-7.76395 21.1864 7.67392 40 45 49
2.23688 18.9686 -10.9437 165 180 177
-20.5515 15.0643 -2.94463 61 69 71
16.0593 20.4039 5.31799 36 39 39
35.3506 -13.2896 6.42689 33 36 39
6.34489 31.4893 -0.503653 64 70 75
-17.1903 -6.23539 13.8074 58 58 39
2.07485 24.2685 7.81818 25 28 31
31.0592 -2.60386 4.91957 21 25 29
-5.41682 4.72826 12.8768 43 48 51
-33.1038 10.9237 -6.67013 63 82 81
-36.8139 12.3265 3.59126 45 50 54
3.68578 22.6408 7.25548 19 20 23
22.4826 18.2782 6.98481 36 40 43
-45.6006 9.54713 4.65871 47 53 57
-12.7401 19.3881 -4.37634 77 85 92
-9.68067 22.0097 -1.60196 51 57 61
4.05465 27.8903 -4.29932 76 87 94
-13.1888 12.8399 9.75468 35 40 45
14.9076 8.93793 13.1355 58 62 61
28.6963 9.76655 9.82317 36 41 45
9.60047 20.1513 4.31083 34 37 40
-12.3635 -4.43276 14.3451 55 60 39
22.6303 19.0556 -2.84617 42 49 52
-44.4055 10.9718 4.83712 56 61 65
-15.5772 17.6262 -3.08585 66 72 77
-18.6218 16.1048 -2.89746 59 67 69
11.1525 22.4623 4.19405 33 38 40
16.1789 19.8411 -8.33339 47 52 45
45.2333 -15.8897 2.04141 34 39 42
8.54681 30.0268 -3.96402 79 86 102
-14.169 18.9167 -1.26379 47 53 56
-46.2543 8.22601 -2.50788 55 61 69
-13.8298 18.5624 5.28121 43 48 51
-4.49259 23.271 -7.67378 113 122 131
18.2771 20.8349 -1.22209 39 48 50
17.9639 -14.3874 5.83632 7 5 12
2.7389 29.3636 1.34374 54 60 63
5.36342 18.9797 7.69492 4 3 13
-16.6584 10.7636 -9.94427 74 89 92
-25.4684 10.8261 -5.40529 43 47 45
35.0187 1.08749 -3.89983 59 67 71
-43.6408 11.3236 -1.65156 47 52 55
27.1046 16.7851 0.798902 29 30 35
11.8213 20.9831 2.12357 20 25 29
12.9126 29.3809 1.51858 20 23 26
23.6199 0.169331 11.3064 45 48 50
11.614 10.3734 12.3777 46 53 57
-36.9772 11.8501 7.01874 53 58 62
-24.8408 10.6621 5.8866 29 34 37
-36.4994 12.1466 -1.93549 53 60 64
-40.0163 11.2875 -1.4848 49 54 57
28.8915 15.5572 -2.54603 37 41 38
44.8027 -11.9232 2.81786 36 41 48
-9.57348 22.3744 0.72967 55 59 62
-37.5428 -9.00015 4.35615 12 16 19
33.9097 10.2132 -0.372246 1 2 4
-40.8411 11.3348 -0.192894 48 53 57
37.8692 -2.78415 2.55996 23 26 30
-32.0205 13.7159 1.69132 44 48 53
-20.031 13.9594 7.51768 39 44 49
15.7204 17.9048 -9.53697 95 108 95
-2.0256 3.6409 11.2325 31 32 33
-1.48444 0.615547 12.6811 61 64 36
-24.7454 9.23849 10.0444 41 46 50
1.56406 28.1913 1.77537 56 59 64
-25.9281 11.2186 -5.18874 47 49 33
41.4713 -5.2486 2.78127 35 42 44
1.06243 24.8897 -6.82849 38 38 49
-19.7401 15.7587 1.09829 48 54 56
18.1644 -7.75751 10.8311 71 70 42
8.98157 32.0367 1.10172 38 44 47
-11.6655 11.002 -9.61267 65 80 79
29.7774 13.3293 -6.11123 8 9 19
10.1412 2.05959 10.505 47 52 55
44.3207 -15.3175 -3.00579 69 75 81
-44.7371 -11.7329 -0.692133 58 59 67
30.189 14.0613 4.3303 27 32 36
-34.5291 12.2568 4.7195 46 49 53
6.74921 2.47742 9.98951 49 53 57
5.13766 3.18022 9.01632 45 48 52
11.2822 23.8439 4.81975 29 33 35
-32.6618 13.6793 1.29997 40 45 48
22.7995 -3.46375 -9.71405 15 23 23
39.6124 -16.5183 4.20403 19 23 25
-33.7697 9.54692 -7.10282 62 81 78
43.9286 -6.81192 -0.255423 40 47 49
-43.6474 -9.74176 -2.00674 63 78 80
38.4319 -9.30034 4.62185 33 37 40
5.93167 30.9639 2.95581 52 58 61
-46.095 9.16022 -2.68052 79 85 88
17.2753 -12.925 6.93004 19 21 24
-33.7502 13.1691 2.80273 43 49 52
-23.9077 10.1122 6.05169 35 41 44
44.2538 -13.6855 -3.25297 77 87 96
-12.6493 10.6491 11.4497 37 41 45
-1.56478 24.8694 -7.93733 85 91 99
13.2954 22.131 0.806469 10 12 19
29.4957 10.992 -9.11053 86 94 102
12.3895 29.4614 3.01335 23 27 32
44.5532 -15.1846 -2.65182 60 64 70
-25.2314 10.3024 9.42848 36 39 45
-29.6408 12.9734 3.99933 41 45 49
-6.20184 22.3044 7.97424 53 57 60
-31.8654 13.0148 -1.5852 65 73 77
35.7514 -23.9862 1.43001 19 17 24
16.3459 10.6001 10.2755 36 41 46
19.6162 8.64209 9.68694 34 37 39
-5.74785 23.7871 -5.50284 65 67 75
44.2224 -11.1121 -3.0523 74 83 86
3.6214 29.0913 -2.81713 80 100 103
24.3668 17.5376 6.63496 41 45 48
27.8198 15.6551 5.46015 34 39 43
-16.3355 17.2176 0.268935 47 54 60
-19.1512 -6.75697 10.2259 38 42 44
23.5198 18.6239 3.26862 31 35 38
9.36834 20.63 -3.82925 32 34 41
10.7861 11.4568 -9.58205 29 21 30
-11.4265 21.1067 0.504361 57 67 71
20.6814 20.0416 3.41638 32 37 40
-10.1304 21.7516 2.45713 50 55 60
36.1467 1.99307 0.220726 24 35 34
-14.1858 18.9381 -0.0912281 52 57 62
-4.42748 24.3175 6.89709 52 58 61
22.6187 18.3336 -5.88089 49 56 59
2.01059 25.2318 -4.15073 74 84 89
3.54624 22.4221 -6.16077 18 19 23
1.32749 15.6325 12.1195 48 53 58
-3.75828 24.2938 -7.28416 89 97 102
-35.195 10.3247 -6.46847 67 84 82
-31.5908 13.3231 2.964 50 47 54
-7.05897 7.67497 -10.055 27 36 39
28.8415 15.6405 -1.54647 33 36 41
15.5843 4.91326 10.375 42 48 46
-23.7101 10.1782 -3.54051 28 32 35
5.97683 17.5504 7.33865 4 4 14
14.2423 24.6771 -2.0698 18 17 29
-13.8298 13.8113 -7.37701 38 47 51
-9.72475 -10.5105 11.7426 38 40 29
-19.5427 14.0716 -6.70084 79 92 93
-18.3026 11.6012 10.3442 50 55 60
-46.1008 10.0467 0.337354 60 64 67
-9.74813 21.8842 -2.90679 51 55 59
-38.9715 -3.01225 1.48542 20 28 30
-21.5829 9.06084 -5.74481 20 38 33
2.27551 20.7862 -10.1944 62 65 61
-8.7114 22.5515 -2.58529 49 55 60
-10.2202 -1.61428 -12.7528 62 74 73
-4.51622 24.9014 -0.747931 44 49 53
-41.3782 11.0445 4.90137 44 49 52
28.9901 12.7072 8.93597 42 47 50
8.02314 30.3098 4.76992 43 48 53
-45.8106 9.50003 4.09144 46 51 56
19.2754 20.1162 4.75852 44 47 50
-45.1093 10.3219 3.49573 47 52 57
22.5446 16.798 9.51343 49 49 51
29.7815 15.0149 -0.485863 34 39 44
-33.314 -12.461 9.74374 55 63 70
-14.1613 13.3643 -8.2485 63 74 78
-34.3357 11.9477 7.2977 44 49 53
-42.4407 11.3361 2.15175 43 48 52
-12.1787 13.0274 8.50033 40 44 51
-31.4537 13.1208 3.31254 46 46 51
-25.0482 10.6298 -4.65043 23 30 28
-19.2292 14.9956 6.76846 38 42 48
-37.9429 12.59 2.52763 45 50 53
-11.5614 -0.324867 10.0608 13 22 24
-0.716789 26.2221 -1.14179 38 43 46
-19.2219 -3.84209 7.90585 39 46 51
-39.6611 11.3364 -1.41763 49 54 58
-17.2137 11.1762 -9.62762 71 84 85
30.6227 2.09816 2.8949 28 32 36
3.89971 30.2735 1.35886 46 51 55
-2.22056 24.0364 -8.67831 152 162 168
-28.6472 12.1728 6.34239 44 49 52
20.5113 18.4451 -8.83575 68 74 67
40.8683 -13.9022 -4.1501 0 4 7
-25.8285 10.5513 9.48095 36 39 43
32.8624 10.3639 -4.22536 89 97 97
-14.2423 16.4092 -5.32987 63 71 78
-44.6853 -13.6043 1.70978 29 36 38
-4.69558 24.6523 -3.10436 55 64 67
14.8702 19.6521 -8.23282 47 54 54
11.1278 21.3729 3.44119 31 33 36
14.8504 24.5162 0.873308 11 7 10
-9.69711 16.531 7.87003 43 49 55
11.9245 11.3651 8.25655 29 33 38
31.2016 4.96035 6.67434 25 27 31
34.2657 8.48143 2.35843 32 35 38
12.4041 10.3123 -11.3961 39 43 42
-21.1197 13.7248 6.12917 39 43 46
-21.8923 13.9015 1.85722 43 46 49
30.1521 9.06789 -8.92933 64 74 81
-44.3784 -13.8285 3.07252 46 51 54
-10.9481 20.9468 4.20401 46 49 56
6.55045 16.5811 -5.96079 27 23 26
44.894 -11.5624 -1.81637 28 31 37
-22.8349 9.13884 -6.27714 24 29 31
-24.5762 9.0041 -8.3244 83 102 101
34.9578 1.45711 -3.3453 48 56 62
40.7318 -4.63583 -2.74863 152 158 160
16.188 20.1741 -4.21195 5 9 15
5.06459 27.2713 -4.94685 90 98 108
0.679207 23.4108 -9.23029 74 76 92
1.106 27.6263 -0.21818 59 67 70
-11.7113 20.6327 2.66269 48 51 55
1.42121 24.9309 -5.866 24 27 31
-12.2329 -7.47045 14.1189 74 74 47
26.5688 4.43766 11.4202 44 48 50
-9.63264 21.6423 5.44594 47 52 57
27 13.5 9.60143 35 39 43
-31.6093 12.1501 -3.77535 44 50 54
6.17584 17.3616 -4.94903 27 25 27
9.68726 31.6079 -0.98982 35 41 45
10.1775 30.6691 -2.66741 43 45 55
31.1897 11.8948 -5.91076 36 41 40
-31.1421 13.4986 2.36965 46 51 55
14.4836 18.4856 8.92717 48 55 63
-32.2286 13.4328 -0.59359 55 61 66
14.4088 23.0667 0.307133 16 20 24
22.2951 19.4283 -1.80158 37 41 45
3.12321 22.978 -6.46886 32 39 30
-14.8475 18.0699 4.33943 26 30 35
-46.0511 6.89305 0.31779 38 43 48
31.2595 10.0152 -7.89952 63 63 73
-29.0815 12.927 -2.22429 55 63 67
-18.6553 13.4531 9.07528 42 45 49
-14.5574 18.6346 1.55301 49 48 59
-6.25158 23.8266 -3.92514 54 58 63
0.763709 26.3757 3.16658 39 44 47
32.5031 -7.07085 -5.53057 15 15 22
8.47869 11.6334 -11.7457 71 67 74
31.0261 13.975 1.41017 21 24 26
44.3928 -11.6879 3.15339 44 48 53
-36.5184 10.9153 7.99597 47 53 59
4.97223 31.0351 0.975964 54 61 62
31.6452 13.0313 -2.51552 28 32 40
-12.9329 17.8819 6.64685 47 49 53
17.2995 20.4688 0.649553 26 32 33
2.79698 21.3396 -9.51996 11 16 32
-17.4529 15.9226 5.8912 36 41 46
27.5867 16.4878 1.42674 35 38 41
36.9615 -2.11074 -1.99363 20 20 28
-20.5829 14.7402 5.09397 40 44 50
16.2349 9.40346 -12.6411 61 68 65
-14.5666 16.4077 -5.1857 57 66 73
7.62249 13.5861 11.5242 29 31 35
37.8705 -9.22648 -5.70398 39 46 53
14.6502 10.4368 -10.3514 33 38 46
19.8267 20.8012 0.744538 34 39 40
7.78446 17.3669 4.12712 8 9 14
9.84514 12.6117 8.18929 25 30 31
27.6822 15.5051 -5.61285 30 35 37
-12.5177 9.5927 -10.7209 132 136 68
-9.17082 -11.7454 10.9479 43 46 36
-20.6123 14.693 -4.21094 58 67 69
30.8265 -7.27079 6.86845 58 59 46
5.54648 29.848 4.39014 43 49 53
25.4474 5.35416 -11.4103 75 86 93
26.5645 -0.0138245 -5.79565 21 38 52
32.6301 -8.19809 -6.96498 36 48 50
22.4356 18.2586 7.21353 36 40 43
31.8045 12.3463 4.08055 25 29 34
34.542 7.70839 -1.13886 4 3 5
45.4043 -16.4497 0.862528 34 39 43
33.3362 8.13269 -4.07744 53 59 64
28.8554 15.7082 1.40892 35 38 41
-46.0623 8.69189 5.23594 51 59 62
-7.54016 8.94278 9.79727 31 35 38
-17.9187 9.39091 -9.62086 65 80 82
8.84691 30.5454 4.51083 38 46 49
23.6079 16.5429 -9.15788 75 94 98
2.45678 28.2481 -2.76825 84 97 101
8.20598 12.3197 -11.3776 46 60 66
36.3998 -1.2667 -0.975168 12 3 19
-15.2017 -3.53146 11.9931 33 37 41
40.1221 -14.0331 -5.47367 27 31 35
27.2957 16.599 -1.54282 35 37 45
-10.0147 7.80861 -11.4415 140 143 65
22.6575 18.2331 6.5779 29 34 36
-4.76269 23.952 7.46554 52 60 62
34.3815 -7.34853 -5.42616 28 31 34
-13.1275 10.8239 -10.1921 84 104 85
-32.4094 11.7942 -5.85484 64 72 76
0.630371 27.1189 0.896333 54 60 63
44.8673 -16.3652 -1.06154 49 58 63
-18.4884 14.2445 8.39972 44 45 51
-26.616 12.0546 6.88889 35 40 42
-9.21406 8.66093 -10.6643 53 66 65
3.51067 21.0615 10.1915 25 28 33
35.9774 -2.18901 2.94735 25 31 35
-42.4889 11.2523 5.3561 44 48 51
21.8613 -5.54852 8.57744 19 20 20
41.4501 -4.29389 1.45017 31 37 38
-25.2691 9.99554 9.89493 36 42 45
-14.6919 -3.04529 11.1341 25 30 33
-31.4493 11.9888 -5.48324 53 60 63
-24.7925 10.99 -0.147475 33 37 41
23.3027 17.9053 7.14077 40 44 49
-12.574 20.2292 1.31948 47 51 55
-17.5155 12.5301 10.1847 41 46 50
11.2901 30.2516 -2.1229 28 28 37
-15.2391 -3.76498 -12.0594 130 134 75
3.49682 30.0123 0.986267 48 54 57
35.8935 1.92641 1.08518 16 20 24
-38.3794 11.3471 6.55355 47 51 55
40.9125 -3.59062 -0.627508 16 20 23
12.3489 29.7636 -1.0658 28 32 35
-7.0051 23.2885 -4.74325 56 64 68
-9.99343 21.3818 -4.56021 76 83 88
28.9575 3.51316 -10.2397 39 45 49
-2.99416 18.802 10.4277 46 52 52
-29.2997 12.5381 -2.77658 96 106 110
-22.0752 13.3775 -2.95721 57 68 68
-21.2819 9.81705 7.6304 26 29 33
28.113 15.2049 6.99807 29 31 36
26.7981 15.7191 8.50075 28 36 40
-44.97 -11.6861 -0.474319 59 62 69
2.90919 25.8062 5.67393 46 52 54
-16.0869 16.6354 5.08835 47 48 54
17.0194 19.0861 9.31912 48 54 57
19.4759 18.8071 -8.8028 63 74 61
-14.4797 14.8175 -5.98353 38 41 48
33.1173 9.53779 -3.96165 90 93 99
20.2407 -4.49358 11.0728 73 72 47
3.58511 22.3339 -6.34883 16 20 23
18.0314 -13.68 5.84539 4 4 11
-44.6464 -16.3159 1.71822 48 52 57
3.2164 29.3935 -1.50027 71 78 82
18.3748 20.9346 3.30609 42 45 47
-18.1989 11.7776 10.307 47 52 57
-44.0925 -9.03785 1.47384 32 36 38
-11.5331 9.33983 -10.8561 106 108 74
-1.04494 1.67186 11.8598 54 53 30
6.89837 15.5291 8.09908 14 14 24
41.371 -4.44086 1.68097 28 33 35
27.473 14.4592 8.9614 44 51 54
4.62582 25.8352 -5.24437 60 61 69
-39.8034 11.3636 -0.841988 60 66 70
10.7368 18.2709 -0.879192 90 93 94
-24.9293 10.5405 -4.49846 24 32 30
27.6495 1.64718 7.86647 29 31 34
8.03996 14.008 8.437 11 10 14
-6.35047 5.33931 -11.8174 39 49 52
10.0591 19.9941 -2.94649 27 31 50
39.8592 -12.272 -5.43148 31 37 44
-26.9079 13.1414 4.05857 46 51 54
26.8845 0.497227 -5.54369 23 14 22
-46.5679 9.19368 -0.0317583 47 53 54
21.2648 19.2546 4.61221 36 39 42
2.29588 27.2986 -3.59039 103 115 121
24.0367 -1.74178 9.98461 45 50 53
-17.9368 14.7135 -6.8051 57 67 68
-19.2292 15.9681 2.56275 41 46 50
-40.1786 -4.84498 3.2678 35 39 43
39.0535 -3.2562 -2.60533 65 72 74
42.5426 -21.2033 2.6797 45 49 54
-11.1414 11.0872 -9.2523 57 67 70
-6.58643 -0.140732 13.8498 43 48 50
-33.6777 13.4831 1.7227 45 50 55
-0.0354729 23.2508 -9.61517 93 105 93
-37.9774 12.2254 -1.02722 52 60 64
-37.4322 12.2144 3.61055 44 50 53
-42.9153 11.3779 3.27513 42 48 51
14.2101 22.8183 0.244992 20 23 27
38.4893 -8.93054 -4.76654 17 18 21
-10.4795 11.8741 -6.54495 33 40 45
-21.7413 13.9119 3.3289 43 47 51
31.4345 12.7507 4.16269 31 35 39
30.7793 13.1559 -4.73914 33 35 42
-26.8659 10.7425 9.57725 38 43 44
36.157 -1.83742 -2.21341 40 44 50
21.3444 19.0416 -5.37706 52 57 59
14.8953 25.1363 1.25672 10 16 19
31.8196 13.0802 -1.08827 31 33 43
14.4262 10.7698 7.95505 36 41 44
-34.1402 -13.7499 9.71297 58 61 52
-35.8227 13.1233 0.451576 51 58 62
-14.7926 17.3502 5.72792 44 49 54
-26.1484 12.472 -1.53984 15 15 20
2.24709 -5.02657 10.9789 58 59 47
20.9672 8.8963 -9.86037 38 47 48
-18.2742 16.3352 -1.17006 46 52 54
32.0586 -6.00201 -5.86058 0 0 8
5.35191 17.9667 -7.88879 8 5 12
31.7026 -5.20964 5.10846 14 17 22
32.9214 1.80224 -3.2431 44 48 61
-10.1668 -9.96629 12.2709 45 46 31
14.0359 10.5526 -8.65065 24 26 29
42.7312 -20.5 -2.19073 43 46 47
13.659 27.4329 -2.182 5 10 17
14.1413 23.2696 2.04607 19 25 27
22.2112 -4.35326 -9.68372 15 19 32
20.1525 19.0307 -6.95467 48 51 56
28.312 15.5528 4.36109 32 38 41
33.1891 -7.30727 -5.85535 47 53 61
31.9234 8.62577 -6.5481 19 16 26
4.78798 19.8769 8.86075 14 16 22
19.3481 19.7286 5.59372 36 40 43
-15.3824 14.764 8.09481 43 46 54
-11.8201 7.66168 -11.3442 122 121 46
21.5832 -4.12334 10.6626 46 49 45
-17.508 10.1814 10.9971 50 54 59
40.5761 -3.4718 1.17137 21 30 32
-10.5865 10.8809 10.3976 39 43 47
-16.3962 16.8425 4.06723 40 47 51
-4.23959 4.31261 -11.9085 82 85 60
4.03172 21.4631 8.36674 16 19 21
-44.9148 10.2099 -2.2747 55 66 66
-9.92466 9.5466 11.4498 47 51 55
-38.0644 12.1111 4.54883 47 52 56
-43.1549 9.55482 -4.8386 181 189 67
-11.6666 -1.53191 -12.7336 104 118 95
35.3165 -13.0727 6.7163 22 25 27
35.1152 -12.8897 5.71384 21 28 30
21.6875 18.4836 7.47958 40 45 47
11.6877 11.3117 9.7892 32 37 40
17.23 20.611 5.31966 34 39 39
14.2814 27.2178 2.36336 16 20 24
39.6817 -16.3305 -5.59441 26 40 40
22.6596 -3.88406 9.44169 49 52 55
-11.6659 8.11155 -11.2133 156 155 55
-27.9064 9.63007 10.2332 44 51 54
-26.6123 12.0133 6.04024 39 44 46
11.1608 10.5426 12.3685 42 47 52
30.632 0.842934 -4.90239 68 72 82
-27.299 10.6748 -7.73406 62 71 76
-2.01235 21.2176 11.0088 72 74 49
11.5958 30.7296 0.679476 18 24 27
23.7068 9.19858 10.3604 41 46 49
-34.0045 12.4093 -1.95518 63 71 74
16.3064 9.11624 13.3699 63 70 77
10.3172 31.2238 -1.40556 40 43 50
28.4107 2.63428 -10.0801 35 38 44
12.5023 -23.4469 7.55859 31 38 39
-44.1145 -10.8577 -1.79074 45 53 56
5.79896 17.2735 -6.61357 3 2 11
24.231 18.2112 3.46315 25 30 31
21.0556 -7.08902 9.09995 22 27 29
2.09577 27.6261 -3.09318 78 91 97
3.94945 21.8611 -5.81231 15 11 15
5.3652 17.1496 -9.1819 10 18 30
-32.6277 -12.4838 -5.88796 74 80 51
-45.5447 9.75855 4.46655 54 59 64
19.5119 18.8181 8.92785 47 52 55
14.8059 16.2895 -3.93817 58 80 54
-24.09 -9.69765 6.47541 26 32 34
1.21207 21.356 -10.3659 69 75 43
-44.8264 10.2108 -2.46146 66 71 74
27.4128 5.84298 -10.5638 34 39 43
9.71629 27.793 -5.27906 94 101 97
5.11927 31.0848 1.36168 49 56 59
-30.9977 -11.0954 8.73279 38 43 47
-4.66448 2.47095 13.7407 42 48 49
11.6373 -1.26406 11.1992 76 75 44
-45.5803 10.3194 2.57834 46 52 55
-41.5957 8.53675 7.5572 56 61 66
3.73795 23.2674 6.98701 33 34 38
-19.3021 14.3618 -6.51023 79 93 95
3.62379 21.1491 -8.6353 4 1 8
-16.4387 16.8821 3.70811 45 51 56
12.0943 26.4439 5.4986 20 25 26
5.00748 17.8463 10.7825 30 34 36
3.16963 21.5345 -8.84966 36 35 46
-1.58371 25.6707 -5.04956 57 62 67
-8.01029 23.1625 1.89966 50 54 58
-16.3857 -4.75371 -12.4157 126 132 70
30.4574 11.0626 -8.1905 39 42 51
-24.4243 9.79386 9.007 33 37 41
-4.16394 22.6519 -8.31742 80 87 100
26.2852 11.1389 10.0816 42 47 49
-15.6331 -3.61103 10.3225 19 23 27
-10.6089 21.452 -0.866382 55 61 64
26.6003 16.5744 -4.4902 22 28 35
5.32574 30.5704 -1.8912 76 84 90
-4.50171 24.0856 7.45066 49 62 63
-32.4227 11.773 7.90515 44 49 52
-38.9571 -3.97849 -2.01724 29 37 46
31.5262 10.0962 6.36147 67 66 68
31.4356 -4.94739 -6.75554 15 17 23
3.71096 29.4194 -2.36756 78 84 90
32.2015 -0.365944 -5.91661 79 87 96
-18.8616 15.4145 6.20223 36 40 45
-22.3376 13.3597 -0.628754 44 47 52
-46.2479 9.4221 2.58727 43 50 53
-6.15244 23.0526 -6.3366 77 84 93
39.5664 -8.77596 -4.14158 0 0 10
38.7309 -22.8757 2.01779 7 6 17
30.398 2.32847 1.67474 19 7 14
28.9009 14.216 -7.34689 35 38 41
-24.1275 10.562 4.20669 41 44 48
20.583 19.3694 -4.88265 47 52 52
-11.7852 20.691 -0.184337 53 61 64
45.7107 -13.7108 -0.531794 43 51 60
1.65419 23.6765 9.5097 32 36 40
-32.4753 -12.678 -6.14737 128 137 76
14.3524 9.26023 -12.2136 71 78 69
7.12852 28.5838 -4.9028 47 52 61
16.8858 -13.6511 7.25928 40 43 46
-6.32944 23.6949 5.11906 50 56 59
28.977 2.76203 -3.66422 2 2 7
29.1784 15.3196 3.06922 31 35 39
21.3485 19.9957 -0.55508 38 43 46
-38.3497 10.0868 -5.22964 173 184 85
5.10024 19.288 8.6911 17 20 26
10.4423 21.446 4.01523 35 38 41
11.721 -17.6511 -7.4766 27 25 33
32.5259 -0.568684 5.61926 40 44 47
-13.1426 19.5465 -2.9133 52 56 60
32.667 -12.0023 7.17485 29 31 33
17.8296 -14.1207 6.08075 2 0 6
1.08307 22.9054 10.6229 44 52 57
-11.8411 11.8291 10.1537 38 41 49
2.34174 29.0561 0.873148 50 56 58
32.1912 12.4661 -2.07729 20 26 31
7.19466 27.3038 -5.38206 42 46 53
-43.163 -11.6274 3.98004 50 55 59
-14.4119 9.85281 11.7254 56 58 46
14.9104 17.2101 -3.57924 56 69 61
32.1736 0.202362 -5.41848 81 92 100
20.8724 18.7809 7.24186 40 45 48
19.7427 20.8633 1.08592 31 37 38
12.3412 29.998 1.65041 24 28 31
25.9253 17.5144 -0.830494 31 35 40
-43.4835 -7.826 -0.256014 28 29 41
-12.2267 -8.21597 13.8387 67 62 42
-14.6897 7.91175 12.0694 42 45 51
33.0614 2.31128 -0.447517 8 6 16
30.9714 9.4291 -8.25378 58 67 72
30.0887 13.1307 6.50993 28 35 36
-40.7298 11.2254 -1.66722 42 48 51
-39.4819 -3.52765 1.62765 37 40 44
-14.0462 14.1358 8.42551 37 41 45
42.6146 -21.9453 1.4108 37 46 49
35.4329 -24.2228 1.0934 15 15 19
-35.2773 11.584 -5.55704 66 77 82
2.99233 23.3118 -5.72274 23 22 26
-19.6381 11.8408 -8.22075 63 81 83
2.09882 20.7001 11.4378 54 61 66
-4.51542 25.1216 1.11575 52 57 60
23.9306 17.4246 -7.8423 30 40 40
9.52914 31.2503 -2.07994 47 55 60
-20.1422 9.36122 9.05007 44 48 52
-8.02644 8.70169 10.986 36 41 43
39.3015 -10.4467 -4.94044 42 48 54
-44.4719 -10.265 1.69691 40 45 45
16.6108 19.1719 -9.0851 81 87 100
-38.9098 12.0943 3.15172 43 47 52
16.2463 9.06932 -13.0024 162 173 146
-32.0712 12.7851 3.91955 44 51 54
-33.9529 10.1269 -6.88817 49 67 67
-13.6635 19.2208 2.51943 47 52 56
-24.9462 10.1506 9.32707 37 40 46
28.2037 -0.475315 5.85286 41 47 49
-18.832 -6.07288 -11.3826 95 96 61
31.0197 7.14044 7.36339 35 38 42
34.2929 -12.052 7.11069 22 24 26
30.9687 -1.30595 6.20221 39 43 45
9.06008 21.0013 5.07142 38 43 46
29.6845 2.38749 1.54338 5 4 9
1.95261 25.016 -4.32419 26 37 44
-19.1249 15.3326 -4.99698 48 59 61
-15.3165 17.8587 -2.97057 47 52 56
-16.4805 -4.83355 13.2368 41 46 51
12.8268 8.58388 12.9096 38 44 48
2.9704 19.2369 -10.546 67 78 78
2.98352 29.5135 1.64189 49 54 58
3.73132 29.3568 -2.54333 80 87 93
27.515 11.4058 9.93372 38 43 48
-3.82544 5.20374 -8.27353 13 17 19
35.3829 -5.94057 3.84331 6 8 14
-29.6255 11.5593 8.54309 42 49 52
-2.47928 25.9934 0.63678 57 64 66
-2.32968 3.87719 11.8301 32 33 38
36.7491 -15.6979 4.78283 33 38 41
26.344 9.89939 10.4139 44 48 52
36.5579 1.7549 1.18509 21 27 32
24.0289 16.1928 9.41819 44 51 51
40.1947 -15.6624 3.02414 25 27 30
-9.41277 22.3194 1.66094 52 57 60
29.1047 -12.8953 6.50883 71 68 46
-41.8681 -7.52765 3.83884 47 54 57
-20.6096 15.2038 1.16036 46 52 54
2.89969 29.1413 -1.48996 69 76 80
13.5263 28.5085 0.237261 13 17 23
22.6714 16.5998 9.56536 43 51 53
-3.44307 20.8937 10.2524 50 59 67
-45.5076 9.45081 5.22888 57 64 68
-40.9966 11.0224 5.87071 41 47 50
29.7188 15.1201 0.455688 37 37 43
-36.9785 12.6006 2.91981 39 44 48
33.3896 -9.38826 6.15986 36 39 44
30.9253 4.51686 5.00037 23 28 32
-13.1457 13.8405 8.05613 42 47 49
2.40887 28.3881 3.55217 52 57 61
-34.1716 12.0942 -4.26782 50 57 60
10.1428 28.4741 -4.8044 21 11 24
17.1411 -12.6571 7.16466 26 27 33
34.5192 1.77924 -2.79088 23 24 33
5.62553 30.7416 -1.82232 75 83 89
-4.7589 22.8575 -7.67159 112 124 132
-13.8764 18.7293 -3.9145 65 70 77
24.6879 -1.24014 9.35207 36 39 42
29.2672 10.3405 -9.39093 77 88 95
23.6959 18.753 -0.897892 37 41 45
-11.7451 10.8308 11.0893 38 41 45
-27.5854 11.8828 7.96689 50 50 56
17.4132 20.4557 -5.13489 45 57 58
33.753 -4.16146 -4.0968 3 0 4
-27.8945 14.2012 1.02109 45 50 53
-37.6559 -3.51199 3.71503 39 45 48
10.9539 11.7836 8.72318 25 29 33
0.59903 26.8657 1.39961 49 54 58
7.42365 12.1044 -11.9166 60 68 74
44.055 -8.16041 -1.66066 73 80 85
-5.73254 21.7154 -7.40073 68 79 89
34.2883 6.69888 -2.21318 11 11 17
44.4466 -17.1229 -2.24357 45 51 56
-19.3077 15.9495 1.57061 43 48 51
-33.857 10.4071 8.84002 51 56 61
42.2717 -20.0885 3.33302 47 50 58
-26.493 11.3489 8.52123 30 32 37
-11.9224 19.4322 -5.14522 76 85 91
31.4961 9.73624 7.67608 51 56 59
20.8716 -6.78749 9.81534 45 50 49
-11.8772 20.5047 -1.85321 49 54 57
-43.5999 -15.9726 3.73521 55 59 64
14.2948 26.0698 -1.53568 9 7 12
13.2514 -0.980129 -11.2073 188 181 92
11.9545 29.3143 -2.63872 37 35 43
26.8118 6.1075 -9.9313 65 69 77
-19.3826 -6.1917 -10.4965 100 103 65
-23.8402 10.3792 4.71571 32 36 39
14.9005 26.1422 1.58708 25 29 30
-5.38725 6.35645 -9.81217 41 46 48
-28.4764 13.2486 -1.78392 61 69 75
12.5268 29.7293 1.89309 26 31 34
-38.5102 11.606 -4.00514 66 71 61
14.2299 18.5289 -8.89669 56 66 66
-29.0802 10.2774 -7.85701 102 118 125
2.22068 22.9932 -8.38451 28 33 36
26.1514 16.1782 -8.0185 24 33 30
-10.7042 8.10289 -11.308 139 143 79
-24.1533 10.2322 6.05514 33 36 41
36.65 -2.02038 2.3225 25 27 34
-3.10325 25.6379 1.67948 37 44 48
18.2935 20.9319 1.64861 41 46 50
-12.8379 20.1077 1.17236 49 53 57
-18.3066 16.3708 0.211853 41 45 48
-1.83699 24.6183 9.1587 57 63 69
41.291 -4.95475 2.68923 35 38 42
36.4487 0.5695 -4.01031 65 75 84
31.0997 13.0146 -4.09437 26 30 39
-33.8178 12.3369 -2.10971 68 75 79
-0.893066 23.7871 -9.22974 76 87 92
19.1627 19.3528 7.05748 36 41 43
19.2369 18.0132 9.54113 46 50 56
12.7883 29.1726 2.63886 18 19 25
30.5851 12.5077 -5.89247 21 19 29
-36.1543 12.0348 6.65219 45 50 53
-27.7996 14.1436 0.323616 53 58 63
7.69809 13.8052 -9.00003 5 7 15
-10.7735 21.1246 3.93082 52 55 60
37.0068 -8.1181 4.72605 35 40 45
12.4684 29.6782 -0.735699 21 26 29
17.4166 -13.1881 6.69667 9 8 12
25.676 -2.37884 -7.89384 83 89 96
-15.7522 12.6786 10.416 44 48 53
-23.3644 9.90453 6.23889 38 44 49
-41.6254 11.4358 1.57107 41 45 49
14.6045 9.932 -11.4687 47 50 54
-46.8429 8.43357 2.22175 46 51 54
-33.2247 13.5001 2.05581 40 45 50
44.9975 -18.4487 1.05023 39 43 48
39.6021 -18.7702 -4.26827 15 21 23
0.397402 22.6672 -9.90722 126 135 81
-17.9456 12.3848 -8.87367 63 80 80
-24.6992 8.68938 -8.459 96 115 113
4.28831 20.7369 -7.18638 10 9 20
-31.2392 -11.9638 -5.47457 39 45 24
14.2463 10.0705 -11.1817 55 60 59
11.5193 -5.4273 11.374 54 56 43
30.3527 12.1154 8.09888 39 44 48
-32.524 12.1151 -4.1447 52 58 61
21.1736 17.8991 9.2908 44 50 53
25.4559 8.39554 10.6118 46 50 54
-7.49747 6.69438 -11.4334 51 67 66
-37.2176 11.6157 7.27723 52 55 60
35.4356 1.83756 -2.04884 21 22 29
-17.2318 16.4796 -2.18735 43 49 54
34.6003 2.00831 2.28329 33 37 39
-12.4961 -0.821869 -11.0155 99 106 54
12.6763 28.1219 4.19613 20 23 29
-21.381 14.4153 -2.21371 54 61 62
30.9759 6.22221 -6.83258 42 49 55
2.06661 17.6764 12.0439 46 49 54
3.89242 24.2436 -5.22029 68 72 54
30.8655 -4.23771 -7.02853 50 54 56
-25.3539 10.9066 7.06279 31 34 37
-3.37979 21.2787 -9.355 73 82 97
23.5011 18.8305 -1.23164 36 41 43
-17.9618 -4.98656 -10.2126 70 71 37
-7.70641 5.22348 13.1069 46 52 57
45.2098 -10.197 1.02469 33 37 40
45.4447 -12.0923 1.67372 32 36 38
18.8272 20.411 4.62227 41 46 48
30.5147 -1.84389 -6.94961 84 93 105
-1.13006 20.6608 11.4797 85 81 56
28.0815 10.4781 -9.89814 92 99 102
7.79327 22.3597 -5.07848 53 58 69
3.17281 22.0559 9.64833 25 25 28
-20.6543 11.7939 8.44623 42 46 51
-32.9636 13.573 1.80331 39 44 48
3.2644 17.0126 -11.3054 82 97 99
8.19554 30.3696 4.70551 44 49 54
-13.7831 19.3732 1.22108 44 47 50
-21.6236 12.6933 6.42536 39 44 48
-14.2825 18.6329 -3.27568 62 69 73
27.3564 15.4367 8.35338 33 40 44
4.54391 27.5673 -4.6544 77 77 90
28.4915 15.0153 -5.51972 30 37 41
11.1585 20.8275 2.94715 25 30 35
27.6881 0.375736 -5.45108 43 43 52
19.8683 20.535 -2.3432 40 47 50
36.5302 -1.67081 1.84044 29 34 36
7.06416 29.3718 -4.38535 123 131 137
28.845 6.25698 8.74967 55 60 63
-6.0325 4.13156 -12.2436 72 84 84
27.88 -4.73073 7.09624 40 45 46
-19.7146 14.0813 -6.53718 71 81 83
-12.513 19.3568 -4.70358 59 67 74
-7.55589 23.4222 2.02824 47 51 55
-8.77486 7.12088 12.6282 48 53 57
43.0953 -8.82167 -3.34638 68 86 88
-16.8095 14.0636 -7.80007 75 91 91
12.828 10.3393 -10.9343 25 32 28
-22.4299 13.2164 -0.34864 42 49 51
-1.55936 25.9933 -1.59742 46 50 54
-10.2706 10.1312 11.0722 38 42 46
41.3122 -4.20774 -1.42354 79 82 86
-40.3559 9.5593 -5.1512 170 170 70
27.9937 5.84183 10.205 43 51 54
-43.9191 11.483 1.43189 39 43 46
2.09104 24.1587 -6.49172 26 36 34
-35.969 11.4688 -5.51327 59 74 79
-40.3898 -4.78886 2.84945 23 28 34
24.501 17.9503 4.66213 36 40 44
-45.9335 10.1483 0.0479714 56 60 62
-4.13607 25.0794 -0.722775 58 63 66
-33.0847 12.9215 -1.38882 65 73 77
26.0787 4.18573 11.4949 53 55 62
39.0122 -16.8074 -6.21794 93 96 102
32.8545 11.5675 -2.32049 27 29 34
19.948 19.0782 -7.05181 48 50 54
-46.6397 9.03839 2.40386 45 50 51
21.3207 18.48 8.22209 34 38 41
8.64169 21.4124 5.41695 47 50 54
10.7769 11.2292 11.6594 38 42 45
21.9926 -5.05051 9.35013 32 34 39
-25.3376 10.9283 -4.11293 24 28 32
-3.97552 25.3183 1.27029 40 46 48
8.89377 10.2279 -12.3623 94 100 103
33.4796 10.985 0.237293 11 12 14
35.936 1.00404 3.49882 37 43 45
-26.054 11.0093 8.14837 25 30 33
-14.792 13.3813 9.78167 41 46 50
4.38224 12.9869 -12.0016 64 85 93
2.45634 24.7332 5.62621 33 39 41
-44.5707 10.8679 4.08185 54 60 63
-31.7782 11.2377 -6.64338 63 75 81
31.92 7.63584 6.45984 38 42 45
36.2336 1.59143 2.47174 34 40 42
-37.1029 -9.18839 5.50712 37 39 40
1.92455 28.3489 -1.25322 68 75 80
26.6 -2.47161 -7.34088 65 76 85
7.1979 -6.533 11.2753 56 56 46
-16.5814 6.33651 10.4794 45 49 53
-19.9155 -14.1021 8.78058 73 72 41
23.8363 18.0077 -5.10524 44 51 58
20.3245 19.0615 6.80941 37 41 45
-41.2377 11.0321 5.41945 42 47 50
11.0908 0.497711 -10.7339 71 72 76
-17.9597 16.0422 5.10554 35 40 44
29.7359 2.35789 1.03515 4 2 9
39.9664 -3.47145 -2.07723 41 45 51
-34.474 -9.46117 -4.71641 39 43 44
-0.832245 25.8712 -4.65535 43 47 51
-31.1724 10.2458 9.48345 50 54 59
-40.5036 -6.66575 4.08982 45 52 55
21.9678 18.1788 8.62297 42 47 51
-10.5621 21.1944 4.36583 50 54 55
11.098 11.2947 -9.70086 17 21 24
7.07296 12.9768 -11.5622 48 55 59
6.5326 17.4816 5.80313 1 0 4
-13.0433 -1.88082 11.1099 23 28 31
17.8148 20.7794 -4.10691 55 61 60
-11.5721 -9.80835 -13.0599 116 116 59
-44.3049 11.3116 -1.39427 52 51 55
21.5201 -7.86819 6.74971 8 7 6
26.1573 16.2843 8.36463 43 45 49
-34.5642 12.5834 3.66476 39 44 47
16.7094 19.4645 9.03999 50 55 58
-28.3667 12.1347 -3.97992 52 59 61
1.09962 26.8836 -2.3873 82 90 93
22.5817 18.5034 5.7556 36 42 44
-2.9087 22.5376 -9.26003 91 104 91
31.2838 13.7451 0.611635 34 37 43
12.8276 -0.934715 -11.1749 183 177 90
-38.6242 -2.62065 0.0958045 11 9 20
-10.149 21.3873 4.95577 50 52 60
34.7365 -23.4742 2.90676 13 14 20
32.6484 11.5339 -3.24581 24 29 35
26.262 13.6149 9.77317 42 49 53
32.987 1.65188 3.28584 25 30 32
-6.68328 1.24557 -12.6019 54 65 49
29.8861 2.3694 0.662222 5 1 7
9.57279 31.8333 1.50686 25 30 34
35.8413 -2.48577 3.32166 39 43 47
-43.5182 11.4463 3.26725 50 55 59
-10.4611 9.21755 11.8637 42 47 51
-23.0892 10.2208 3.76681 22 25 28
23.6673 18.2582 -4.35983 38 43 46
16.9973 10.4171 -10.116 27 29 36
32.5378 11.1577 4.18063 33 37 40
34.5899 8.04586 -1.12426 4 3 11
44.6534 -17.5504 2.43045 42 46 51
-44.3425 11.4735 1.43075 46 51 54
-27.1426 8.6907 10.602 49 55 58
42.1565 -5.72494 -1.86723 25 31 34
31.5793 0.585426 -5.08755 33 41 53
41.1369 -5.04815 2.8947 35 42 45
-19.5507 15.8558 1.8322 41 46 50
4.35853 20.7189 8.84104 19 21 23
-7.29098 7.73217 -10.2164 32 35 40
17.0001 -12.913 7.27123 26 31 33
22.7048 2.72794 11.0525 43 46 43
12.6509 29.5846 -0.238153 18 24 26
45.424 -11.2101 0.799574 33 35 39
-17.0546 -4.67196 11.1386 23 30 31
1.49642 23.8389 9.41333 35 39 43
-20.9509 12.4466 7.77533 37 44 48
-23.0402 9.78172 -4.35856 34 40 41
11.0186 9.64426 -12.3915 74 85 90
-7.22454 14.6579 8.07911 69 68 42
11.1645 21.1087 3.2004 30 33 36
11.8314 30.5273 1.25382 30 32 37
-8.80097 21.5963 -5.61738 64 76 81
-37.0648 11.9982 6.61551 49 55 58
32.7703 -11.7803 6.47477 43 44 45
26.6578 16.1094 -6.29967 31 35 39
28.7416 -12.5496 -7.41246 161 175 107
-26.076 12.3455 -1.34351 15 16 20
31.8883 8.80126 7.05661 35 40 42
-26.9934 14.1959 1.66833 47 50 54
-35.2633 12.2156 4.80128 43 47 51
-1.65557 25.1982 8.05524 56 61 65
25.3891 15.5522 -9.11644 75 83 90
-6.30167 22.1172 -6.93814 80 87 98
16.9389 -13.2837 7.26464 32 36 39
-21.8569 13.9586 -1.38904 49 56 58
-11.6772 12.2229 -7.937 33 41 41
-39.2291 -14.7734 4.44358 0 1 0
31.879 10.9608 -5.78037 75 81 77
-10.1499 21.7106 -1.29441 48 54 60
-12.5648 19.7258 4.85513 50 54 58
14.0168 23.8694 2.91615 13 19 23
12.8491 25.8807 -3.84643 48 61 64
31.1653 13.8408 1.71035 25 29 30
-21.0785 -6.7273 8.62189 43 46 51
-25.0284 10.0661 -6.77167 29 33 36
-32.2416 -11.3445 7.42327 19 26 29
-22.2223 8.90276 -5.89698 28 38 39
44.0023 -7.96804 -1.65217 67 74 78
45.7304 -14.4645 1.17883 35 40 43
14.8732 19.3335 8.13563 44 49 51
-38.2069 9.3831 7.60723 71 77 54
-10.457 -2.76772 -13.6236 113 124 139
-16.851 16.5563 3.70899 48 54 57
26.0488 0.302094 -7.91345 9 7 11
27.4233 15.8117 6.39797 41 45 48
32.155 2.4957 0.0854435 4 4 13
-36.0876 -8.63309 6.18868 33 38 41
-8.4165 22.8997 1.90988 47 52 55
38.3144 -9.67051 5.13507 38 43 46
10.3532 31.5023 1.64743 20 29 34
26.2245 17.1742 -2.5444 31 36 39
-24.4404 10.7088 3.88657 28 32 36
8.23928 13.2712 -9.08243 11 13 16
-42.9919 11.338 4.90287 44 47 57
25.3707 17.1034 6.05079 31 35 39
-11.3292 20.8554 -2.23021 52 57 61
27.8215 12.8814 9.50487 50 56 59
-17.3224 16.562 1.30044 46 50 53
34.9577 1.36892 -3.51081 55 63 69
-27.8596 12.3697 -3.16896 82 90 95
33.1433 11.4724 -0.282196 3 4 5
-7.97942 -3.4318 13.8546 37 42 48
22.8202 19.2383 -0.329763 37 41 45
11.9775 11.3609 8.0148 15 21 24
17.152 -13.1642 7.03081 29 32 32
-27.9153 10.4661 9.75703 47 53 58
7.80529 11.367 -12.0468 69 70 76
24.7847 17.0332 8.27086 36 41 43
13.8094 9.55508 12.2487 43 50 54
-23.0744 10.7541 -0.792133 8 12 14
7.1692 31.6439 2.35594 53 58 62
4.60937 13.5332 12.5982 44 49 52
-41.8601 -5.90882 -0.929082 32 34 42
-28.3172 -10.3616 7.96015 23 27 31
16.9345 9.46308 12.4268 41 45 50
9.35752 28.7332 5.92091 22 26 32
5.27961 12.8928 12.7988 45 51 58
-7.06734 19.3075 8.35721 48 52 56
4.10707 29.0822 -3.25608 74 94 90
37.9385 1.16179 0.434994 18 22 27
25.6881 17.667 1.73937 27 30 34
20.5541 19.1094 6.42245 33 37 40
-4.31812 21.6398 9.41996 51 56 62
-18.962 16.1421 0.712018 43 48 50
-11.2656 19.433 6.71837 55 61 65
-42.0836 -6.10832 2.01601 36 40 44
-18.9202 13.257 -7.83929 69 83 84
27.0696 0.942123 5.37794 33 37 41
42.9599 -6.99824 2.74943 46 50 56
10.645 21.2307 3.71204 31 35 39
-24.5482 10.8243 0.578656 31 37 40
10.854 30.9474 2.78055 25 29 32
-13.2617 19.6638 -0.143692 47 52 55
35.1011 7.48281 -0.270329 24 24 25
-28.2715 10.6649 9.55788 51 55 59
-9.53532 -12.0849 12.4699 54 54 40
-22.1702 13.2782 -2.71943 55 66 65
37.4707 1.60336 0.135078 33 33 39
-22.7921 9.27525 7.73585 36 40 44
36.7981 -3.28769 3.46283 44 49 53
-4.41504 4.78523 -11.0292 53 60 61
4.69257 30.847 0.712557 62 68 72
31.8306 10.7609 -5.89721 98 103 97
-7.48847 7.21657 12.1953 36 41 43
37.2783 -2.38405 2.60363 31 35 39
29.4234 2.32539 2.16666 24 26 31
-8.91032 10.149 -8.0403 32 41 47
33.3131 -23.8248 3.20359 4 9 14
-41.193 9.21992 7.5107 54 61 67
-7.56961 8.42598 -9.3461 28 31 36
-26.1988 9.77987 10.1823 38 43 48
34.3827 8.19236 -1.99594 13 10 17
13.6517 10.8303 7.76739 38 39 42
-15.9284 -4.56593 13.3021 36 40 43
29.9557 -16.8389 -6.01556 83 93 97
8.91651 31.9564 0.334569 46 50 55
-26.0393 12.9585 0.299268 14 16 20
-8.00308 21.1395 7.55708 41 46 51
5.54883 30.2861 -2.6904 75 82 88
21.6828 -0.923855 -11.5585 94 107 113
-11.6829 -9.60162 -12.679 52 53 26
-19.5289 -3.62558 7.73671 37 41 46
29.9926 13.2108 6.85225 31 36 39
