ply
format ascii 1.0
comment Created by Open3D
element vertex 1393
property double x
property double y
property double z
property uchar red
property uchar green
property uchar blue
end_header
-15.4931 -9.72725 -13.7081 131 129 91
-15.3246 -9.87022 13.0333 53 53 37
28.4956 15.0082 6.31821 33 37 41
18.8116 12.8686 5.22477 8 4 15
22.4437 12.5756 -6.81977 13 26 27
-21.8696 8.76006 7.80969 29 34 38
25.3905 9.35004 10.5344 43 49 52
37.9798 1.38676 -2.15755 32 42 43
-1.11105 0.203072 10.7122 41 46 38
-39.9851 -20.1838 1.28422 15 18 26
29.2857 3.318 -9.51997 23 26 29
14.9616 10.7735 8.34159 41 46 49
8.93292 24.3367 5.80229 22 27 31
24.4348 -2.9995 7.27067 3 5 7
14.2728 10.5384 -7.69593 22 25 27
-33.0496 -14.3208 -6.00076 147 153 85
-43.5846 -8.998 2.5459 19 21 25
23.4898 17.8279 7.18416 41 45 50
19.406 20.9999 1.07108 40 46 47
27.6972 -17.4877 -5.94731 76 86 90
5.25007 18.3914 -7.51625 14 12 19
40.5475 -13.8493 -4.55125 6 4 4
-26.3626 -15.973 -6.05953 165 163 102
31.772 -21.3654 2.73383 15 15 19
-16.5945 -13.8076 8.79915 24 28 31
-11.2569 -0.00404501 -9.15488 17 27 24
-28.0898 9.19745 -8.53243 102 119 132
-9.52431 -23.2549 -8.91015 96 107 114
12.3722 -22.2759 -2.43339 0 0 7
-1.31711 7.83839 -6.49366 72 87 90
32.124 9.81088 5.67265 40 44 53
35.0792 -18.3044 -6.18436 92 103 103
-6.55823 -19.6804 8.02374 0 0 4
43.247 -7.02778 -1.82693 22 24 30
32.4485 0.819231 4.42954 42 46 50
-37.892 4.91212 4.79359 2 1 1
-10.2515 -23.8877 -9.12975 101 115 120
-21.3416 -5.15079 6.4907 35 39 43
29.6966 -20.1698 3.15269 5 5 12
7.61705 -2.35373 -10.8585 177 176 83
38.4214 -10.3055 -6.15878 123 138 142
-23.7662 10.4839 0.0729904 31 34 36
-0.219845 10.7971 -6.85965 16 37 37
10.6764 -24.6095 7.91911 40 43 47
2.9734 18.5727 -10.7861 142 143 144
-31.0604 13.8045 1.65314 46 52 56
-30.1777 2.61926 -0.967878 59 67 58
3.24034 27.4909 5.15844 44 49 52
29.5093 3.27401 0.355377 21 21 23
-15.5305 15.1301 -6.01558 59 64 70
8.95936 9.02702 -12.5023 73 86 94
-17.1671 -4.28748 -5.04912 31 37 37
24.3999 -6.34063 -7.48877 139 151 101
-21.4125 2.33091 -4.66352 67 84 84
-37.8913 -22.5605 1.00159 44 53 55
23.3 -4.08253 7.18597 4 3 5
14.8315 17.9559 -5.90867 19 26 23
44.4106 -8.47338 -1.2387 57 61 63
-10.0864 -10.5345 -9.2847 4 2 11
38.2613 -11.2226 -6.23841 122 147 149
22.6632 -12.1523 4.15136 15 14 19
-8.09154 8.5955 11.2621 33 38 43
39.1593 -11.9831 5.13642 32 35 39
9.75316 -17.5385 8.15145 49 54 55
-44.2878 11.0627 5.25486 64 70 73
31.225 -11.1543 -7.36656 198 199 96
18.0862 17.241 9.86019 47 52 57
18.427 -17.2125 -3.54135 1 0 0
2.7288 -1.67027 -10.1399 166 163 71
-30.9847 -24.274 2.71915 20 22 24
-41.5688 -4.8528 -0.0918732 16 10 25
-22.1378 -6.21219 -5.61674 38 44 46
13.5649 -10.1993 10.2414 63 63 38
1.9664 -3.54932 10.8298 75 75 44
43.7849 -17.2021 -3.13838 87 94 97
12.0828 -5.59953 -11.3197 178 173 82
-15.8382 -26.3931 0.368786 13 15 17
-13.1911 14.593 -5.99327 58 46 63
-13.1026 -7.446 14.3767 68 68 44
33.724 -14.7083 8.11021 43 50 53
12.9218 10.4999 11.3351 41 45 50
6.81257 27.6149 6.32148 30 35 40
10.0889 5.74432 9.26711 23 28 29
36.9861 1.73487 0.738098 24 26 31
4.15471 -16.4447 8.64268 56 57 41
8.39324 32.0182 1.41128 51 52 57
-13.0041 19.053 -4.58695 61 69 74
18.7678 -0.611835 -11.2579 53 59 60
-45.2713 7.19298 5.39242 48 56 58
34.8664 -12.0172 4.35828 28 34 38
3.85539 30.2886 0.853581 57 64 67
-29.9657 -4.26744 0.266365 18 18 18
-4.5005 20.6019 9.40016 46 50 56
-10.6881 -9.42013 11.2763 27 29 31
-36.2747 -1.94782 -0.209442 22 24 24
28.4167 0.483516 5.00559 33 38 40
-24.6037 -22.0304 3.74139 47 54 54
12.825 6.52639 -9.74151 32 33 28
-11.3569 -0.395123 -10.617 31 42 40
44.4716 -13.1831 -3.03127 72 81 86
-18.144 -13.252 8.87596 40 45 48
17.2118 -6.72323 -11.2108 170 174 103
-25.0703 -9.84439 8.27232 27 31 36
-14.8027 -2.44114 -2.56421 19 20 25
-11.9228 -5.05377 14.6243 70 71 41
-10.1069 10.1977 10.8668 35 39 43
-30.6983 -8.30676 -2.37736 4 19 17
-20.0319 -14.4781 -7.5769 83 97 99
-32.7764 -8.77081 0.578087 1 3 4
18.3692 -17.7861 -3.18212 2 0 3
11.9691 7.85723 -12.4 69 76 85
7.90998 18.5735 4.25015 1 0 1
29.5094 -3.36817 -7.52587 90 103 113
-32.1478 -1.11662 0.785446 15 13 20
-6.08112 -0.711037 13.922 47 52 55
42.7916 -6.29926 -1.33611 33 37 43
6.48135 5.71383 -6.98676 34 37 42
5.69849 -7.71389 11.1626 62 65 45
-40.5249 6.34043 6.47099 5 4 5
-30.1079 11.5296 -6.62309 53 61 66
14.2843 24.3792 -1.82087 28 29 40
-5.59709 -17.0198 -8.52838 56 62 65
13.649 27.9693 -1.30737 32 36 40
34.3068 -16.3737 -5.41228 80 91 88
-27.3638 -11.2743 -6.60804 96 105 63
-7.69586 9.00371 10.0058 35 39 42
8.98838 12.7165 -8.34637 9 11 15
-38.5527 6.69762 -5.07232 105 130 109
-14.7455 -10.681 -11.047 62 66 57
-10.6804 -14.915 -6.48125 46 52 53
-20.64 -2.80689 6.57993 41 44 46
-15.5124 0.504189 -4.45399 93 111 111
-43.8988 -12.7392 -2.51076 75 86 89
-7.10812 0.683483 13.446 46 53 57
-40.9846 -16.0763 3.33837 6 4 10
-9.50524 -22.4813 -8.51542 73 82 85
-3.2804 24.8649 6.83073 43 48 51
-26.511 8.00075 -8.88001 58 69 73
-20.0451 -1.64077 2.92876 28 30 32
-10.0474 -12.626 -10.3898 8 2 12
-7.3321 -6.46464 9.02704 36 39 42
3.77253 4.08815 7.72937 28 33 36
-12.951 -26.0964 8.25783 46 52 57
5.96561 -10.5479 -10.2026 181 183 105
2.26289 28.7822 2.21939 52 57 63
-26.7156 -17.4015 7.60562 47 48 43
-16.6062 -24.8098 -0.849201 22 18 31
-6.3093 13.5057 8.14488 37 38 42
5.47713 16.9966 -9.12396 21 26 39
-38.7035 -8.18997 2.66464 7 5 10
18.8952 19.1425 -8.31441 51 57 53
-7.83826 17.4115 8.09348 39 45 44
-19.3178 -5.85756 8.82148 31 35 40
-17.9396 8.86575 10.7692 47 51 57
-43.3821 -10.8505 -2.81747 56 66 66
-11.5373 20.332 5.31429 49 60 60
-40.0408 -21.3179 -0.612114 11 23 22
1.08035 25.1149 -6.28844 32 36 41
9.07466 16.2674 -3.90359 36 42 41
2.31092 -12.9089 -9.70054 144 145 68
4.74259 15.8228 12.0803 35 40 45
1.76751 25.1499 5.67778 23 25 29
5.60748 30.7611 -1.75777 74 82 88
17.4237 -14.8474 -6.10529 8 8 16
-24.5674 10.862 1.78398 37 44 46
-23.2979 -15.3825 -5.53444 47 55 62
-37.2776 10.2946 7.99179 71 73 55
-24.1011 -3.58761 3.06457 24 16 23
41.2007 -23.6874 -0.236916 50 61 73
-9.24562 -4.50779 -13.1769 89 96 51
8.21772 -21.432 8.03729 41 47 49
-45.5821 10.0755 3.81628 55 60 65
-14.624 -2.53077 5.87084 13 15 18
-11.9805 7.4306 12.4826 72 69 44
-45.5637 9.99421 -1.9589 72 79 81
37.541 -8.77888 -5.42959 23 28 33
-25.0053 -23.1244 1.3397 45 49 53
-27.1106 12.6519 4.73531 43 48 51
13.7504 22.6708 1.23448 18 23 26
-8.02859 16.906 8.10998 43 47 44
22.562 -3.10915 -10.5747 43 48 55
-7.78456 23.0623 -3.25822 44 47 52
11.7213 11.219 10.325 24 26 29
2.9218 -17.5056 8.22998 46 46 40
17.1035 10.3435 11.0568 43 46 50
29.5922 -23.879 3.77582 46 52 56
43.8544 -18.4115 -2.24984 42 48 52
-33.6442 12.3021 4.50599 44 48 51
13.4391 -5.29064 -11.0552 201 204 96
24.2961 -10.4899 5.66525 23 25 28
-11.8007 -13.1427 -10.2424 55 59 54
-19.2047 -5.72491 -5.46994 21 27 28
-17.29 -0.607465 -3.82736 36 41 43
6.20573 17.8265 6.34541 3 3 7
-18.2036 6.29411 -6.46762 4 21 5
7.20967 -7.45577 11.2182 56 60 44
-16.9988 9.47803 -10.0397 64 80 84
-40.8756 -5.16423 2.88597 25 31 35
40.2566 -17.1808 -4.44986 20 16 23
-10.2309 -10.763 14.0003 73 74 46
-28.5257 14.1111 1.50273 36 42 45
2.3695 20.9387 -10.0522 62 66 58
-19.5374 15.8508 2.28888 43 48 51
-15.9812 4.7448 -6.43103 29 34 39
6.67974 -22.3011 8.01105 65 64 42
-16.415 -24.5143 -7.04182 94 100 109
-3.05164 0.920723 13.7988 81 80 46
-40.0122 -18.5822 1.59409 18 6 19
14.9269 -6.73583 10.8046 68 71 44
25.3968 2.00025 -11.5291 110 116 124
-26.6747 3.79963 -4.92887 95 109 96
9.75698 12.2537 -7.83752 25 20 26
12.2383 -13.8016 -8.79836 67 78 74
-9.25418 -12.5014 -7.32804 0 0 5
-10.5406 15.0523 7.64366 68 65 41
24.494 15.7 -9.30243 84 97 99
16.2126 5.77962 10.0635 41 47 48
12.4617 -8.97448 -10.7954 132 133 45
3.29794 8.71789 9.41637 31 35 39
32.5669 -16.1681 -6.01062 137 149 77
-8.41618 -5.45811 -10.8818 20 13 18
25.0892 -13.2118 -7.07626 141 152 90
-0.280174 24.8022 -8.04917 54 61 63
28.4138 12.9365 9.18841 38 45 48
-29.4894 -11.6015 9.08611 45 48 51
-29.4107 3.46052 5.23438 3 2 2
7.02458 -3.78415 11.1689 54 59 48
17.8226 19.6371 7.43654 35 40 41
-38.0367 11.2513 -5.18949 86 102 85
-12.7951 -9.11762 -13.2281 72 68 34
-10.5261 11.7891 8.649 34 39 38
3.79842 21.4245 -7.64946 13 21 27
34.8521 -6.34245 3.97579 0 2 6
-15.3984 -25.4235 8.10644 46 51 55
19.9492 13.0028 -5.6055 12 28 26
6.36862 15.5063 -8.91253 25 30 36
29.9021 -23.6763 -0.207581 28 33 34
-31.773 -2.62036 4.04131 26 27 33
-36.8284 -13.7641 -5.68718 77 83 61
-1.84124 16.6367 -9.78937 72 80 88
29.2414 5.59382 9.813 50 55 56
19.8006 -16.9219 1.3054 0 0 0
-17.3016 -21.9917 6.42136 38 40 44
-37.5265 5.46008 -3.99456 95 110 95
-21.5957 -5.93765 -0.243515 2 2 4
-45.5173 9.64898 -2.70892 75 82 88
-25.325 -21.7194 -1.08409 7 13 22
-24.7206 -9.80756 6.46259 23 26 30
9.25443 6.65299 -9.3073 44 48 51
3.01254 3.43523 8.02833 40 44 48
35.7019 -18.1917 -6.13142 79 91 92
7.99975 24.696 6.06982 28 32 35
-2.09758 -0.188492 -11.6034 50 51 39
-7.92687 -20.9514 -7.52689 77 73 10
24.6218 -16.9299 -4.30194 34 47 43
0.834755 26.7673 2.90861 46 51 53
36.796 -19.1676 -6.27026 107 115 122
29.5073 -21.789 1.12222 27 36 37
-4.79271 2.97548 13.4865 47 53 53
-44.0961 -13.8659 3.47798 56 60 64
-9.64762 11.2628 8.03678 27 31 33
-7.78583 -8.73129 8.93513 32 36 39
-1.58924 2.32469 12.5505 69 67 36
-30.0016 -2.7582 1.00494 3 1 0
-19.3607 8.51307 9.4506 45 48 52
12.8841 4.77702 10.1131 38 40 45
-45.4279 7.64506 -3.37563 101 119 119
11.3136 8.36666 13.0229 42 47 52
-16.537 -24.579 -5.36995 52 58 63
-22.6843 -7.90302 4.75209 0 0 0
-0.24644 -10.4632 -10.0492 156 150 66
35.276 -3.10109 -3.44703 82 92 103
-25.9064 4.77604 8.13142 33 34 37
14.5424 23.2964 0.329346 8 11 16
17.9418 9.03175 -10.0396 9 11 19
1.82697 24.9842 6.1428 23 27 30
13.4873 15.0752 0.780518 54 61 60
5.99358 31.1737 -1.209 73 80 85
8.27053 0.608253 -10.3535 71 78 76
1.33386 16.2961 12.1593 53 58 63
26.3973 14.1435 -9.48148 90 100 110
-6.92527 -9.39394 8.72385 34 40 38
-35.5809 -22.2712 -0.251801 69 78 81
-41.2943 -18.8848 3.49734 33 35 42
17.1754 16.755 9.85546 41 43 47
13.9639 1.86243 -10.8031 168 169 81
-19.9226 -10.8363 8.59851 53 56 48
-21.7794 -16.6039 -6.21244 52 58 53
-25.9749 -4.16554 -2.12413 26 30 36
16.8195 -19.7891 -3.75931 32 41 46
-22.2491 -13.4356 8.41445 41 44 44
37.8406 -13.1138 5.03412 36 38 43
-26.8939 -9.22086 -5.25835 60 73 75
-38.3579 -17.3379 1.15845 37 45 44
-29.8104 13.9907 0.631325 57 62 67
28.7866 -10.1805 -7.02523 82 86 73
15.8619 19.9829 -4.56608 19 23 27
24.1811 6.21037 10.3096 51 53 58
4.11267 -1.61398 -10.2783 143 145 56
-15.8815 -7.22831 -13.5275 177 185 143
-7.62487 5.39248 13.0354 45 52 56
-43.773 -18.9946 -1.33955 51 60 63
10.8642 31.2512 0.422333 32 37 42
-28.536 -23.7071 0.710228 23 27 32
19.1824 4.47898 -10.5829 81 82 87
22.942 -1.60666 10.9783 47 51 55
26.475 -6.77453 6.58325 31 37 39
10.5924 7.67942 12.6958 49 54 56
29.0832 -13.4008 6.46758 52 51 35
12.7415 29.6393 1.0163 17 17 21
-9.57986 12.3902 -6.33453 60 62 73
-17.9777 -0.920329 5.40382 33 35 29
30.0844 10.131 8.95518 39 45 48
4.89343 20.1236 -5.20263 7 3 7
11.019 -4.6814 -11.2696 124 131 82
7.5208 31.8369 -0.503883 56 62 63
24.6246 4.10057 -11.7114 96 104 118
31.1507 5.1862 7.4697 38 43 46
-13.5195 -1.63079 -7.20385 31 39 35
10.1435 0.251708 10.8663 55 59 62
19.7215 -2.5402 -11.5115 88 100 100
-36.4993 -14.7046 -0.762131 9 10 10
-17.2979 -22.8528 -2.38667 50 57 61
-16.7702 -8.68216 13.5464 54 55 39
-33.9445 -9.49456 6.75983 60 65 70
-11.7245 -18.053 -8.27618 64 70 76
11.8699 -20.3381 -7.76402 44 53 54
-4.03426 -21.4351 8.01083 38 42 47
-24.8271 10.6428 -3.12407 35 37 36
-31.7253 -1.75043 -1.46115 4 0 4
3.10346 22.2793 9.46281 41 42 45
9.47928 -13.4663 -9.19865 144 142 73
37.5556 -2.25903 1.7388 23 27 31
24.389 -15.1748 -6.5852 108 109 65
-9.52052 -12.1382 -9.52527 6 7 13
-2.09089 -6.83269 -10.1003 80 91 79
-18.2464 -5.24235 -10.2731 74 79 43
-12.7327 -10.0222 14.6218 72 73 51
11.5159 -24.2901 7.99646 41 45 48
-7.15296 -3.84046 -11.5939 27 32 33
-33.5302 13.5092 1.64938 44 49 54
1.86257 -7.66691 10.9862 69 66 39
29.5328 15.0058 3.20258 38 43 46
37.5723 -11.6087 -6.18008 108 131 131
20.485 0.950706 -11.2791 60 68 67
-12.7191 4.90369 -11.2307 62 75 77
5.21667 10.2449 -12.1036 57 63 69
17.9328 14.663 -4.84882 4 31 2
17.9518 -16.345 -4.85174 2 3 7
16.5962 -12.2866 -7.64251 48 58 60
-17.8699 6.29241 -7.40754 43 53 54
-9.54315 22.1036 2.98685 50 55 59
13.5071 10.1538 -10.9833 46 57 67
-17.7937 -4.98045 -11.0634 92 96 53
1.5159 2.03669 -7.96106 42 52 61
5.30396 31.0451 2.02461 50 55 61
-15.8101 17.4611 3.04277 40 44 50
6.48271 15.3215 10.6485 22 24 29
-33.6939 4.31031 -3.40443 83 99 84
2.64077 3.25278 -7.53463 49 54 57
-8.65775 22.825 1.48881 50 54 58
-2.13894 3.18314 -10.6575 14 14 18
-7.07681 23.4245 -3.49239 63 63 69
12.6146 4.17626 10.2502 40 46 51
24.8976 -21.2785 -2.78555 27 40 42
-32.992 8.05789 -6.7641 101 110 65
-20.9536 -3.0191 5.92909 37 39 41
-32.2417 4.06222 5.4678 0 0 0
-30.166 -11.1054 8.88549 51 53 59
12.5737 9.65378 12.7014 46 51 57
-3.82741 24.7788 5.89335 53 58 61
6.52558 -18.1062 8.06579 31 35 38
7.25573 -22.2866 -7.88581 103 105 68
5.57808 -12.2715 -9.87836 143 141 72
43.3646 -16.4032 -3.43977 101 123 126
13.3859 10.6047 -8.36466 18 21 23
11.0895 11.3817 10.8237 39 43 48
2.68517 20.4834 11.2464 38 43 48
-34.8696 -17.8893 -0.115204 26 32 30
-1.5237 2.87276 11.591 43 43 36
8.46988 8.9171 -12.4604 67 80 85
-39.8711 11.1946 -3.99056 52 59 52
6.57408 18.0982 -3.66579 35 39 44
34.4388 -6.38732 -4.62445 0 0 1
-4.62441 -20.489 7.98837 33 36 38
-3.03136 17.078 -8.93917 88 93 96
11.937 16.4764 -1.01978 16 19 15
12.1453 -21.6988 -6.37431 9 9 16
36.3156 -11.927 -5.67159 73 83 87
-1.08011 4.0362 -6.31244 46 52 60
-16.5425 13.0091 10.1129 40 44 49
-0.807783 -3.67685 10.6041 72 75 49
18.2561 20.5688 4.84161 52 56 59
30.4213 -24.2027 3.746 48 53 56
-13.6658 -10.2226 -13.8576 89 92 66
-30.2854 8.91896 10.038 48 53 55
5.23564 27.608 -4.8683 86 97 106
-1.16758 0.571464 11.9981 55 56 35
20.8714 13.8461 -7.8092 7 18 18
28.566 14.4526 -7.70244 26 30 33
-1.42328 -7.7314 10.8259 73 72 40
-14.9606 1.83713 -4.79191 29 38 39
-2.52894 22.4618 -9.49324 109 117 100
0.378654 -5.05368 10.8297 53 56 51
19.8706 -12.55 -3.27865 2 0 2
-29.813 -25.3211 -2.59158 78 94 101
-39.3009 11.8001 -0.785255 72 78 84
-21.3823 -4.9439 5.24485 22 23 25
11.7792 16.2891 -1.99878 43 47 42
8.74335 -18.1471 8.11147 37 44 45
-16.9092 -4.09066 -3.40659 25 32 32
-19.1133 16.0851 -0.460858 51 57 59
25.5456 14.7309 9.57822 51 55 61
-27.9893 -9.38163 -5.30511 55 70 71
-28.5149 -5.76099 -1.35717 79 89 83
-26.0785 10.5886 -7.6256 40 44 49
11.2636 20.3852 -1.46739 3 0 17
-30.5226 5.38672 8.1321 15 19 20
27.709 9.29022 10.1961 41 46 49
-29.7315 6.69357 8.97301 48 53 55
-5.96265 23.514 6.79251 50 55 58
-43.7396 11.3484 5.22105 58 63 64
-34.617 12.2496 4.73411 46 49 53
-28.4963 6.5202 -7.97529 74 82 92
29.2439 1.80924 -3.34447 6 7 16
-13.8051 -20.7789 -7.20171 87 97 100
-44.6864 -14.9048 -1.56752 56 63 65
17.4327 -0.795517 -10.8263 87 92 99
-14.7784 -10.2431 14.2602 61 61 41
13.7475 16.5652 -1.27947 65 70 65
20.8011 -7.85739 8.64469 23 25 26
-8.19809 -6.14217 9.22954 23 24 23
-44.4 8.01679 -4.13506 110 126 97
-12.4181 -0.553265 7.49043 13 21 20
-0.315231 13.6206 -9.60373 66 81 83
-43.1591 -14.2476 -2.58562 56 72 72
-27.9522 -23.518 -1.10705 17 21 25
-27.5062 13.2033 3.90344 47 52 55
25.073 14.4317 -9.67241 101 110 114
-31.4012 -7.97006 6.73164 39 46 50
-3.52575 5.02222 -6.81863 5 0 4
-25.797 11.6044 3.28601 14 17 20
-3.59484 6.2981 -6.18155 19 26 40
0.952925 17.9903 11.9766 39 45 49
-4.23311 -22.8344 8.00275 40 44 47
-38.3477 -25.0769 -0.950916 47 46 61
-6.65477 -4.50938 9.50789 18 18 21
21.4926 18.414 -7.94804 47 48 47
23.8583 15.2124 -9.63424 138 149 155
-23.2695 -9.8075 2.66565 18 20 24
5.62087 -23.786 -7.83573 68 85 94
32.3911 9.85346 5.10732 63 70 69
-45.7135 10.2834 0.508387 51 55 59
26.1422 -5.3666 -7.74526 138 136 84
-9.37168 -13.0307 9.61216 15 22 25
9.47056 25.2132 5.89851 36 42 44
-4.57025 5.9009 10.7766 29 32 35
9.78613 11.536 -11.0594 30 32 37
-19.944 15.6807 -0.312466 47 52 54
20.2501 -10.6057 5.19037 2 3 2
-5.61229 -12.4007 10.3311 46 52 51
-9.52255 -20.5723 -7.64085 2 4 7
4.28074 2.99083 -8.38251 56 69 79
-9.8186 21.8547 3.40976 49 54 58
-17.6624 4.00469 6.63554 36 41 44
14.286 10.5933 -5.69666 30 33 37
14.8301 -14.6806 7.95205 39 44 46
3.0617 -10.6701 10.5621 65 65 39
-30.9589 9.53183 9.7646 46 51 55
-20.6577 -12.1884 8.81868 74 71 46
1.63355 -14.1039 -9.34278 141 140 72
33.5107 1.10672 3.91471 36 41 44
-20.8126 -5.44769 -6.10679 25 30 30
2.29607 -16.5043 -8.34934 79 88 89
-27.5576 -24.7876 1.61048 42 46 50
-9.30495 -21.6389 -8.06089 75 80 80
4.73895 28.2198 -4.39924 86 96 100
14.611 -13.3744 -8.44202 59 69 74
6.96868 8.10125 12.299 41 46 50
-11.6159 6.55711 12.752 76 76 46
3.1486 -0.371804 10.3637 48 52 55
-37.8717 -16.3234 1.0462 49 59 60
31.1073 12.5984 -5.18852 27 30 32
-44.3365 -16.9759 1.75431 44 48 53
-38.546 11.359 -4.41011 88 91 67
-17.4771 -0.84013 5.67125 43 41 27
6.37204 3.9061 9.04604 39 44 48
12.0781 -9.28028 -10.7077 140 138 64
-15.9203 -3.83907 10.504 24 28 31
9.01344 23.8366 -4.76134 56 62 73
-37.9109 -7.12386 -0.193306 41 50 52
-17.4283 -8.28493 11.5469 42 47 44
30.4076 -18.248 4.68539 38 43 47
12.0321 -2.96285 11.3691 77 75 42
-36.5611 -11.0612 -3.77153 34 37 41
24.1008 18.6519 0.989092 27 31 33
-43.031 5.76851 -2.25945 78 87 78
-26.8159 -15.4262 8.85288 75 74 46
26.5436 9.19425 -10.4806 94 100 110
8.72596 -20.5582 8.05324 42 47 50
14.776 17.9995 7.8929 8 10 11
-35.6894 6.7457 -5.69861 102 116 92
24.754 11.8491 -6.09176 23 40 37
17.9533 -19.7265 -3.33657 50 56 62
20.4435 -8.54438 9.07908 35 38 45
14.1847 16.2622 -3.06025 72 88 72
-21.6251 4.02128 6.19417 31 32 37
-18.1136 -18.0523 -8.34375 92 114 112
-7.1591 -4.82337 9.972 41 42 44
-35.9423 7.53687 7.90589 73 74 50
-2.95219 -11.7514 -9.65542 53 61 66
24.2607 -0.606934 10.784 47 52 53
32.7471 11.8299 -1.6745 19 22 29
-41.3654 -19.9116 3.70943 42 47 49
-45.0657 10.9843 0.554592 50 55 59
-9.45477 -11.2223 -5.35298 6 8 11
6.51572 -8.1304 11.1271 61 61 45
-23.4304 -10.3692 -5.14488 13 22 14
21.0908 -16.6186 2.542 13 16 18
18.5951 19.3538 -7.76272 42 49 42
16.5252 19.7968 7.95342 37 43 44
0.368668 25.138 -7.06546 40 43 51
-9.48273 -11.581 12.8053 60 58 36
3.58727 21.4963 -8.09959 25 22 29
-26.117 -22.678 2.24295 11 10 19
7.41844 -1.81221 -10.7301 167 166 82
44.4045 -16.3433 -2.70307 51 54 61
5.94615 1.23011 -9.82928 57 70 75
21.8131 18.4436 -6.96436 46 49 50
5.08207 0.910736 -9.79882 90 100 112
18.5578 8.93826 -8.2511 36 32 46
-16.5084 15.3618 -5.94468 46 59 63
-4.50687 -16.1015 -8.83039 57 62 48
7.69282 13.4466 -10.2442 31 31 33
24.799 0.102513 10.8654 43 49 51
12.5017 24.4958 4.86583 5 6 8
1.46342 -4.51977 10.8786 38 45 45
-13.6217 -25.4974 8.20046 72 71 43
-28.0892 13.9566 2.37571 46 52 55
-18.9155 4.25504 -5.35804 58 71 73
9.40463 -19.8198 8.0898 38 42 46
31.4015 -1.00225 -6.42478 90 98 108
-19.6975 -1.95538 4.91294 27 30 36
-33.723 5.39661 -5.25656 106 126 110
27.2178 -16.5009 -5.96515 77 81 94
24.9584 -12.7445 -7.07125 152 160 100
33.3804 -9.11837 5.95821 31 35 38
31.5879 -12.8226 7.19971 37 41 37
31.9355 -26.0623 2.19398 34 40 42
-35.9675 9.32477 -6.07755 110 117 73
11.9944 -23.9088 7.97296 47 51 52
11.0092 -19.1725 -8.01841 75 96 103
33.749 9.51781 2.96716 39 45 47
5.00799 -16.9256 -7.89202 72 86 93
18.0453 -15.3775 5.6262 4 2 9
-36.0423 -1.80851 0.1917 34 35 39
-18.4108 13.7994 -7.62584 77 91 92
-8.18555 -1.61715 -12.8667 57 65 66
-10.2081 7.59574 12.5727 52 56 48
-7.88451 -23.1429 9.14955 43 47 50
-36.0413 -24.0711 1.72842 42 43 47
-35.0686 -8.33709 0.158844 57 73 73
5.41251 -18.1618 -7.73244 77 87 97
1.42264 11.5716 10.4014 35 40 43
4.81638 10.5689 12.6391 46 51 55
27.3036 6.17926 9.68893 52 55 59
5.64615 -0.618875 10.6255 38 41 44
13.427 4.02136 10.3901 45 47 53
19.6999 -12.5848 -4.26318 0 0 1
-7.66028 1.68082 -12.1632 42 58 58
29.2836 14.9794 -3.64388 42 48 49
6.07737 11.8186 -12.2341 84 97 106
31.6149 12.4489 -4.16809 30 33 42
12.3397 -23.4886 -6.52238 8 7 13
-17.2884 -4.75077 9.71447 22 27 29
-29.609 11.0669 -7.19091 63 74 78
-34.9931 -11.5621 -0.456875 6 9 6
-35.3376 -1.74793 -0.205315 31 34 36
-40.9849 -8.36193 4.0008 43 47 50
-7.30978 -14.7941 10.0792 30 36 39
25.0491 18.1064 1.18177 32 35 38
28.0365 16.0289 -3.18347 27 32 41
-33.6064 -9.12427 -2.48637 21 22 21
31.2804 11.836 -5.86475 33 39 42
25.3515 -12.5218 6.19546 48 48 48
-32.108 -6.9804 2.05892 34 45 53
-12.3677 -25.2867 -8.1343 52 60 66
30.0444 -0.878685 -6.4395 84 94 104
28.9784 7.03555 -9.13359 57 66 69
13.3843 10.6553 -5.38262 13 18 28
4.98087 30.8914 -0.176744 64 69 74
8.92482 14.7856 3.60149 15 17 20
-36.3039 -15.6258 -2.22408 0 1 2
11.707 -21.0797 8.10951 44 48 53
13.8712 -8.98906 -10.623 88 93 62
5.95767 31.1223 2.68217 48 53 56
-2.28185 -4.05034 -9.8404 47 62 61
-3.96962 19.069 -8.79093 73 74 64
5.6009 13.5675 12.5473 44 48 53
-10.847 0.208126 6.70567 20 22 26
5.05147 -0.11195 -10.0543 160 157 75
-29.5044 -24.0346 -1.72355 13 15 18
-38.4774 -8.96082 3.20774 16 21 26
-20.7103 -2.2134 5.58448 32 36 40
-13.9132 -2.65368 11.2434 23 28 30
-5.79327 24.3745 1.92128 47 52 55
-27.8118 -24.6414 2.23231 53 55 60
9.86696 -11.9297 9.99711 63 63 47
38.3334 -4.56941 -3.55415 65 71 78
-22.4501 10.7031 4.87387 14 18 20
-30.2349 -8.53024 -3.1049 21 30 31
-2.52057 -9.61918 -9.86372 60 77 72
-26.7071 11.3814 8.84266 38 42 44
23.879 -7.48199 5.90504 16 18 20
-9.88485 21.7085 -3.56293 54 60 63
10.1548 10.6332 -11.954 67 73 79
-27.9737 -16.5851 -6.22292 117 129 137
32.0315 6.06343 3.51595 6 7 17
-42.5668 -10.4014 -2.39818 41 48 51
-7.82225 -4.49344 13.5543 41 44 46
-16.4102 16.5098 -3.75034 71 80 86
-14.8395 -26.2725 8.09805 52 55 57
8.43815 -8.93838 11.0121 66 66 41
6.19581 0.936901 10.3233 52 55 58
-2.58905 -21.5929 -7.5121 162 159 77
-34.5562 -7.60771 3.58908 18 28 14
12.1322 5.8537 9.68371 31 36 39
25.7104 -3.81686 -7.95731 99 111 115
-30.9186 8.63807 9.87135 52 58 61
20.9068 -7.2584 -8.24246 4 0 5
3.1209 -5.5278 11.0817 69 69 43
4.70622 -3.87151 11.0547 55 58 54
-35.3115 -4.60134 3.63116 33 36 40
-19.8805 0.872149 3.91569 27 31 35
-12.247 12.7777 9.08371 30 35 39
15.0912 -19.4912 -4.55527 43 50 53
-11.1624 0.345913 -5.8334 29 25 36
-41.1396 5.91819 -3.48788 93 109 91
14.4554 -15.3752 -7.51758 72 82 88
15.4344 -17.346 -6.03058 69 76 83
10.5664 15.8274 1.52046 3 1 4
-16.9458 15.7434 -5.09038 44 52 57
-18.4143 15.9958 -3.81615 46 55 57
32.1192 -17.1482 -5.77982 77 86 93
21.5687 14.7506 9.48166 1 0 0
-28.2481 9.99391 10.0266 48 52 57
-8.55292 22.5715 -3.57622 61 66 70
-34.5235 12.1159 -3.71506 46 53 55
-13.7147 -7.31805 14.3609 68 70 46
36.2871 0.25023 2.99349 28 29 34
24.7229 8.67988 -10.6147 96 107 115
-45.1187 -11.4382 -0.0992432 44 44 49
-21.057 7.95893 8.33437 32 37 40
9.56294 19.1913 -2.77464 39 47 55
-14.6107 -2.54834 -5.96098 31 36 38
20.4359 19.1699 -6.14488 48 54 59
10.5547 13.4128 -5.32103 9 4 23
14.7221 19.3586 -8.93634 75 84 70
12.9393 11.9366 -4.3561 60 74 76
-33.8547 -12.9619 9.74489 55 61 67
15.9074 4.37721 -10.3794 79 93 80
17.3224 20.4467 0.333237 26 32 34
17.5753 20.5259 5.32345 36 41 41
3.39084 -20.9809 -7.68624 145 145 72
-0.644653 17.9963 11.5633 51 50 56
-2.88979 4.39316 12.1389 34 41 43
31.7855 1.5154 3.6553 35 40 43
-0.629992 -17.1014 8.77567 36 40 42
44.6919 -16.3843 -1.67611 27 33 35
19.8368 0.990846 10.6674 68 67 52
16.4821 20.3089 6.74434 32 35 38
-1.27745 -5.62554 10.7525 44 50 54
-12.0271 15.6365 -6.19148 45 53 65
0.214674 -1.85295 -9.83507 155 153 59
-30.0874 -3.65109 -0.499084 34 34 34
-16.2992 -20.7715 -7.20337 96 117 116
17.9358 10.1353 9.90012 20 22 28
-21.818 10.709 6.94781 26 27 31
-37.796 -10.0728 5.74261 39 41 43
-16.4073 -3.68768 7.09088 31 33 38
-19.907 14.1956 7.35688 39 46 51
32.1013 -6.74889 -6.92693 31 31 36
15.2071 19.7197 6.39935 24 23 26
-31.729 3.10736 -1.13923 57 67 58
-44.5026 11.0327 -2.44659 63 72 73
27.7838 -20.9501 1.5771 21 23 26
-13.7465 16.5288 -5.52088 60 71 78
-25.6291 5.68007 9.53208 48 57 59
-11.0893 -0.359268 11.1448 25 29 34
-28.7579 -5.26061 0.0154037 19 22 22
-5.31238 13.5098 8.25303 41 46 48
1.34766 -16.2508 -8.54305 89 96 63
-25.142 -4.43734 -1.85648 33 36 45
-40.4869 11.4246 1.72832 41 46 49
6.15096 -0.451778 10.6325 51 56 57
-3.15202 -16.4077 9.30354 36 36 35
6.60375 -9.89521 -10.547 147 150 75
7.98524 28.799 -4.88628 73 81 91
-33.9122 -23.7315 0.574593 62 68 68
13.8163 -19.3273 5.16105 28 33 35
6.58229 17.72 -3.98328 33 33 38
19.0179 -7.65039 10.721 68 69 43
-4.79423 22.1693 8.87721 48 55 59
-4.26749 -13.0021 -9.34963 112 116 66
-25.3289 11.1173 3.68816 27 31 35
0.414581 25.8646 -4.28388 43 45 50
1.85099 7.8818 7.82469 58 62 67
13.5511 7.38685 -11.5088 79 74 52
1.10616 12.9202 11.2159 38 45 49
-15.7199 -3.41037 -9.83562 49 55 55
-30.6843 2.52351 1.60431 25 29 24
31.4896 -4.57808 -6.35264 2 1 10
34.6977 -13.1408 -6.15613 113 129 139
-17.2292 -4.63625 8.4102 15 19 22
11.9336 -23.7514 -7.95272 80 88 98
12.1605 -24.5556 7.42519 31 35 37
-17.7856 -21.7049 -3.43923 43 48 52
12.0194 -20.5773 -7.13511 12 15 15
-10.085 1.94258 -11.0953 35 47 43
15.7969 -5.30033 11.3085 71 71 43
10.5505 12.3107 -6.61935 29 33 35
11.9891 -10.7957 10.1668 61 63 38
-38.359 -2.51995 -0.0657387 18 19 26
-27.3596 2.86531 4.1398 9 9 9
19.1124 8.59486 9.43218 27 27 33
16.0533 10.9049 6.69841 19 21 22
21.1084 3.09999 -10.6546 172 170 76
30.9189 13.345 4.26221 33 36 39
29.6083 3.41648 8.99665 39 43 47
22.6778 -14.4936 -3.50771 12 33 20
-42.2484 -12.6119 3.07459 46 50 53
-8.5337 -5.19784 13.3418 51 51 40
-14.0196 14.3122 8.06418 39 43 51
-42.6194 -11.318 -0.0742493 41 42 49
18.2839 18.9254 -9.00495 70 80 81
-12.107 4.83785 -11.4123 55 55 67
-1.25236 10.8348 7.45857 48 54 57
-17.2607 15.5889 -5.50358 48 62 63
23.8065 -17.6003 3.56126 5 5 10
-3.94218 8.28907 6.80566 36 39 43
38.3607 -19.8959 1.16634 14 14 15
21.9427 13.8858 -8.52918 21 37 37
-4.29346 24.8766 3.86456 51 56 59
-29.4851 8.70453 10.2596 49 54 59
23.2798 9.28262 -9.91989 35 41 44
2.37068 11.1166 11.3182 39 46 49
-10.8891 -8.64174 8.47954 19 20 18
-19.284 -16.5929 8.52343 43 44 49
-7.34937 16.1821 -7.33551 104 111 52
4.6313 19.9219 9.39768 19 23 28
-25.3345 11.0769 4.41 22 27 30
-12.5846 -0.427434 -8.46607 20 28 30
8.8458 9.91531 13.0462 45 51 63
11.0213 -13.8775 9.07255 65 66 44
23.345 18.9991 -0.45536 31 34 38
27.3156 -14.5022 6.30198 53 55 39
-15.1823 -14.678 -7.71994 8 16 19
-9.95468 -16.6962 9.65688 37 40 44
-34.8851 -17.0728 -2.21734 17 18 18
-5.52203 -11.8707 -9.32196 45 50 47
-36.4901 4.8928 5.39652 1 0 0
-16.3233 -15.9329 -8.48462 74 82 89
-12.1795 -8.80491 13.7353 65 66 41
14.3132 22.905 0.010437 18 22 24
12.4647 10.1268 12.3467 46 51 55
44.9052 -14.1924 -1.95018 39 45 51
-39.2808 11.3448 4.4487 39 44 48
-7.8884 20.8968 -6.60903 85 94 92
-37.3054 -2.61028 2.43341 31 35 44
-33.6538 -11.7542 8.46092 26 32 36
26.7833 4.09041 11.381 38 41 45
-26.8208 6.71293 -8.55222 72 85 84
3.40685 -19.4844 -7.66315 115 119 69
37.5742 -2.03618 -1.36791 68 78 84
-45.8495 9.41038 4.43173 47 53 57
18.712 -19.3349 -0.4104 1 2 3
-12.5697 8.82499 12.2589 58 60 50
31.6749 7.1415 -6.59496 45 47 53
9.86728 13.36 -6.1052 33 41 44
-29.353 11.6552 -6.50468 50 59 64
29.6998 11.1001 9.0239 47 52 57
23.2703 14.9174 -9.74522 95 114 115
-43.1339 -10.1926 -2.78397 58 70 70
-22.8916 -10.5668 -6.75997 115 132 90
-15.9604 -26.281 -4.06571 50 58 62
-12.0142 -5.53158 -13.4381 153 156 69
1.12561 -2.16666 10.5338 57 62 63
15.5321 18.4273 -2.25853 7 9 11
15.7663 13.241 4.85663 33 38 39
-16.6578 -3.36555 -0.959568 62 64 72
-5.29868 -16.9975 9.20824 42 43 36
6.52935 31.7664 0.865864 62 68 69
3.10149 29.0542 -2.21278 77 84 89
19.208 17.1694 9.83887 45 49 53
30.1836 -9.81933 -7.40147 194 197 102
-23.8423 10.3325 5.20318 34 39 41
-23.1369 9.71929 -4.72189 40 47 50
-1.93181 -10.2496 10.5534 43 49 53
-35.4413 4.68272 5.38454 2 0 0
-39.2334 11.2261 -3.37839 50 55 57
13.7044 -6.69449 -10.9547 183 178 79
-45.1805 -12.1262 -0.114824 44 53 56
28.0782 -22.3337 1.51079 20 25 26
-32.3409 -11.4438 -4.74339 133 149 77
-35.6865 12.7042 3.14812 44 50 54
-15.0129 -5.32952 -13.2237 152 158 88
-2.30977 25.5213 5.16703 54 58 62
-16.2149 -12.2185 -6.257 55 74 78
7.22703 15.0311 8.1872 9 12 15
27.8899 -24.1715 3.33769 36 43 43
18.7157 9.31424 -7.66036 17 15 24
-20.0693 -5.62172 -6.56062 13 17 17
1.16882 -1.67913 -9.91525 156 155 61
31.7912 -20.0368 -6.2312 96 109 109
28.4936 -11.6022 -7.23312 137 136 92
10.9139 19.1053 -0.106087 35 35 43
-13.9107 -18.2241 -8.26408 69 79 85
-10.2558 9.25222 -10.5751 61 75 75
10.9409 10.6293 12.3628 46 50 55
15.8386 -19.8326 -4.04408 52 61 66
10.8895 18.5859 0.181526 52 57 53
10.0902 -10.9502 10.1878 61 64 41
10.4344 0.621723 -10.6437 62 76 74
-7.68482 18.6312 -7.16373 64 81 81
7.0784 13.8918 11.756 30 31 36
7.66589 12.4144 -11.6327 65 72 79
0.193443 21.4232 -10.5762 188 186 102
-18.9611 2.13953 5.78552 27 33 35
-25.5547 5.31808 9.08057 48 54 56
-9.027 6.5523 12.8338 65 66 49
5.70982 10.6648 12.808 44 50 52
21.7395 -13.682 3.94695 17 19 20
17.49 20.5222 -1.20009 5 8 13
14.0226 -8.12649 10.8047 62 61 35
-0.381561 17.3831 11.604 51 58 64
20.1066 -0.279903 -11.617 93 102 108
-2.13213 3.55998 -7.79979 7 7 8
-34.8778 4.47957 5.14912 2 0 1
26.7457 -14.3725 -7.26989 145 151 105
-29.2827 3.07345 -2.84807 80 95 81
-39.2915 -15.4582 3.92397 5 6 7
40.1377 -3.48406 1.5693 17 19 24
-31.5494 -2.25499 -2.17942 8 0 14
-19.6738 -9.73082 -7.58023 121 129 81
-42.2746 11.1898 5.13618 42 45 49
-35.8368 13.2407 1.13507 44 50 53
9.66678 -3.81115 11.322 72 71 43
6.67618 14.9273 -8.99308 10 10 17
21.552 11.2624 -6.08949 17 21 29
4.50827 15.7834 -11.2268 78 85 85
13.3855 10.4429 -10.1601 26 32 42
41.5378 -6.99597 -3.46936 85 98 108
28.127 14.8912 -7.10097 24 29 31
16.1388 -19.4135 -4.31947 43 49 57
-4.2913 15.5165 8.86803 43 47 53
-30.0427 -4.19353 1.27451 9 8 9
-30.0628 13.7851 -0.279045 53 59 64
-15.4553 15.3622 6.88294 40 43 49
42.5112 -13.0412 -3.13849 77 86 99
37.8498 1.22249 1.06445 25 28 32
-13.5545 16.7687 6.74436 47 51 52
33.2305 -1.00083 5.06558 30 34 37
4.49337 21.0851 -5.07091 9 2 6
-12.6894 -1.4847 10.9481 26 29 34
-27.7506 -7.94196 -2.75281 55 58 63
11.1949 6.17114 9.7203 27 30 33
-25.8061 9.44109 -8.49033 64 71 78
9.3977 -1.12062 11.013 76 76 43
24.2503 -17.0794 3.57096 11 12 19
-17.5544 -15.354 9.56506 43 48 53
-9.70551 21.896 -3.10194 51 57 61
-4.21726 -19.2297 8.02354 26 29 34
7.05159 31.6884 2.09876 49 54 59
-20.3301 -6.62754 9.0082 41 48 51
-1.98833 0.720165 -12.0423 92 90 30
23.7507 18.774 0.218952 32 36 38
-32.0914 6.38297 -6.45987 126 134 68
-37.4279 12.2937 3.37818 46 52 55
-24.3429 -9.96883 0.242252 9 11 11
8.26089 12.2448 12.3242 37 43 48
24.012 -20.072 4.00582 21 27 27
19.7914 19.1531 -6.92022 51 54 57
30.8227 -23.6262 3.11951 9 8 15
12.9941 -11.3552 -9.59908 66 78 74
14.973 17.2433 -4.00865 43 63 53
-10.8162 6.81421 -11.7498 165 167 89
25.012 11.0085 -7.63266 32 41 41
21.3571 -18.7648 1.05489 7 17 17
-15.7266 -9.55661 12.8939 53 55 36
-42.5928 -17.0222 -0.979778 23 28 30
-2.18556 -16.8811 9.00083 31 35 36
-17.5046 -16.3407 -8.51887 70 85 89
1.11368 -6.21711 -10.7802 80 88 48
22.3667 -13.1103 4.14512 16 16 21
37.3643 -24.1114 -3.00026 103 113 121
2.85423 28.6281 -2.64462 82 93 99
-6.63249 7.51285 -9.6668 17 27 29
15.1652 -11.6023 -8.63433 53 61 67
-37.5175 -23.2787 1.40459 33 31 30
18.85 20.9434 3.10078 44 49 50
-31.365 -13.5821 -6.20482 160 167 100
-39.6191 7.21637 -5.15157 101 113 101
25.8583 0.0887775 -7.78966 9 7 10
18.939 11.7404 4.19867 4 6 9
-0.698978 -6.23427 10.8245 35 39 38
11.1098 24.4011 5.22366 30 35 40
29.2095 -12.547 6.36176 55 54 45
14.2726 -11.0491 9.43491 44 48 48
-37.1331 -16.8468 6.69778 56 60 63
-30.4808 -3.30566 4.08511 22 21 23
-18.454 -10.306 9.14698 45 51 55
2.36918 21.8006 -9.49924 18 25 34
-38.1444 -8.71566 0.180862 51 67 68
23.5204 -10.9622 -6.66505 60 73 71
-34.2694 11.9819 7.10698 46 51 54
21.743 -11.0124 4.03915 16 14 21
16.5487 12.3907 -4.47477 88 106 102
39.0351 -17.4867 4.36559 23 28 33
-18.6307 -7.78032 -8.02588 62 71 72
-0.761812 5.28778 7.32321 34 34 38
-5.0423 -15.6787 9.66153 49 52 39
12.4503 10.9346 -7.99971 12 8 17
-15.2069 -10.2931 -11.7958 69 71 46
17.6138 2.86722 -10.8714 196 193 98
31.0385 5.51468 -7.37183 5 8 12
-18.7066 15.5025 -4.99485 54 66 68
-40.4333 -5.58481 -2.45896 59 66 70
-38.6708 -23.4032 -2.90969 105 119 123
-31.3535 -8.09541 -0.724716 2 9 13
42.7724 -22.1246 -0.264656 52 63 65
-34.037 -18.4987 -4.7074 53 68 71
5.8335 31.327 -0.248753 60 66 72
-9.51581 -12.8391 10.643 32 32 29
-17.8892 13.3224 -8.24585 73 88 89
10.9992 15.6279 -3.35776 11 15 34
-17.4966 -21.5607 5.71418 35 38 42
-20.0936 -4.87549 -0.0808334 3 4 3
20.6357 13.7302 8.05183 1 0 6
16.3449 19.8979 2.85661 9 21 21
28.5933 15.545 -3.50079 43 49 49
-9.6481 -6.70316 9.46746 24 24 26
-39.4718 12.3556 1.96833 44 47 51
13.3685 -11.4117 9.52753 72 74 53
-36.3624 12.1119 5.71706 41 46 49
23.6795 17.1872 -8.70517 35 32 42
13.5065 10.5215 -7.25023 13 19 20
0.559685 -14.054 -9.3993 137 141 63
4.30637 23.3605 -5.29744 48 44 51
1.29313 -19.5493 -7.53846 106 113 75
-11.881 13.0821 7.91175 40 45 44
-8.28647 -4.46796 14.0089 51 53 48
7.82234 7.85033 -11.8953 62 70 75
-9.2017 22.3056 -1.81229 49 54 57
-16.9282 -22.1247 -7.1401 83 121 122
-20.2384 -5.44136 -1.4208 2 5 1
13.7832 -3.36619 11.0707 56 56 38
3.144 25.1647 -4.91616 46 60 64
11.4913 13.5525 1.70114 15 14 25
34.7116 -15.7412 -5.92685 84 85 67
-33.5466 -8.91177 -3.25077 19 25 24
18.7431 14.528 -7.07309 25 28 27
21.8393 12.4242 7.40189 6 8 12
-42.632 5.13165 1.53335 35 40 38
9.16893 15.4864 -4.53239 31 41 55
2.24259 16.83 -11.3559 76 88 89
-6.46754 -19.2166 -7.50319 45 49 53
30.8882 12.1699 -5.89997 25 28 26
12.3996 -21.0853 4.78284 18 18 24
-43.5606 -10.8899 3.67426 53 60 61
-13.9956 -4.09694 -12.924 151 150 93
5.50298 21.377 -4.86106 26 21 36
37.6677 -22.2703 -3.2339 63 65 72
-9.99646 10.4572 -9.06339 46 54 57
0.761143 -0.43228 10.1386 55 60 61
-23.2772 -8.70755 -4.23924 35 39 39
9.11382 21.1882 -4.15303 49 59 69
6.1806 17.1944 -5.39198 22 28 26
14.9365 -9.59393 -9.95848 90 102 98
-40.7831 -13.1491 2.12695 57 58 58
12.0246 -14.4893 8.6743 57 60 43
10.8153 14.918 -4.07001 34 45 40
-8.43096 17.7531 7.98 48 52 58
-42.4054 11.1317 -1.1191 43 48 51
9.02229 -10.5123 -10.3572 119 122 83
-34.4494 -13.6178 9.4994 41 47 51
-43.8749 11.2586 -3.11492 55 65 59
-36.2778 -12.0163 0.318504 1 13 11
6.69719 -2.8098 -10.8199 158 155 69
7.48845 4.37414 -8.82513 37 44 46
7.07617 9.69363 12.9821 44 50 51
36.757 -1.97331 2.00394 24 28 33
-6.26295 17.7902 -7.61152 90 92 46
8.43087 -16.412 8.18153 63 67 48
-9.31444 22.2954 -0.818024 48 52 56
-4.81603 -21.0113 -7.45264 154 157 80
5.10106 6.96509 8.4222 33 40 40
0.865145 15.0552 11.8005 48 55 59
-9.47337 -17.6663 -8.39142 47 62 64
18.5878 13.3001 5.47606 8 7 12
10.2753 16.8878 -2.45309 43 49 44
-28.6329 -24.5328 3.67572 35 39 44
-21.3915 -5.45884 0.305984 11 3 8
-18.4067 -14.9174 -8.14278 93 109 110
7.71985 14.3714 8.15132 12 21 21
-11.684 -0.136169 -6.37775 15 12 15
-44.9708 -10.6383 0.407078 34 35 37
22.1827 0.522346 -11.6431 105 111 113
-5.90224 24.0311 -3.64144 52 57 62
-42.4904 -22.0255 0.465031 41 44 46
7.61919 14.4868 7.39399 21 21 28
18.9115 16.7577 -9.72782 126 130 109
15.9578 6.1309 -9.65474 84 94 109
-20.8796 -9.10306 5.95 20 24 25
12.5586 0.156009 11.0857 46 55 57
31.7625 5.7399 -3.96479 3 5 11
18.7976 -17.7495 2.89879 4 6 7
-6.60375 17.76 8.51956 44 47 44
-26.6883 -9.07533 1.22223 10 9 10
20.0024 19.5095 5.83023 35 39 43
-36.0293 4.07519 0.182613 36 41 37
-20.1503 7.76966 7.66689 29 31 34
-39.0867 9.95837 7.38913 55 60 62
-13.9174 -11.5351 -8.45462 44 50 50
15.7243 1.67384 11.0775 79 78 44
41.8224 -10.5415 -3.60032 47 35 45
-40.4136 -7.62595 4.05803 41 45 50
8.77342 7.32269 11.9753 48 54 57
-3.4494 14.6917 -7.91866 31 40 47
-13.4352 13.9008 -6.77714 27 38 42
-26.7721 4.41132 7.40997 10 4 4
35.0838 -14.6252 7.82581 33 38 36
-41.2794 -9.01662 1.60016 34 50 56
31.2718 11.5 -6.71834 64 62 64
21.6057 -5.8044 -8.36988 4 4 12
-32.604 -15.1784 9.74577 73 73 43
-5.55561 2.37785 13.4581 37 40 48
31.4014 0.85746 -4.79831 41 46 57
11.1758 -5.85314 -11.2642 170 171 86
32.2426 -6.46484 -5.48927 0 0 7
-32.8481 -16.572 8.73332 50 50 40
-7.04815 19.3355 -7.32051 124 127 140
14.5753 -14.3437 8.18267 44 49 52
-21.5929 -6.76365 6.33888 31 35 38
3.85764 9.00621 11.1136 40 45 48
25.8289 -9.88507 -7.0641 66 74 53
19.0955 -15.9113 -3.32563 2 1 7
32.8696 -11.8505 6.59799 36 41 41
-10.9091 20.1811 6.36684 50 54 51
-18.8855 -5.8351 -9.67634 63 64 43
4.6935 -6.84128 11.1696 51 51 38
-42.7943 -19.8755 -2.15097 66 76 78
-28.0633 5.23884 -6.78589 89 99 95
31.4343 -22.4641 -2.58899 37 36 41
-3.93537 -1.31708 13.5231 69 69 52
-28.4661 -11.1839 8.86987 47 49 55
-22.4318 11.6964 -4.03221 47 56 59
32.6249 8.27716 -5.14807 54 54 58
16.9301 1.11102 11.1998 74 70 35
-5.89242 -23.0098 8.16751 43 48 51
-26.4294 13.3199 -1.22859 31 35 39
17.9807 -0.500835 -10.8242 81 94 93
16.4821 -11.6174 -7.82542 30 40 41
-26.8917 -23.0402 -0.336128 8 8 14
-2.61255 1.5487 13.6238 94 91 45
7.85099 13.2544 11.6576 27 29 35
-13.1968 -7.70227 -12.9882 103 109 51
-31.8463 -23.9459 2.02535 27 33 36
-16.4174 -2.3414 -1.09665 45 52 61
2.67115 9.41024 8.96039 27 32 36
-1.18787 -16.4062 9.13847 36 39 42
-25.2767 -4.21014 -1.35055 1 1 8
-15.8469 -3.41184 -2.13834 15 22 27
5.6217 18.5433 7.10699 8 6 15
-23.2066 9.44168 -5.55479 34 40 43
24.8447 12.0664 7.78346 24 28 29
-6.61556 23.5542 5.14635 51 57 60
-16.9219 -4.69384 11.9607 29 33 34
33.4445 1.80521 -3.09395 29 35 43
-12.1056 -1.99691 13.0635 43 48 52
-11.9022 -1.38251 12.9225 36 43 44
31.167 4.76674 -1.54486 11 10 18
5.83592 -7.61165 -10.851 175 174 107
-2.5038 -2.24887 -9.54438 52 58 68
-16.3953 -3.82162 -7.19715 28 36 35
-18.3091 -19.2111 8.04819 42 44 49
-32.2075 12.7589 3.92669 41 49 51
39.4643 -8.98446 3.29517 1 0 11
-6.60831 -3.52271 -11.3532 26 26 28
34.1308 8.8644 2.50685 40 44 47
-8.55741 -22.2817 -8.28534 63 69 69
-22.4604 -3.97586 3.28328 3 4 4
18.2197 9.8156 -7.76128 7 1 9
-26.2942 13.6423 1.08843 11 13 16
6.76748 16.9525 5.48973 3 0 5
-30.3603 13.2206 -1.52581 60 68 72
30.7953 -14.5011 4.80637 37 41 45
32.4611 -23.7741 3.20747 12 13 16
-12.8481 3.2419 -10.0672 59 65 67
-29.0057 -13.4478 9.27655 70 69 38
11.8508 30.4733 0.548058 14 20 24
33.319 -1.36494 1.61201 19 21 23
-12.2313 -21.1549 -7.20303 88 99 97
-5.5425 -4.13452 9.42223 28 30 33
9.65866 20.2243 4.31291 36 40 43
8.37673 -6.9143 11.293 62 63 39
-4.16993 -4.33142 -9.68765 50 62 64
-3.66551 -20.201 7.97908 33 37 40
-31.6421 -6.56771 3.42876 5 2 4
-6.30368 -3.7894 11.7191 49 51 53
-44.3416 11.4517 1.20391 48 53 56
30.5139 -7.84812 -7.54111 92 106 124
4.65724 14.7957 -11.5649 106 130 124
-5.54536 -17.9865 8.7716 29 29 34
-1.4531 -16.8074 8.97812 34 39 40
27.1244 1.91451 10.6245 44 49 52
26.4708 1.21929 10.5085 40 46 48
19.5791 -11.5118 4.8088 0 0 2
-18.0452 -6.39169 -12.4111 112 116 70
38.5597 -6.04639 3.48401 3 2 7
33.9628 10.0857 -0.843536 10 11 18
2.31782 -17.9459 8.07423 49 51 50
1.72933 -19.1855 -7.57701 142 151 68
12.0074 11.6789 -4.80849 24 27 36
-20.6636 -5.61344 -3.48523 24 24 25
14.8808 -12.3406 8.79221 45 48 50
22.7736 18.1363 -6.44602 38 44 48
-45.7899 10.0959 -0.86615 64 69 72
-12.4945 2.2305 -5.78232 23 42 38
18.8375 -18.9104 2.20168 19 21 26
2.45589 26.7295 -4.05595 75 93 101
3.67264 -7.79633 -10.6618 93 100 72
-5.29343 -25.4981 8.19762 46 49 51
12.3232 -24.045 -0.740326 12 13 16
13.0857 -13.214 9.06444 48 51 48
-31.9737 4.87503 -5.2661 99 119 105
21.3727 17.9754 9.19004 46 53 54
14.5121 -4.96902 10.9583 62 64 50
-36.6629 4.79005 -2.92411 82 92 79
28.6177 -9.87782 -6.53039 68 79 66
-16.1716 -9.23007 12.4839 53 55 38
-42.6827 -14.3006 3.25569 47 51 56
-26.7623 -13.4306 8.35642 44 50 49
-38.4163 -11.851 6.23797 36 40 42
-22.5976 12.0846 -2.91965 44 50 53
-13.7205 19.109 3.07832 44 49 54
-31.4067 -15.5745 9.17662 60 62 52
-25.6424 -17.9128 5.7366 36 41 42
35.0789 0.979517 3.75937 43 47 51
-18.9681 13.242 9.06617 44 49 53
-11.7845 16.5255 7.39012 42 50 51
-0.829708 3.27004 6.39635 27 29 31
3.81956 2.27884 8.99585 42 45 49
17.6252 14.9303 -5.77073 6 23 3
-8.90924 19.2283 7.76892 46 49 54
-14.1023 -2.91076 12.1082 28 33 34
-25.5275 -11.0247 -6.68545 119 127 79
6.87511 -19.3636 -7.83527 88 98 102
-7.34806 -21.7261 -7.69107 35 34 28
-32.5821 -15.9079 9.00172 54 58 47
21.8313 9.69302 8.27627 34 41 44
27.7331 0.329031 5.12379 23 28 31
-6.13251 24.1242 -0.70919 56 61 65
-38.8984 12.3009 2.69601 44 49 53
-35.5209 -9.04618 6.77408 48 55 59
-12.6497 19.898 -2.95031 57 63 66
-14.2451 9.79967 -10.492 86 86 63
21.7369 19.6677 -2.04882 32 36 37
-2.16469 -1.30669 -9.33796 11 14 20
4.12586 23.8298 -5.32463 72 72 67
-4.19667 5.98591 8.00367 24 27 31
-8.22465 22.5673 -4.65839 65 74 79
7.07802 23.5876 6.37582 23 26 30
-3.07663 -22.6715 8.01449 40 43 46
-10.2815 18.3888 -6.37305 83 93 99
29.6465 -4.50697 -7.54424 119 130 139
-36.4861 6.77793 -5.53426 102 116 97
8.30918 -18.8364 -7.8709 83 100 101
3.83346 -15.1812 -8.85239 75 82 87
-17.8323 -8.33912 -8.84169 53 61 57
24.6976 -2.70264 -7.89562 43 47 58
-3.37837 19.627 -9.4131 70 81 78
-42.2993 -10.271 -0.395275 19 26 29
-7.5744 22.003 7.29945 49 51 57
9.08422 -21.1749 -7.94888 85 93 103
-34.1279 4.66719 5.93298 1 0 0
10.2827 -19.6869 -8.01662 93 104 90
-15.5746 -26.773 6.24936 45 52 52
34.139 0.284383 4.69427 46 49 52
-1.01567 -0.811255 9.82402 28 29 30
1.84533 -16.1101 9.02547 59 58 30
3.19162 2.76679 -8.21087 52 59 69
-27.3639 13.11 -2.13901 63 70 75
-26.476 -8.4322 -3.59826 12 27 27
27.5798 15.6591 6.59063 39 43 46
40.4678 -24.5308 -0.0236969 77 81 87
22.8696 2.0333 11.536 69 72 40
31.0939 4.81038 -4.76633 5 1 8
-21.289 1.85476 5.6563 36 37 42
26.9147 -19.585 1.8265 11 16 17
-41.8661 -22.3544 -0.438343 64 67 73
-4.32883 -18.5506 -7.69219 96 105 62
16.0755 2.3993 -10.8992 197 190 91
11.399 -6.72977 11.3125 49 52 45
-40.2374 -21.1231 -1.25296 16 20 23
-19.4711 2.06497 -1.88843 18 19 19
-41.4923 -18.0376 0.332588 82 96 100
14.5332 25.2438 2.43964 16 19 23
2.79311 19.7974 11.4848 44 49 53
-12.0828 0.575397 6.24837 32 37 41
15.1527 17.7517 -0.643593 22 28 23
-5.40271 24.404 -1.99922 54 58 63
37.4423 -23.6141 -3.13845 119 130 141
25.7041 14.9133 -9.32752 85 94 103
12.0049 -13.4531 9.1518 62 64 36
45.2938 -11.6884 -0.781082 69 75 81
30.1237 -15.5269 -5.88832 78 85 89
-29.7964 12.1135 7.0541 43 48 52
15.4845 -13.4155 -8.06677 47 58 61
23.7115 -12.2015 -6.31392 79 90 90
30.2285 -21.2295 1.55639 20 23 24
28.8357 7.53329 9.43602 40 44 47
-39.2543 -6.1716 4.04957 40 46 48
-27.0194 -12.0995 8.85466 63 63 53
-0.405884 7.3516 -6.68987 59 64 69
-43.5645 11.3155 6.00645 64 70 73
17.5747 16.3218 9.65501 4 3 6
19.1744 -6.1665 10.9683 71 70 47
15.5841 -5.01952 -11.399 178 171 81
-16.2078 -13.9209 9.1443 28 31 34
1.68977 21.3637 -10.1861 39 57 54
-8.375 12.3292 7.54146 29 35 39
-8.40258 0.915825 12.5759 34 37 42
-10.7018 -10.2794 14.1616 79 79 47
-30.9736 -2.41247 3.78043 9 7 12
-10.835 -15.39 -7.00338 14 17 22
8.44672 15.325 -5.18013 14 11 18
-42.0606 -5.60059 1.44411 21 24 27
-29.3035 7.03754 9.69039 53 58 61
-32.8603 4.26329 5.63226 1 1 0
-42.5723 -16.6805 0.201466 59 64 70
-13.267 -1.35504 -6.25886 24 29 30
-9.47235 17.805 -6.68461 71 74 88
32.1319 7.65918 6.03484 40 44 46
11.9696 -10.4221 -10.3302 136 137 75
20.4034 18.9295 -7.06854 49 55 56
0.615601 26.8841 1.53099 50 55 59
-5.58491 8.71398 -5.61249 32 39 47
-9.23339 -0.240124 13.0026 37 42 46
11.0381 -23.7209 8.03364 46 50 55
-43.665 5.94374 4.51367 11 11 12
-16.3197 3.36683 -5.19376 34 45 44
0.629662 24.2424 -8.33624 40 44 54
26.1616 2.64158 -11.49 117 129 141
8.99724 13.5957 7.48451 24 32 32
14.836 15.5887 -3.99238 31 74 32
-29.701 -9.69711 -5.14732 56 65 67
22.8243 -16.4786 4.11717 18 23 26
-12.9508 19.2923 5.20747 52 55 59
-9.67558 -21.7459 8.8371 38 41 44
-1.94804 -21.8443 7.99897 36 41 47
-33.8843 -17.759 -0.803703 16 12 18
-11.7324 6.36899 -11.6617 76 88 80
-9.46916 22.1649 -1.36787 47 51 55
-28.868 -6.26395 -0.630774 50 60 48
-16.7721 -22.9281 -7.13371 105 107 118
-33.3429 -9.20199 -4.71456 34 42 41
28.7985 -8.63886 6.62303 54 54 47
31.9705 -12.3723 7.15795 36 37 39
8.94353 12.8699 10.5817 27 32 35
31.0661 -12.6223 6.47658 36 41 49
30.1662 1.21587 4.15346 30 35 38
10.8831 -1.52127 11.1882 78 75 42
23.7372 -11.1113 5.80003 37 44 46
16.3257 6.5198 9.91779 37 39 37
-4.73397 0.430657 14.0165 46 48 53
8.7297 -19.5963 8.06707 37 42 45
-32.9881 -9.5881 0.00587463 7 10 9
1.28566 22.4484 10.846 46 50 55
25.613 17.7507 -0.257198 32 37 40
11.2411 -17.6639 8.19515 46 54 57
-11.2589 -25.4389 8.92924 29 33 34
-34.4584 -11.0072 -0.5881 3 8 8
-22.7732 -11.417 8.80711 70 70 45
-31.3596 -7.26555 5.94387 6 19 25
35.9475 -19.4151 -6.34901 105 113 125
-5.2107 24.3834 4.37103 47 52 55
-39.2449 -2.92962 0.412498 5 7 17
-40.8028 -5.40039 -1.9716 36 44 54
5.62419 31.3959 0.809982 58 63 67
-5.04352 1.52837 13.8014 50 54 55
34.376 1.9856 -1.46758 7 10 16
-35.8977 -24.0111 -1.48293 3 3 9
23.6206 11.567 -5.963 8 16 21
1.97134 23.3057 9.67275 38 42 46
27.2871 4.08905 11.2787 36 42 45
-31.9136 -8.72648 -3.09531 4 9 9
-12.7531 -21.9588 -7.25513 87 98 104
12.7032 21.4383 -0.209267 10 15 20
26.1037 -3.33943 -7.92978 98 107 115
-12.8575 -0.721602 -5.9005 24 34 38
-2.63488 4.01797 -10.3225 14 7 17
-42.0724 -11.0133 0.515625 77 87 93
7.37523 -18.8113 8.05359 42 50 52
12.4187 12.1152 5.08123 4 5 12
9.47125 -5.50049 -11.1883 139 148 96
-26.3797 13.5929 2.50651 28 35 35
-19.4606 1.81509 -0.00900459 14 15 15
-22.5038 11.2459 4.62215 25 29 28
-8.32052 -0.613791 13.6505 41 44 49
-43.7868 11.3866 4.46146 51 56 59
-26.1156 11.5237 7.00065 18 22 26
-26.154 11.1839 -5.66884 46 51 45
20.2912 -11.5918 -3.9918 2 2 3
-0.00821304 -2.86279 -9.96355 122 127 75
6.45003 1.89624 -9.73501 58 69 72
27.3747 16.6455 -0.798378 34 39 43
-0.992737 14.1919 -9.16488 53 66 69
-31.7523 5.10847 -5.64401 103 125 107
-9.5431 20.0499 7.29301 49 52 58
-8.19547 7.15511 12.5128 45 52 57
-1.98962 2.02737 -11.9147 65 64 30
15.2455 7.56975 -12.7707 92 97 77
-20.6326 14.9239 4.15656 43 48 52
-0.63616 14.7047 10.5557 45 50 53
20.9403 14.2212 -8.39122 18 27 28
-17.0703 -23.0647 -4.02395 48 53 57
-15.7628 -9.29247 -13.7749 160 158 118
15.3974 -15.9987 -6.85965 42 52 57
6.72214 16.2395 5.84837 4 3 8
21.2214 2.00117 10.5738 62 62 52
-24.2309 -13.587 -6.85667 89 102 99
-1.11729 -18.1931 -7.7066 71 84 84
10.2605 20.5966 -2.85767 15 21 39
-30.9344 12.1183 -4.02632 49 55 59
-4.63868 6.27209 9.64214 27 31 34
-9.81147 1.77078 11.9561 33 36 40
5.75085 10.7938 -12.1738 47 58 67
-7.37331 5.66405 -11.9238 66 78 87
-36.4755 12.1276 -2.3637 45 52 53
22.5845 -4.77114 -7.16077 8 6 10
3.44999 -14.5036 -9.14821 122 126 57
-3.51706 -6.56465 10.6879 50 57 59
30.9377 -4.01885 -6.7688 27 27 32
-39.9225 -4.30644 1.85138 18 18 24
-10.0585 -10.5106 -7.67655 6 4 12
32.6342 -0.995651 -6.12489 74 85 89
2.02345 -10.5893 10.5792 56 58 38
0.907797 -18.087 8.15657 33 34 32
-36.3287 11.6691 -5.19922 59 74 77
16.7641 -19.1926 -4.3034 59 58 63
0.587757 -25.5644 7.86424 45 50 55
28.4307 -19.2539 3.24504 5 0 5
26.1239 -17.7371 3.17152 14 17 21
-11.4101 2.04679 -9.88948 31 44 45
-20.3296 10.4048 9.04585 45 49 54
31.3099 13.6949 1.12587 26 30 33
15.073 19.7601 -5.72651 25 33 29
11.758 -7.93933 -11.054 146 153 78
-33.8711 -11.7971 7.78246 29 37 40
-25.3286 10.482 7.76112 24 28 31
-20.2345 12.8345 8.38243 50 57 59
-10.6904 -7.97612 9.42183 16 17 19
13.5669 11.0989 -4.55514 36 41 38
16.4578 -0.96981 -10.9795 152 151 86
16.6765 10.942 -4.83351 35 38 47
29.8142 -23.9325 1.50315 16 17 18
-6.24585 -10.31 -6.71284 7 19 19
-10.163 -15.612 9.95673 38 43 44
6.06235 -5.97918 11.2401 53 54 39
25.4668 15.7659 -8.95504 77 82 89
16.0427 20.3894 5.44918 38 40 41
-12.595 19.2917 -4.6946 57 66 73
-1.94396 3.76803 9.07132 27 31 33
-15.657 -3.75608 11.3821 27 28 31
-27.3807 -9.13465 4.45595 8 1 9
6.61642 0.174375 10.5459 51 55 59
-22.9753 -9.48656 6.18998 25 30 31
-13.1464 11.3102 11.1404 42 46 53
0.830357 -23.063 -7.68496 89 100 85
-10.0247 -10.5172 13.4458 61 62 35
8.57582 -19.4175 -7.9002 84 89 91
31.6261 6.04146 4.25745 12 13 15
8.50608 -10.908 10.2905 63 65 48
-6.76802 23.625 4.16506 49 55 58
19.0904 -18.7018 -0.104866 6 3 6
31.7102 2.40911 -0.343323 6 3 10
1.86542 -6.23659 10.9913 65 65 48
7.02718 31.5488 -1.09466 67 73 77
3.83154 20.817 -8.5752 9 2 9
-11.3159 -21.319 -7.47713 92 101 104
-41.0101 -11.5005 1.86169 52 51 49
36.9398 -2.45117 -2.74047 88 93 96
1.08122 26.3441 3.80691 40 45 49
