ply
format ascii 1.0
comment Created by Open3D
element vertex 1405
property double x
property double y
property double z
property uchar red
property uchar green
property uchar blue
end_header
6.08514 6.90668 1.01883 24 36 50
-6.58977 8.55909 -2.59045 3 23 16
-11.7151 0.504587 1.84582 64 55 31
3.79309 1.72342 12.9752 53 48 23
5.23804 7.04898 -14.3795 22 41 32
-7.99785 12.8991 5.36981 63 51 22
-11.525 6.22211 12.7967 35 48 65
-0.9752 10.5276 2.75664 24 42 56
5.8922 13.641 7.24261 17 34 48
-5.83527 9.21462 -12.3761 4 30 19
-12.5137 11.1697 8.12202 31 45 51
5.56233 -5.22364 -3.42992 4 30 17
-5.94876 9.04289 -8.49299 6 23 14
8.00014 7.37613 4.20936 54 45 28
3.88823 7.13767 -0.703417 0 20 10
-9.15685 -1.63985 -5.57582 70 58 33
-0.485591 10.2752 1.63648 0 22 15
6.84886 -7.17811 12.7929 57 49 29
-9.12382 2.01162 -5.43209 65 55 31
5.02847 -4.08438 -3.65849 46 51 40
1.24327 -5.96504 12.7027 53 47 25
-9.55882 1.94441 0.390532 70 59 35
0.317258 9.96973 -0.86747 2 28 19
3.79065 4.76421 -13.9219 64 62 44
1.12836 -7.8186 12.7559 55 49 27
4.52578 13.1503 5.45556 24 41 56
4.47132 2.06558 -6.87959 65 54 31
-8.18656 0.383408 -14.2918 63 59 43
4.02834 7.42087 -4.71603 27 46 37
10.2718 -4.52854 1.21068 5 33 11
-5.04205 10.0102 10.0176 23 37 47
-9.02386 2.75211 -6.86842 63 55 35
4.32583 -2.24183 12.9492 58 49 29
0.530552 10.5118 -8.57969 7 27 21
11.952 -6.71044 9.54697 25 34 19
12.4947 -9.00496 8.81727 11 41 16
8.57415 7.22048 1.58665 16 32 47
-5.50175 8.85835 10.759 27 42 58
2.7262 -5.54374 12.7058 56 46 25
11.2176 -6.32933 -4.09448 16 35 18
-8.86656 4.46309 -9.37384 65 52 30
4.87501 7.27462 11.8285 22 33 40
9.03182 -5.35091 -3.60063 5 35 10
8.16476 3.83672 12.5001 40 51 66
-11.1739 -5.59222 0.11499 71 63 39
1.88513 6.53379 -14.0429 64 63 43
-7.75937 8.17013 11.4033 28 44 54
9.15498 -5.99919 -13.2447 2 27 2
5.72029 9.74077 3.1225 17 36 46
0.808559 9.5869 2.41788 3 26 27
-1.75381 11.8896 -6.42682 11 30 21
-8.9214 -5.82785 -13.0779 78 71 48
5.80677 1.34182 13.0371 54 49 31
9.94755 -3.25209 7.36583 49 40 25
4.4955 7.21173 -7.61641 0 20 14
2.33689 -4.96342 12.7088 54 46 27
-5.39892 -0.961859 12.826 63 55 31
10.6237 0.153717 4.50996 28 41 49
2.76901 13.1088 7.71085 17 33 45
-11.4778 12.2502 8.63313 40 51 57
-10.2993 7.00894 0.715032 16 33 37
1.65961 9.72256 -13.6074 18 39 31
-11.7541 -1.23625 1.29502 66 57 31
-6.08454 8.87474 -2.83694 5 22 13
12.3807 -6.72733 7.56573 17 33 15
-9.34304 -8.18394 12.7665 64 63 44
-3.27574 10.9745 -11.9826 11 40 29
-7.298 8.08585 0.991593 1 25 18
8.69328 2.51135 7.96808 29 44 54
3.75066 8.12052 -8.44209 3 21 13
-9.078 -4.80659 -6.40257 68 59 36
-1.05003 11.7628 -6.60562 11 37 24
4.12128 13.8546 6.88828 22 38 53
-10.8505 13.5941 5.98671 26 42 59
0.47517 6.62254 12.3012 22 34 46
5.31454 9.25739 10.5049 25 36 42
-9.20856 -1.339 -3.66178 70 63 42
11.5096 -5.73035 4.40823 0 25 1
0.474327 -8.33431 12.7293 54 53 35
-9.51619 -6.44606 -0.251863 76 65 40
3.86518 -5.78731 12.7068 54 45 26
-11.8086 -2.40137 1.67036 67 63 41
-9.18698 2.51755 -3.83608 63 62 41
-8.91976 4.22949 -8.90149 63 55 33
5.58815 -4.57896 12.778 53 45 28
10.3101 -4.26233 6.55788 63 54 30
-11.6448 7.82819 4.08237 58 60 42
6.47577 -9.3135 -13.8252 56 56 37
-9.27512 -0.487122 -0.989326 70 64 40
7.86617 -5.04788 -3.5729 4 26 5
7.64367 2.49079 12.9848 58 53 31
-5.75962 11.5241 8.84103 26 43 57
0.886639 9.62235 -0.996144 8 32 22
-8.14435 7.53052 0.478189 0 25 14
-1.28642 -8.66264 12.7785 57 50 32
10.1233 0.089035 11.1653 30 44 53
-6.58147 0.862507 12.8264 61 52 27
-11.8543 -3.1648 1.078 69 64 45
4.35224 4.16351 -13.9714 63 57 40
2.80291 -4.15999 12.8265 55 48 27
-9.18217 1.27602 -5.46599 65 60 39
-9.11723 3.02472 -5.03918 67 56 33
-11.6327 5.43905 5.94994 65 56 34
-0.784713 11.8664 -14.1915 13 39 28
-2.33846 11.6531 -8.7578 8 35 21
-9.62118 6.51413 -1.52771 2 17 4
4.62874 0.117367 -3.9411 57 53 35
-11.7947 -2.39847 1.29317 69 64 44
-9.22811 -0.638195 -2.40547 69 57 30
-9.15518 0.861212 -3.30351 67 56 32
8.84525 -5.47399 -9.87242 29 47 39
6.62933 -3.52181 12.864 56 46 25
-5.55803 9.15402 -1.18311 1 22 14
-1.26709 12.0202 -12.3711 13 42 31
-2.51898 11.2829 -1.85269 0 26 11
4.65886 4.02814 -8.08501 69 58 33
9.77672 -4.01267 10.8 61 51 26
3.79788 5.96093 -14.186 58 54 34
7.77535 1.003 12.1071 73 68 50
-9.17564 0.297503 -5.63046 66 56 35
8.94903 -0.858122 3.2257 114 105 86
3.10641 8.59507 -12.3941 19 42 32
5.96496 -3.29143 -11.1206 12 31 8
-11.747 -1.4749 0.987163 65 59 34
-9.21175 6.75341 -8.60221 5 21 16
-11.0957 12.8005 5.58611 22 39 56
-7.00813 8.43806 -13.7944 5 34 23
10.2636 -3.32715 5.57652 54 52 36
1.24583 10.0264 -13.3901 5 36 26
-12.2358 -8.43953 11.0193 73 68 44
6.67203 8.62799 10.8915 18 36 46
-7.72433 7.3729 -15.126 6 22 11
-11.699 1.58515 3.96704 63 56 33
-5.2253 9.46559 -9.05085 9 28 19
-12.177 -6.11919 11.9 69 68 50
5.68221 -7.07442 12.79 57 53 35
3.01265 12.6689 7.88056 20 38 56
11.3872 -6.30948 -1.42113 0 27 4
-11.7157 0.712318 1.74033 62 56 30
4.84248 2.6508 -13.0477 61 57 35
3.76266 10.2617 -4.48858 8 35 25
-1.36868 -1.51631 12.9345 57 52 31
2.9909 5.68508 -13.9938 66 61 44
-11.6287 -0.903482 12.7418 61 56 35
3.2036 11.1456 -4.32237 3 20 13
-5.51912 12.4856 8.01998 29 44 54
9.52141 -3.69591 -12.3346 20 32 29
-4.43702 9.94239 -1.0821 0 22 11
-8.90924 3.56987 -8.84055 65 52 25
-9.34226 -2.02969 -0.439799 73 69 48
5.03403 -2.89338 12.8588 54 44 22
11.3993 -6.92517 -5.04347 27 38 32
-10.2379 7.09023 12.27 33 48 60
7.2292 1.31097 13.0335 59 52 33
-12.2031 -8.14305 5.7297 78 71 47
-12.4005 11.9788 6.94266 31 40 54
-9.1855 -0.310252 -4.00878 65 56 29
-9.11494 4.61991 -4.33331 64 55 31
-11.699 5.09121 6.27429 66 56 32
-7.79955 7.8742 -2.39213 3 23 17
-4.70132 9.81704 -1.71664 4 25 19
-10.4649 6.13591 -1.67503 10 30 28
4.25451 1.70936 -2.75094 65 62 42
4.62358 1.73732 -7.00708 61 53 30
-2.70567 9.37739 -14.3152 47 48 35
-11.7567 4.8441 8.7781 65 55 29
11.0373 -5.46898 10.4486 78 62 34
-11.7951 3.40649 7.52992 63 53 27
-10.3134 6.1595 -4.90764 12 34 23
4.21192 0.984806 -2.63881 67 60 39
-5.74054 15.6952 4.41551 62 56 41
-9.00275 -0.00784349 -9.4715 67 57 33
-7.50771 12.3892 3.62385 69 61 37
5.52618 6.31803 0.679885 23 38 55
-9.29787 0.279904 -1.81512 72 62 38
4.70415 -3.87778 -3.58862 54 48 25
1.92262 -8.17974 12.7011 54 50 28
-9.4524 -2.71638 -0.0544116 73 71 48
-4.40079 12.6802 7.81944 27 43 57
-9.39951 -4.09153 12.7359 66 59 40
-7.84408 7.84542 -11.5304 8 29 22
7.78335 0.230404 12.2257 68 68 53
5.50625 6.63352 -11.0018 28 41 31
-12.1746 -8.74827 11.2858 72 67 43
-11.733 2.89569 3.90174 63 54 30
-11.9036 -1.03021 9.48485 64 58 34
7.70385 10.5452 3.67973 22 36 48
-9.04981 -7.46237 -10.2711 74 67 42
-5.80828 9.02212 0.63288 2 20 8
-4.39536 9.96257 -0.675683 6 23 11
-11.704 0.701424 11.6603 59 53 30
-12.2739 7.61023 1.57598 33 45 48
7.85941 10.5285 9.56795 20 36 47
-8.78084 -5.33186 -10.2795 75 62 34
11.0692 -5.80882 9.90927 79 75 51
-1.46989 11.7625 -3.82336 19 38 29
-9.26875 0.223709 -4.38229 67 57 39
5.18898 -3.76877 -9.81574 28 42 10
-9.21012 3.53093 -3.28667 65 64 44
-9.05023 0.193105 -9.06925 67 59 37
-3.8102 10.7253 3.11325 24 40 52
-11.8674 2.53924 8.10491 62 53 30
-11.3255 10.4512 9.70922 36 52 67
-12.0202 -2.95993 8.61278 65 59 34
-9.18464 -1.94729 -5.61181 70 59 34
-5.60699 9.2949 -9.13704 21 36 28
7.01755 2.37266 13.0392 54 51 36
9.11152 7.85039 3.09819 38 53 52
-12.4858 9.87335 9.98073 33 47 53
-2.18946 -9.46838 12.5965 53 47 29
-6.60439 6.14252 -14.2919 56 48 28
-1.74628 2.14148 12.9378 53 48 31
-6.24635 6.46548 -14.3134 56 54 35
-4.67703 13.5106 7.39343 29 43 58
-4.64696 -8.50619 12.7591 62 60 40
-5.83535 1.32509 12.8686 61 53 33
2.15926 -8.92627 12.7332 52 49 26
-9.12634 2.83227 -5.84604 65 58 36
-9.55644 6.56601 -11.8263 10 32 15
4.40077 8.04903 1.74436 19 35 45
3.00548 10.1795 -3.70979 7 4 3
-4.22564 10.0768 -0.647521 7 25 16
-1.96458 8.06942 11.3757 24 38 50
4.9114 -0.041544 -7.99442 32 29 23
-5.07184 13.6204 4.79213 72 66 45
-3.00673 10.8676 -0.791552 2 26 19
7.92302 1.36661 1.92716 69 60 41
7.67944 6.56249 6.87575 33 27 14
-10.5974 3.75635 0.493884 64 56 34
9.56546 1.54641 4.93919 26 41 57
-5.19436 7.27527 12.057 19 33 44
-3.68686 10.6709 -6.86155 14 38 27
-12.0167 -3.86098 10.98 65 58 34
-2.18195 6.86875 12.2326 22 35 46
-1.40267 11.8129 8.66152 24 40 50
-7.68595 6.88135 -15.1248 20 30 17
6.09395 5.93298 0.517983 22 39 51
5.78847 2.394 13.0207 52 49 28
-8.07367 7.7021 -2.89429 4 26 19
-12.2897 -7.47017 8.43341 74 71 49
-7.40941 8.78207 2.01258 26 39 47
-4.54125 10.1074 9.93596 24 38 53
-12.5406 10.708 4.65041 32 43 55
8.10225 -0.179943 2.43374 67 62 44
-10.7066 0.456648 12.8598 67 59 40
-8.98103 0.853076 -9.88197 60 47 21
-9.03203 -3.39735 -9.21373 71 61 39
-9.13839 -2.31909 -7.70502 70 64 47
4.60379 -6.4826 12.6947 57 49 26
-11.6296 7.66155 11.6826 36 55 73
-11.6665 4.8598 -0.051286 45 48 44
0.615664 -7.10864 12.7567 56 50 29
-10.6586 12.2979 8.55794 26 49 59
9.37053 -3.78088 -12.8362 13 33 21
2.14218 10.1897 3.30889 19 39 53
-8.85795 -4.3827 -9.64852 70 61 31
-9.28774 -2.24293 -2.80068 71 63 39
11.5291 -7.28333 -3.6254 6 35 12
10.3473 -5.79694 8.58736 52 49 30
-7.28299 6.01886 -14.4294 51 50 31
5.51878 -3.23674 -10.0926 79 81 57
10.1889 -6.77241 -12.3188 4 31 10
11.9165 -5.61624 7.63226 2 29 8
-6.29752 15.3842 4.50335 60 56 34
4.52705 -0.0703945 12.9787 58 47 27
-1.13777 -3.83648 12.7554 54 47 26
5.77944 -4.43163 12.8189 54 46 28
-1.31509 -5.27944 12.6916 57 47 25
-11.8971 -1.29116 4.97559 69 59 33
-4.03153 10.2878 -1.53278 8 33 21
-8.98183 -0.465677 -10.3303 66 49 27
10.6872 -5.22552 -1.67011 32 34 20
9.22547 11.4769 5.81674 38 50 60
10.6228 0.261322 4.29323 28 41 50
-9.58049 6.66063 -14.0792 13 38 28
-4.15049 10.1865 -6.92628 4 25 12
-4.15608 11.3246 8.99327 25 40 53
-11.7478 5.60257 8.27686 66 57 35
1.18259 -5.69254 12.7109 54 49 29
-0.667198 7.86024 -14.0302 64 59 36
-9.15771 0.960099 -5.55077 65 56 30
-7.81495 15.1703 5.33621 63 55 33
8.18254 3.29766 7.40562 63 57 38
8.98987 -5.42673 12.6899 56 45 23
-6.70718 9.5331 10.4219 26 42 54
-6.86302 8.47853 -8.93915 12 32 22
4.77544 2.61859 -9.85641 67 60 40
10.1332 -4.12827 3.41222 61 51 24
-11.3765 -1.30242 12.8094 61 59 40
-12.1018 -3.55684 8.54979 67 64 43
-9.51447 6.4895 -0.811773 3 20 10
1.39057 7.20061 -14.0389 60 60 39
-5.6185 9.26644 -5.60641 7 30 18
-11.7881 3.40766 6.07938 64 54 30
-12.5546 10.6278 8.85937 29 42 59
-0.169598 7.61736 -14.0176 66 61 42
10.8421 -5.1166 4.16376 27 32 13
2.46086 9.16548 -13.5379 15 38 24
-8.96292 -6.31293 -12.3077 80 69 44
7.74616 4.05911 9.84682 74 63 42
6.16728 2.13258 13.005 55 48 32
4.68225 1.05896 -12.3559 70 64 40
11.5262 -7.15867 -7.04861 23 37 30
-8.95714 -1.62717 -9.90061 64 52 23
-9.9558 4.90166 13.7838 34 45 53
10.8393 -7.08861 -11.5179 20 38 21
4.71281 5.88252 -14.4738 54 52 34
-1.10803 6.72095 12.2816 19 37 56
-5.50162 15.6605 4.46401 61 58 38
-11.0519 9.30181 10.5755 36 53 64
-10.3862 12.0401 8.72091 33 47 56
-9.29948 -5.92495 -2.77443 76 61 32
8.21906 -0.166049 2.70572 67 60 40
-11.8728 -3.21371 3.32822 68 62 40
7.65681 6.8679 1.08589 20 33 44
-8.29002 -8.05929 -14.3855 74 67 45
5.81999 8.76899 2.44664 19 34 49
-2.62014 0.678188 12.8828 56 47 25
-2.66974 -6.12961 12.6596 55 46 23
-2.54335 11.3199 3.62123 17 38 52
-4.04734 10.3377 -8.06253 3 26 16
4.82065 7.24971 -13.3213 5 34 24
3.15994 8.30575 11.2236 15 29 37
-9.12242 1.69222 -4.43045 61 50 24
4.79756 -2.64391 12.882 55 47 25
2.88304 11.8019 4.4755 19 39 56
-7.32976 6.25307 12.7108 23 39 54
-8.87586 -1.64301 -10.4333 66 52 21
9.06038 5.26421 0.51427 32 40 43
-9.29613 6.63165 -0.836074 7 21 18
-9.26342 -2.70627 -3.93713 72 66 44
8.98927 10.2869 9.40953 28 46 58
7.89592 -5.59809 -4.07302 5 29 16
-9.10245 -8.15805 -9.32596 76 65 40
-6.15703 8.78394 -5.91561 4 24 13
8.00668 8.73384 5.83444 68 55 35
4.36888 -5.25134 12.7562 56 45 24
-6.10271 8.83493 -0.6851 9 33 29
4.25331 -4.7347 12.7508 55 44 24
-6.95085 15.3918 4.74873 68 58 38
-11.4726 8.88303 7.15145 68 56 33
-12.3656 10.9358 9.31163 38 48 60
4.04348 -4.85732 12.723 54 43 24
-0.691243 3.64714 -13.8958 12 15 13
5.36291 5.96438 -4.32951 5 27 18
7.76241 4.62021 8.6307 68 70 51
-4.3249 10.0135 -1.99853 1 22 11
-11.862 0.043489 5.46422 65 57 34
5.82068 -5.73031 -7.93454 54 54 45
7.81043 4.81481 6.46045 62 59 38
3.83978 -5.65893 12.7041 54 44 26
-11.9445 -4.91728 4.19801 69 63 40
-5.09027 9.58379 0.0944071 6 30 25
-6.06698 8.90947 0.266135 2 24 15
-11.6424 2.2705 3.84025 62 52 27
-0.395664 11.4321 -8.53039 8 28 19
12.3483 -6.85511 7.83277 7 29 11
7.69777 -5.20801 -3.64988 3 28 6
-11.8913 -0.880816 10.3005 64 56 33
-12.5719 9.26851 9.43129 30 45 58
-9.218 -3.95386 -5.8953 72 63 40
-5.1936 14.0127 6.85859 44 49 46
7.94458 -6.56754 -5.01626 21 40 31
-12.0002 -3.91633 5.74312 72 62 35
3.70246 8.20978 11.3295 20 35 45
2.93369 5.99677 -14.0514 64 61 46
-9.71671 6.53689 -2.61703 5 18 5
-9.24323 -3.27771 -3.66929 73 63 37
7.9618 3.78058 4.48727 65 54 34
1.92596 8.19467 11.3564 20 34 46
6.5908 9.72888 10.0918 15 34 47
-6.99986 8.30321 -7.81469 7 30 20
8.41746 -6.5692 -5.25701 25 46 35
-5.16892 14.5489 4.60374 75 70 46
1.08085 13.7243 7.26878 25 35 48
3.81444 7.94494 -8.56577 13 29 22
1.78755 10.0739 3.1778 16 35 49
-6.97888 9.63206 2.60783 23 40 52
-6.98822 -8.80886 12.789 62 61 43
-7.6805 5.38976 13.3699 31 47 59
-2.72355 11.1035 -2.05307 5 25 9
-9.0768 0.723388 -6.84047 62 48 25
8.96997 8.93152 9.33292 44 50 52
12.0696 -6.91982 9.86648 22 35 22
-6.86591 8.39447 0.362663 5 22 16
5.95337 11.11 4.14274 21 31 46
-3.77285 10.4801 -2.74559 9 35 24
-3.2906 11.0311 -12.6839 12 40 28
-5.8852 9.0379 -6.75254 5 24 12
2.78778 7.36486 11.8253 17 34 48
2.33562 9.19993 -12.5901 17 37 27
0.722304 12.0521 4.57306 23 38 52
-6.11417 8.86908 -3.7591 6 24 17
5.98481 -4.7783 -3.34348 6 23 9
3.46357 6.51484 12.4065 22 34 44
7.4575 -4.08654 -10.2819 19 42 16
-9.48824 -2.94416 0.060359 72 69 45
-8.05343 7.63217 -0.502065 9 29 27
-0.783388 10.9169 -0.380687 12 33 26
-8.7523 7.18521 -9.25982 8 31 24
-9.15934 1.39586 -6.23665 63 57 35
-11.733 14.0159 7.09769 43 59 70
4.41392 5.29069 13.4288 27 37 41
-0.0434666 2.66845 12.9854 52 46 23
-9.25905 -4.78754 -5.314 75 64 43
-3.39648 13.0859 5.38002 24 39 52
2.35545 -3.35123 12.8349 53 46 25
-7.12315 8.29217 -2.99619 9 28 21
7.70296 4.02023 10.6706 71 68 54
-0.419019 7.73864 -14.0206 64 59 36
-8.50904 7.24864 -0.499643 5 19 9
-0.850312 11.324 -2.79913 11 34 25
-8.98055 9.8341 2.96367 24 38 50
4.55796 6.93313 -6.58092 1 17 9
5.80878 -3.12148 -0.0488801 70 69 46
-2.91167 -6.16117 12.6769 58 48 26
6.68844 -5.81389 -8.56765 37 44 34
-11.2531 13.0121 7.74065 54 56 46
-12.0225 9.50786 10.4931 39 53 65
-1.60993 8.34703 -14.0245 65 61 42
-12.7349 4.12202 13.7919 37 44 50
-0.103249 11.5034 -5.20618 0 19 12
3.36885 9.30903 -7.00836 21 18 10
-6.64854 8.54557 -0.971264 1 21 10
-7.40199 13.6295 7.45714 37 51 57
-5.38274 9.52386 -11.9896 10 35 21
-9.98578 14.061 6.94664 50 62 71
-2.74844 11.2248 -11.8366 5 30 17
0.829338 7.1347 -14.0268 66 63 42
-9.09735 -5.92831 -6.29341 74 62 37
9.96034 -3.82536 10.3034 61 58 38
0.657602 9.51836 -14.9689 15 34 22
-5.24668 9.51648 -9.75194 5 31 20
6.49782 -3.06051 0.191772 44 57 38
-4.48044 9.92914 -0.265137 2 21 5
-10.0661 6.09222 -9.75789 13 31 13
-9.11382 4.95383 -7.91247 58 45 18
0.0017488 10.9969 -13.1002 10 36 27
-7.50798 14.5287 3.76549 60 56 37
1.96269 -9.06691 12.6953 54 49 26
4.82665 2.51248 -12.6564 66 59 43
6.21094 2.01487 0.593842 68 66 46
-1.37765 2.77717 12.9854 52 47 24
4.47575 3.97561 -13.9454 62 56 40
7.55968 10.3303 9.65291 20 33 43
1.76784 -9.20959 12.6565 53 47 27
5.24487 -0.866233 0.497826 74 74 54
-1.14949 0.390491 12.9554 58 50 32
4.63716 -1.83195 -12.7747 62 52 32
1.55699 12.9215 5.36708 21 40 54
-8.00114 11.8881 8.77617 35 49 55
-10.5012 11.3986 9.0407 34 51 66
-11.6461 7.63082 7.78906 65 62 38
-2.64209 11.3248 -3.83635 19 40 29
9.28883 11.6063 5.50174 28 47 60
-0.481041 13.9735 6.14629 20 34 44
8.32245 -8.18155 -13.4496 1 29 7
-4.83176 9.6881 0.256446 4 28 22
3.34732 8.03694 11.4445 22 33 39
11.7326 -7.7741 1.13027 12 39 24
-9.33842 8.39697 1.87758 19 35 50
4.76193 -2.68286 -0.533856 73 69 49
-11.7879 2.02575 6.92192 63 53 29
-11.7161 4.2321 6.06833 65 54 30
4.16898 8.32682 1.99433 19 34 45
-11.8317 1.74906 7.61409 61 58 38
4.85679 0.125929 -8.56814 62 56 39
10.9449 -5.70528 2.14214 0 24 1
2.99068 -3.28597 12.837 56 47 25
-7.90466 8.33451 1.75421 15 37 46
9.9211 -4.40128 11.6793 51 44 26
-11.906 -2.94033 4.15245 70 62 37
-2.5299 11.2759 -4.88102 15 38 23
-1.66338 8.83507 -14.0277 63 58 35
-4.87029 9.77316 -0.522171 3 28 17
10.2789 -3.57529 8.36214 66 59 37
-12.4815 9.3436 4.241 38 44 44
-9.09001 -2.65034 -7.84038 71 61 40
-11.9075 -1.74169 6.85505 64 56 31
6.14552 10.4197 3.55065 24 39 53
4.956 -1.41161 -8.55836 52 53 36
-9.30862 -1.38712 -1.34606 72 66 45
-10.4247 11.0177 9.39165 36 50 60
7.62218 10.8541 3.96141 20 39 52
-12.7745 5.52357 13.097 26 45 52
-11.64 10.4203 3.66777 24 38 49
11.51 -7.78238 -6.45274 18 33 25
-6.85556 8.42292 -0.0458301 7 25 19
5.59877 -5.05547 12.7562 53 43 24
-5.10768 13.281 4.10712 71 72 49
-7.67415 -3.80827 12.7378 66 57 36
-8.10139 7.69087 -1.5827 7 29 22
-9.16594 -1.79414 -5.65282 68 55 30
-9.20265 0.79327 -3.65052 66 54 27
-1.07879 -1.1072 12.9192 57 51 31
6.36346 9.77337 10.0738 17 35 48
-2.169 11.689 -7.22486 9 30 20
-8.83485 -4.64013 -11.7993 76 69 47
9.03296 11.8988 4.85994 21 37 47
-6.98659 8.33656 0.366248 5 24 18
3.89181 9.61283 10.2488 25 36 46
10.3244 -5.36079 10.1132 63 57 38
-9.23281 -1.11004 -5.2087 67 62 40
-1.94199 11.1933 3.29179 23 36 51
-8.35139 -5.2947 -14.4111 64 51 25
4.88678 1.35077 13.0152 52 48 31
6.17421 13.689 7.12957 18 36 49
1.59443 7.54008 11.6312 19 36 49
-5.78501 9.17355 -7.56947 7 33 22
7.98805 3.54004 5.49055 67 61 39
11.5181 -7.04948 11.8396 7 30 9
9.12599 -0.987015 2.91581 101 95 68
5.15059 7.01274 -12.5309 11 35 26
3.85387 1.50539 12.9728 55 48 30
-9.23091 -0.514844 -2.67936 68 58 31
8.28609 2.97819 9.69669 58 55 42
-8.9978 12.1765 8.59734 31 46 57
6.40717 -3.13443 -0.132418 44 55 32
-3.81998 10.6095 -9.96147 10 29 22
-12.1488 -5.30987 8.83617 68 61 37
-8.47693 8.63979 11.1179 27 42 54
6.43107 -5.72436 -4.18398 33 49 30
4.75291 4.62611 -9.12998 64 64 48
2.58869 -1.95646 12.9141 55 47 25
-7.28818 6.71485 12.3554 23 41 52
10.2978 -6.18599 -4.45805 15 28 24
5.98591 12.4171 8.02886 19 35 47
-9.1742 14.0402 6.96177 35 52 67
-4.71166 9.82035 -1.95343 4 28 20
-0.317085 12.4326 4.76256 22 38 48
-9.20762 8.17701 1.62855 22 36 49
5.21571 0.258059 12.9079 54 49 29
1.07993 9.32941 10.4722 32 42 50
0.0105319 8.8314 -14.2144 55 53 37
-9.37156 -7.24305 -2.68664 78 65 38
-12.1475 10.1965 3.56022 26 38 49
-11.6322 -1.6432 0.455727 66 62 39
-7.51105 8.0266 -3.67051 1 28 15
-9.06422 -1.92806 -8.8329 68 61 36
4.79016 0.981365 12.9689 57 47 25
4.54466 7.5925 -13.8071 16 39 29
-7.36229 8.44168 1.79548 25 40 52
-9.1781 2.2023 -3.45087 67 59 35
-2.8317 10.761 -14.9659 8 29 21
4.77265 2.72956 -9.93928 65 57 36
-4.79135 9.7956 -2.38996 7 36 20
-11.727 4.98697 6.47291 67 57 32
1.09798 10.1969 -11.8205 14 41 31
-9.14836 1.62427 -5.58474 66 58 39
-9.25034 -1.98251 -4.67185 73 62 38
-9.04319 -4.44681 -6.95186 69 56 28
7.52279 4.93975 -0.19531 31 39 49
0.651664 7.07495 -14.0786 68 62 42
8.70808 -3.4932 -0.328753 7 31 4
-11.7256 1.82779 4.30402 64 59 38
3.24915 -1.57668 12.9352 55 49 28
10.3416 -4.24199 -1.17231 17 27 15
3.78261 -3.48953 12.8782 56 46 26
4.78357 4.46697 -11.3141 64 61 39
-7.58576 7.9267 -0.769172 3 23 16
6.1509 -3.27288 -13.8365 15 39 18
-3.94618 10.461 -9.53494 10 31 20
5.15836 -5.65189 -7.66661 43 51 41
-11.8412 -3.00269 1.28662 69 63 41
-10.8388 11.5307 8.96435 37 53 67
11.0823 -6.60368 -8.25283 24 44 34
7.3749 1.25461 13.0443 58 52 32
11.3804 -5.70108 2.77981 5 29 15
-1.21937 12.0002 -11.828 16 39 29
-11.6361 -0.118305 0.587041 67 55 34
2.71643 8.07047 -14.8933 25 38 28
1.44357 9.91623 -12.2008 11 33 26
0.513927 11.4842 -5.06661 0 15 10
9.87445 0.516659 11.1111 34 49 60
4.90131 0.0834675 -7.98004 34 30 23
-2.32666 10.8419 9.37062 26 40 47
5.57317 -2.13866 12.9404 55 47 30
4.22229 4.15713 -1.73815 66 64 49
4.66702 2.33171 -7.80406 64 60 40
-4.23723 10.0874 -1.93856 2 20 8
5.22026 12.5017 5.09578 18 39 52
-7.61237 6.07803 12.9977 23 37 52
8.63063 3.00315 3.67273 49 46 47
-12.2077 -7.23005 12.1254 69 70 52
7.91197 5.98214 4.69627 67 55 32
6.50717 -2.18722 12.9037 57 48 27
-9.18104 1.81114 -3.56922 64 54 28
10.2976 -4.62719 4.14087 59 58 47
-4.15649 9.89615 -14.9787 11 28 16
0.831432 -4.47204 12.7106 52 44 22
7.92395 -6.48565 -6.59921 38 51 39
6.14288 -5.80728 -6.5949 53 58 43
-8.99388 0.620544 -9.84277 65 55 28
-8.91173 -2.62296 -10.4356 70 59 31
-8.94674 -2.95307 -9.24055 65 52 21
-0.486921 12.3077 8.33941 17 33 47
8.98025 -4.40583 12.1575 58 50 35
6.19865 5.27029 -0.128754 23 39 50
-11.8171 -0.232304 10.6896 59 54 31
10.8373 -5.46134 0.60023 9 28 7
4.6663 7.21088 -11.4259 5 26 20
-10.1578 3.27496 0.527089 78 75 56
7.2857 -6.38019 -8.71331 41 47 33
4.92972 0.747791 -4.34529 55 57 43
-8.42968 7.39815 -2.89404 3 24 13
0.274945 7.43783 -14.0536 64 62 44
-4.31738 10.013 -2.14251 1 25 12
10.9929 -5.01563 12.0226 14 35 14
-9.28175 -3.06834 -1.58342 73 69 44
-1.9364 11.4335 0.66716 11 30 25
4.73761 -2.38286 -11.0746 70 58 34
8.59131 6.19848 12.6336 21 34 44
-9.31671 4.80558 -2.92707 54 47 27
-2.2826 11.623 -6.68785 5 29 15
9.22942 12.9052 6.2097 40 60 67
10.1743 -4.35564 10.3413 58 55 35
-9.22212 -5.96201 12.6781 68 65 48
-8.52276 2.08469 12.8868 63 55 33
-11.8405 2.22099 8.62826 64 51 22
-3.64415 10.7169 -7.71445 9 38 26
-9.08325 4.50437 -4.57007 62 53 28
8.18209 5.23648 13.4697 22 35 48
-6.64306 8.67987 -10.1412 10 28 18
-6.96377 11.2854 3.48296 72 62 37
-12.0366 -5.66616 5.11835 71 64 41
-3.14544 -7.73492 12.7486 60 53 31
5.63917 -5.29696 12.7718 54 44 26
-2.51979 11.4343 -8.72536 4 31 17
7.04846 -2.75664 -11.4675 25 48 24
2.02392 -8.8419 12.7205 53 49 26
-1.40944 12.1092 -11.8879 15 39 29
0.118559 11.2623 3.84118 25 39 53
8.7849 2.1307 8.95001 35 50 63
-9.10178 -3.20477 -7.69079 73 63 35
9.39629 1.81188 3.47026 28 45 57
7.53048 -3.37955 0.0763817 15 37 10
-12.3861 4.46202 13.8636 42 62 67
-11.8881 10.9347 9.54293 42 57 67
-8.84622 2.79332 -10.8518 64 56 32
5.30726 -8.91626 -14.0607 58 50 26
-9.39927 -6.51659 -1.43201 77 71 47
-0.658653 10.5401 3.06912 22 41 56
2.55352 -1.40623 12.943 56 48 30
2.40281 -3.59096 12.838 56 48 25
5.27692 -5.68629 -4.42236 46 64 41
-11.1876 -2.80544 12.8543 68 64 46
2.80771 6.11513 -14.0262 63 59 43
3.06988 8.59162 -10.4597 8 36 28
-9.05646 1.97624 -7.32786 63 51 25
3.45584 10.3771 -3.86784 9 25 19
4.27801 -2.10502 12.9586 58 48 28
-4.03623 8.34591 -14.2501 54 52 36
5.33284 5.83002 -3.37023 3 25 19
-10.0485 5.64165 -7.94095 17 29 18
4.81182 3.89765 -12.5818 63 60 44
-4.18911 12.798 5.17321 30 42 56
1.19277 10.3444 9.68684 17 35 48
1.70992 7.28678 11.8943 15 30 40
0.381012 -9.42941 12.5244 49 44 26
-11.1385 2.17134 0.485806 69 65 44
-9.37245 8.08833 1.54803 22 35 46
-12.0259 -4.92364 4.76004 71 65 42
0.276173 0.272692 12.9224 55 52 32
-1.59529 11.8032 -4.38067 21 39 31
2.05851 -8.3709 12.7288 53 50 34
-1.46772 -0.875221 12.9314 57 52 32
-7.8784 6.29943 12.6724 27 41 59
7.18906 0.442949 13.0531 59 53 34
4.79717 0.84468 -9.33255 66 63 44
6.27624 -3.50265 -10.3436 8 32 12
-8.65912 7.29144 -8.41637 7 34 22
-2.67296 11.0355 1.50122 23 43 54
4.83867 1.37666 -5.92487 63 61 48
-10.6039 8.01319 1.62871 28 39 47
5.67171 6.00671 12.867 24 35 43
6.31528 12.1267 4.70028 21 36 45
10.7351 0.20776 3.22042 27 41 54
-0.112833 13.37 7.5565 20 38 50
-7.00092 -8.56483 12.7882 62 61 43
0.399755 7.31658 -14.0577 64 63 44
-4.33977 10.9957 9.30069 26 39 49
2.37094 10.3552 9.6899 21 35 49
2.72793 -0.583963 12.9566 56 52 34
-6.10491 8.85947 0.642071 5 24 14
1.69298 -8.89691 12.6706 53 50 24
-11.8152 2.80687 8.29415 61 50 25
7.23304 6.35035 12.5915 22 38 49
4.59014 -0.301502 12.9779 56 49 31
-9.21023 6.85652 0.175836 5 23 21
10.4555 0.0132675 9.6693 30 43 55
-11.7207 0.550833 3.93645 63 53 28
-9.13832 -2.44218 -7.47695 72 67 50
6.99772 0.714294 13.0281 60 51 31
6.36895 9.77358 3.17034 23 41 54
2.08785 9.79866 2.86329 18 32 46
4.79498 4.32704 -11.028 65 58 40
11.2289 -5.49399 10.3584 98 86 55
-0.160908 12.0132 8.57837 23 36 49
6.8455 -0.362368 12.971 58 49 31
5.31296 5.74645 -2.63327 1 27 16
-0.003757 9.41454 -14.6843 34 40 30
-6.88466 15.6469 5.64713 62 54 31
0.522358 13.2023 5.53181 18 36 50
12.2305 -7.15605 8.93668 19 36 21
7.77669 -9.22509 -13.4478 4 33 10
4.09101 0.504654 0.57096 67 65 47
-4.10984 10.4748 -14.0258 4 30 17
-1.14921 -6.60173 12.7163 58 50 28
10.4176 -5.71716 9.68677 70 63 39
-11.4608 12.9539 7.76395 55 57 46
12.3007 -7.83813 4.70882 3 29 8
-3.46311 13.0422 7.63259 26 40 56
-9.77147 6.43315 12.5786 31 46 63
8.10592 -5.18406 -3.61962 0 25 6
5.99217 -5.13298 -3.36669 2 27 12
-9.27906 -5.21435 -2.61496 73 64 40
11.1745 -6.03279 -0.10703 15 29 12
-6.76321 10.9624 3.37381 63 50 33
6.54865 2.17267 13.02 54 48 34
3.29699 -6.56203 12.7459 57 50 28
2.33042 13.2704 7.55747 23 40 47
5.90216 10.4404 9.61102 22 36 50
-10.2026 6.35018 -0.0644308 3 17 14
-12.0721 4.79423 13.8062 44 54 68
-6.96199 1.49089 12.8965 62 56 39
0.168383 6.24067 12.5285 20 35 49
-9.08479 2.56306 -7.50173 65 59 40
-12.5315 10.5054 8.58726 32 43 58
-9.48691 12.5789 8.12967 29 44 57
-8.79709 -3.97952 -10.7852 72 59 31
-12.8762 5.49819 12.5976 21 40 55
-1.44922 6.97226 12.2289 27 36 44
-8.47333 9.93089 2.94224 27 40 50
-8.8942 -4.60726 -9.63719 75 68 42
11.1148 -5.21449 3.05471 0 23 3
5.46862 11.6834 4.44384 20 35 48
-3.28841 -1.62543 12.8145 60 55 36
-9.16143 4.58197 -3.20772 61 58 34
-4.03709 11.0416 9.2938 27 39 51
-12.307 8.54006 3.76708 42 45 46
-6.03347 8.97757 -9.64399 4 30 18
-7.41434 15.1229 6.02001 60 59 50
2.49883 11.3124 -4.46637 0 12 4
6.99375 -0.84503 12.9708 56 50 35
-9.34423 -3.90915 -0.556713 75 70 49
-9.08994 -0.753796 -7.88154 68 56 31
-9.67695 10.3749 3.39886 24 35 53
-6.89079 8.52709 -14.8153 6 36 21
-4.60771 9.87822 -1.37998 2 28 20
7.69588 -3.64231 -10.3672 44 51 30
-11.5399 5.9509 4.04505 67 59 36
-12.19 -6.991 6.32644 75 68 45
9.41715 -4.1174 -11.3099 16 34 29
-3.05016 10.8305 -0.417064 4 25 13
-10.6748 8.74344 2.25904 26 38 47
-9.08049 3.80307 -5.7311 64 63 46
-5.38564 14.0239 3.67194 77 69 47
-0.141475 11.1455 -4.72193 0 20 12
4.84672 -4.49183 12.7837 56 47 26
1.61646 9.61667 -10.3713 14 37 32
-9.12612 1.43696 -7.1235 64 56 37
6.1553 -3.49998 -13.9261 14 36 16
-12.478 12.9102 6.81597 29 47 59
6.33904 -3.13263 -11.3087 9 43 15
0.426207 -8.67876 12.7101 52 50 31
12.4806 -9.21432 8.88279 18 39 17
-12.3253 -8.01647 8.84376 76 72 48
3.8113 -0.0571022 12.9205 56 47 25
-9.26384 4.69454 -2.54407 59 53 32
-11.4671 6.37664 12.6599 39 52 69
-0.316397 9.33933 10.3902 23 34 45
-6.20908 11.6998 3.48517 72 62 36
4.0219 1.81202 12.9795 53 47 21
-7.52921 7.95232 -0.907923 3 23 14
-2.28161 8.77439 -14.091 62 55 31
-8.74754 12.3102 4.7835 48 45 38
1.82462 -8.97816 12.6846 54 49 25
1.75483 -0.0914955 12.9468 56 45 26
8.54158 11.8835 8.45539 20 37 51
8.62884 2.82845 6.55657 36 46 52
-9.13699 5.09639 -9.73381 58 48 19
-9.17148 0.15405 -6.8979 67 59 39
7.92074 -3.22581 -13.1673 5 28 7
2.51707 -1.28147 12.9491 56 49 29
-11.8218 0.0167255 11.4756 62 55 32
1.11603 9.48726 -0.622029 13 38 29
-2.37709 11.53 -10.022 7 30 18
-2.8217 11.0352 0.991529 4 32 28
-11.8856 7.23144 12.2041 32 47 57
-9.41586 -6.65568 -0.599621 77 68 43
-11.558 7.11249 7.3148 65 57 37
7.02351 -5.21896 -3.47615 0 25 6
5.65578 10.0132 3.39602 22 39 55
1.54455 8.97695 0.113393 1 25 19
-6.09258 8.85289 -4.88602 5 26 17
3.8688 1.88225 12.9831 52 48 23
-8.3821 12.7811 5.30551 62 48 33
-9.03243 3.84318 -4.58249 61 55 33
7.8526 4.75887 6.75908 67 62 44
-5.99917 8.99115 -8.7699 2 26 15
2.96579 -9.43801 -14.1464 63 64 49
6.71977 0.00645447 12.9794 56 50 34
-7.05615 7.86425 -15.1066 3 21 13
12.0989 -5.92838 7.79099 1 27 15
7.19293 -6.38176 -8.48865 39 45 33
-11.9037 -1.85977 7.43187 67 58 32
-11.9415 -4.65246 3.52947 71 63 37
3.36086 -1.95617 12.9196 52 45 26
3.62205 8.22574 -14.6118 15 33 23
-4.17195 11.1537 3.46859 36 39 38
-10.7498 7.96147 11.4995 35 49 60
6.96915 4.33693 0.0752792 63 61 43
-9.89595 4.88821 -0.499116 53 47 25
-3.97019 8.63886 11.0205 23 38 48
7.794 0.654789 12.5427 69 64 47
3.69268 8.43368 2.07101 21 35 44
-11.6636 6.46896 7.89904 64 54 28
-9.17953 0.0578642 -5.20807 66 59 38
7.48592 10.1751 9.69989 23 35 45
-10.8576 8.65672 2.22428 25 39 47
-5.08874 -7.32493 12.7714 59 57 40
-9.22739 -6.86064 -5.10419 77 69 44
10.2766 0.452782 6.97483 27 40 54
-4.09066 10.2564 -6.19633 7 27 14
-9.32542 6.71139 -2.60562 3 20 10
-12.4614 10.7604 5.14804 34 43 58
0.225093 8.93002 10.618 18 34 48
2.74169 -2.56885 12.9027 55 47 25
7.95847 10.8071 9.37212 20 36 46
-0.162807 1.80768 12.9452 51 47 24
4.75413 0.360584 -10.3579 68 63 47
-8.46318 7.25767 -0.0899486 4 21 15
1.39679 -9.2114 12.632 53 47 27
4.26022 -2.42895 12.9329 56 49 28
8.12952 6.1202 12.8452 17 35 48
-11.7974 1.36303 7.08735 67 54 28
-9.07375 2.44476 -7.24016 64 58 37
-9.14829 6.79369 -11.117 9 31 22
1.95402 2.01212 12.9905 53 45 31
-2.60653 9.25838 -14.2376 52 51 36
-11.7207 3.3402 3.83124 64 53 28
-6.80524 11.9467 8.64847 33 46 54
-4.16678 10.1657 -2.47249 8 26 16
5.96484 11.8723 8.51837 23 36 47
3.50199 -5.71743 12.658 51 41 21
2.4828 8.30234 -14.916 18 34 24
10.4629 -5.10022 13.1858 19 37 15
0.169429 6.67865 12.2967 21 36 44
10.0774 0.688087 2.7009 48 58 56
-8.14826 1.3254 -14.2702 63 58 36
-11.7113 2.72364 3.7378 63 54 30
0.180696 2.57282 13.0013 52 49 27
-11.1059 -5.09775 12.7272 73 69 50
8.54664 6.0136 0.650271 17 36 44
9.70626 -3.10725 7.23914 48 40 25
4.90725 -2.38495 -12.0628 70 62 36
2.00559 9.48977 -12.0116 8 36 27
4.1411 11.5591 8.71856 26 39 55
-3.78907 10.5319 -6.21218 10 33 21
3.30323 8.51493 -13.6589 13 40 30
-1.36193 11.8063 -4.48013 19 38 28
-11.6118 5.99774 2.8322 64 63 45
8.18874 0.657678 2.56854 67 56 36
-4.11266 10.1835 -0.0411674 10 30 24
-3.12436 13.3095 5.49965 25 39 51
-2.61555 11.4252 3.97027 21 39 54
-12.1175 -8.33273 2.59446 74 62 43
-8.98955 -4.00774 -7.8153 74 62 37
-7.00779 8.42828 -1.25939 12 33 30
-2.36962 9.19828 -14.1885 57 56 40
3.02818 -0.0624828 12.9263 58 49 27
-10.0304 -3.85349 12.7591 67 60 43
-9.1619 -1.63434 -5.80666 69 57 30
-6.04634 8.96153 -1.6368 7 29 25
0.0958405 11.6039 -5.29215 0 18 11
-1.6465 10.5827 -14.852 10 28 23
10.813 -6.14823 -4.31186 17 30 22
5.54072 -4.05065 -14.126 50 50 29
-11.8031 -0.0299988 4.71842 64 57 35
9.06523 -2.1086 2.93797 92 85 63
-12.5933 9.53644 9.70902 28 43 57
-8.78548 13.9226 6.14082 42 52 43
7.72449 4.29818 8.89265 70 70 52
-4.4922 -3.55385 12.6714 61 50 25
6.37217 -4.84616 -14.0276 14 36 20
11.8981 -7.84972 1.90898 12 32 16
-6.66825 8.66168 -8.47126 10 40 27
12.253 -8.97268 11.5135 12 41 21
4.18915 0.00473022 -2.41092 66 62 42
4.27312 7.2072 -5.12773 1 23 13
2.17465 -8.43059 12.7529 53 50 34
-9.23449 0.562779 -3.64883 66 55 30
-9.50523 11.4212 4.38314 27 41 55
-0.959967 6.25316 12.5672 21 37 51
4.7571 0.642254 -10.4054 67 67 51
0.630493 -5.34617 12.6976 55 49 28
-0.840919 11.534 -4.81 5 39 27
-11.6743 6.06024 -0.0497847 22 34 44
9.62764 -3.64559 1.1986 0 26 11
3.52081 8.19088 -12.9164 11 32 22
2.57198 -4.87791 12.7168 55 46 26
-12.1433 -7.40598 5.58235 76 69 46
1.16124 5.03135 13.5244 26 38 51
4.69182 6.39744 -2.85052 8 28 23
-9.90924 6.58347 0.330944 3 17 7
7.76558 7.66935 1.67829 19 34 47
-2.19771 9.13838 -14.1323 59 57 41
-4.06317 10.3617 -10.4099 6 28 20
10.165 -4.55199 8.65616 66 60 37
-4.85123 9.72558 -1.91523 6 31 23
-8.90246 -6.29795 -8.34419 69 61 34
-9.23541 -6.16665 -5.21391 75 69 47
-11.9685 -5.15016 2.09945 73 67 45
5.65139 9.92888 9.9657 16 35 46
-12.0963 11.0737 4.1878 24 40 48
4.21932 1.25367 -2.71671 71 60 39
5.53197 7.84249 1.67744 18 36 49
-12.1124 -5.7597 11.7107 72 67 46
-2.7431 9.13827 -14.2167 52 51 32
-7.82404 14.1478 4.07939 62 59 37
7.3146 -3.4683 -1.52323 7 29 5
7.83923 5.2013 4.86202 72 62 37
6.38149 -4.17449 12.8577 60 51 31
-2.24707 11.7168 -12.3123 11 40 29
-8.98143 -3.67775 -8.35424 68 61 36
12.091 -6.06824 11.2386 3 30 12
-8.47063 7.42465 -10.4083 13 38 21
-6.78487 11.4001 3.46221 67 61 39
4.36571 -1.4262 -3.87768 56 50 33
9.24503 10.236 4.40345 36 48 61
-8.94419 -7.42943 -9.42857 73 67 42
4.73976 -8.4737 12.7257 61 53 35
-5.43228 13.8584 7.1552 33 36 48
4.01992 1.33788 12.9784 54 49 31
-9.2077 -1.7317 -3.93724 70 60 33
1.40214 9.06516 0.765158 3 26 19
1.93931 -8.30704 12.707 53 49 33
-2.16614 12.4342 4.72039 19 34 46
-8.23622 -1.66695 12.7356 63 56 35
4.09031 7.85914 -8.00803 10 34 22
-9.2534 -3.87304 -3.67164 74 66 41
1.68721 -1.2671 12.9092 55 50 30
8.86859 -4.85694 12.492 56 49 30
5.89523 -10.1302 12.2659 30 31 16
3.91889 7.1991 -3.64452 0 14 8
9.59 -4.19327 -1.63854 14 39 16
-9.05317 -2.15852 12.7879 68 60 40
-1.74745 4.77822 13.6964 11 27 34
2.41772 10.8687 9.41172 24 39 49
-5.14904 7.41593 -14.3172 59 51 31
-9.26671 10.6274 9.55558 32 49 61
7.17495 -1.79028 12.9452 58 49 31
-9.14831 6.85962 -8.01459 6 22 16
-9.16557 -3.12935 -6.36231 70 61 35
-9.4791 13.2314 5.72788 25 40 51
1.44271 -1.66166 12.8751 52 49 25
-1.77942 11.8274 -4.9782 10 35 23
-11.2765 4.76281 13.8317 41 47 47
0.189445 -8.75351 12.7036 53 50 29
2.78905 0.266619 12.9507 55 50 31
3.60525 7.42908 -2.28167 0 13 5
-9.7147 6.41806 -0.38966 3 17 7
-8.85958 4.6538 -10.4309 63 53 24
-1.24914 11.9755 -8.55933 18 39 30
2.48865 8.98785 -9.27834 1 26 20
7.81866 0.137867 12.0099 69 69 54
9.23465 12.3771 7.01545 43 61 73
8.01234 -1.08194 1.93039 69 58 38
-12.493 12.7924 6.2348 34 46 59
-11.9713 10.2301 5.61504 47 50 45
5.85588 0.097784 12.9723 56 50 34
-9.04536 0.353413 -9.5228 66 59 35
1.02547 10.3446 -14.2949 14 39 23
-2.75118 0.106838 12.8841 59 50 27
-6.77653 9.04112 2.01689 29 41 47
-5.75796 10.5849 3.07388 54 50 39
4.8701 -2.77425 -10.5897 77 76 52
-11.6595 13.7456 6.16294 25 46 59
-7.86829 11.7657 8.81508 35 48 55
11.3761 -5.81968 8.23639 4 30 13
-11.4675 7.3681 4.26713 64 58 34
-11.5685 6.08697 4.48802 67 62 39
9.88945 0.789009 9.55939 31 44 56
4.82211 1.36874 -9.37829 67 62 43
1.3905 9.40773 -2.07258 1 23 17
6.96589 -1.91945 12.9152 55 46 28
8.80746 5.71632 12.2993 45 57 63
11.2987 -5.14926 3.33762 8 31 16
2.55645 2.01497 12.9959 53 46 28
-0.60193 11.5476 -13.2543 8 37 27
9.84507 -4.08621 11.1372 55 47 29
-5.24875 9.70592 -12.773 5 33 23
11.3731 -5.55822 10.2166 87 79 47
-7.02866 11.8316 8.70914 34 46 56
-9.00639 7.07053 -4.60058 7 28 21
-9.02477 -6.02114 -7.21026 74 65 42
4.56541 3.86909 -8.57731 63 54 30
-9.68524 -6.59346 -0.0332183 74 62 36
7.75083 8.11994 11.4013 19 35 45
-2.74914 11.1363 -0.730985 2 25 14
-8.77494 6.84121 12.5273 35 50 61
-10.1507 -4.21625 12.7003 66 58 35
-4.81702 9.77158 -0.152239 2 24 18
3.05368 -1.7886 12.9241 55 48 26
6.49667 13.624 7.23855 15 35 44
-9.04837 1.82247 -7.8664 64 50 24
9.7365 0.287483 2.64958 70 75 76
-6.53836 -9.22488 12.7764 61 61 39
-6.43627 8.63939 -1.08252 4 26 14
-1.76102 9.37977 -14.0937 48 53 34
-11.7926 3.86747 9.63485 64 52 27
-2.86077 5.04424 13.5585 24 38 51
7.18786 2.60219 13.0631 50 47 36
1.17605 11.1896 3.85422 21 38 51
7.97454 7.1159 4.329 61 46 23
-9.0659 2.17126 -7.16975 63 55 29
7.151 -2.46068 0.550552 63 58 39
-8.28222 8.00261 11.4801 27 45 58
10.3922 -4.88821 4.08487 49 48 33
-4.19092 7.97526 -14.2146 56 48 24
-11.8046 12.1468 8.74652 41 56 65
7.91869 6.5919 5.36057 68 59 38
-2.7422 11.2024 -11.7052 7 28 16
3.37084 8.94956 -4.01057 2 14 9
-11.7122 5.35615 -0.26101 36 46 50
1.509 -3.31424 12.7929 51 44 24
-5.42303 7.10218 -14.3191 59 48 27
12.1077 -6.68105 3.4658 7 36 22
-5.3216 0.196463 12.8348 60 52 29
-11.6895 1.51741 3.62077 62 54 30
-9.40975 -6.83916 -1.27416 77 69 44
6.28562 0.853199 0.564756 67 65 45
8.736 -3.52258 0.425447 4 26 9
1.89833 -8.76939 12.7022 54 50 28
-11.635 4.91658 4.40542 65 57 33
5.96501 -5.77172 -6.58089 50 52 40
-11.6109 4.12402 1.29371 64 55 38
1.94015 12.842 7.8071 20 34 50
2.50444 11.3009 8.99657 20 35 48
-9.05295 -1.92751 -9.06595 69 63 40
-8.03887 4.54234 14.0542 39 48 51
4.46999 2.93782 -5.34415 68 58 41
-4.60202 9.98032 -7.39648 13 36 25
-8.94743 -2.65538 -10.1529 69 60 31
11.2512 -6.8054 -5.69279 31 43 32
6.32979 -2.40648 -12.9783 14 32 16
3.85771 7.76674 -8.90896 7 28 21
0.19835 9.41076 -14.78 28 38 26
3.35829 -2.82338 12.8777 57 48 27
4.91434 7.17425 -13.0091 5 34 23
2.41884 9.70881 -3.51721 0 7 3
8.44187 -5.44263 -9.79648 33 50 42
-6.15473 8.10899 -15.0747 7 24 12
-1.06441 10.0093 9.97766 17 33 47
7.7499 4.37047 8.31474 70 68 48
-5.45185 9.45987 -11.4261 8 30 20
7.60709 9.52624 10.2464 21 34 43
11.9999 -5.72408 10.2833 30 33 15
-0.142981 11.9724 4.48405 20 38 51
-9.03715 -1.1955 -8.29668 62 56 33
3.25909 2.71001 12.9913 52 43 26
4.3087 1.57316 -3.83312 64 62 45
3.88956 -3.56401 -6.23147 10 8 9
12.1752 -7.61903 11.019 20 32 10
-9.42782 -7.8972 12.7497 66 63 42
-6.71853 8.62191 -8.3012 9 37 25
9.49593 1.09546 11.0298 30 47 61
3.25139 9.09329 -6.36952 25 29 26
-8.58506 0.303461 12.8469 66 58 33
-8.47527 1.04066 12.8809 65 57 33
-9.3012 -3.88662 -2.25579 76 69 47
-6.19679 8.78583 1.2915 1 23 15
-2.89933 12.9281 5.26645 23 41 54
-7.70823 7.87215 -0.798334 4 24 17
-4.99503 9.70918 -0.686463 5 30 22
4.28719 -4.86834 12.7492 55 43 24
-6.01689 8.92739 -4.48395 1 26 17
-8.97961 4.15244 -7.551 63 59 37
1.15452 -9.48778 12.5431 48 44 26
6.06481 9.44449 2.8024 17 35 44
1.26326 11.7388 4.41197 18 36 53
-7.85717 10.0167 2.94587 28 41 49
-1.63482 -6.08372 12.6602 58 47 26
-1.41143 -4.66641 12.6971 55 46 26
-10.1093 5.04819 -2.44328 35 36 20
-7.74105 14.6497 4.0495 65 62 42
5.25769 6.95303 -12.1318 15 40 28
7.75444 4.39871 10.2092 71 70 54
-9.47764 -5.17778 -0.32929 77 73 51
4.14716 13.9336 6.20968 18 37 46
4.15049 -0.680229 -1.67399 68 65 45
-1.34889 11.7387 -4.0983 18 36 26
10.2545 -3.63564 5.21998 63 57 38
-5.95903 -2.13608 12.8065 63 56 34
-4.11796 10.0924 1.55659 4 30 26
-11.2051 7.72134 1.49043 26 39 46
-9.14673 2.83059 -4.84324 65 58 36
-11.6604 -3.86413 0.28631 67 58 34
-5.93857 8.47124 -15.0909 11 23 14
-11.3503 13.2105 5.82457 24 41 55
-9.25377 -4.27933 -3.43867 70 60 34
-11.6933 5.64302 6.79885 65 53 30
-9.07229 13.7805 7.34419 32 48 62
4.09476 2.10696 -0.836348 68 65 46
5.25615 8.77365 2.44227 19 37 52
-9.11242 0.574581 -7.0239 64 53 32
-12.483 10.5994 4.22193 28 43 48
5.81987 -4.5661 -9.71714 7 24 5
7.19925 -3.75978 -13.7257 1 24 7
3.84671 7.42916 11.7128 19 36 48
-11.4721 7.88892 4.96331 64 60 40
-4.86799 11.689 3.87324 54 51 33
-11.5501 5.19666 4.08587 67 57 31
-9.23865 0.48253 -3.41585 67 57 34
0.818006 11.9245 -5.40994 3 20 14
-8.92172 -2.60705 -11.0392 73 62 37
0.791819 11.3748 -7.18083 0 20 11
-1.19752 -1.82132 12.9268 57 51 30
-7.80435 14.4231 6.12063 46 44 25
-9.19038 6.83117 -9.41934 8 25 14
0.655127 -8.59193 12.7222 54 52 34
-9.80286 10.1365 3.22296 27 38 49
6.0788 -5.66797 -8.74034 7 41 26
11.1178 -5.4243 -1.05444 34 45 33
9.61578 -5.64216 13.1606 39 32 16
-4.52294 9.95464 2.39903 26 44 53
-7.19521 6.14954 -14.4587 49 49 30
-8.9676 4.42425 -7.58916 60 52 27
-8.87153 -7.15095 -13.7715 78 73 47
-9.12097 -1.14855 -7.27332 68 61 40
-11.7934 -2.27177 1.81181 67 61 40
7.63191 7.57991 7.99653 32 37 30
7.82291 -3.28177 12.1255 70 65 46
-11.6405 4.70974 4.09045 66 59 36
-0.0130925 10.584 -3.04739 7 28 24
12.3034 -8.20869 3.76561 4 33 14
-9.14499 3.06368 -4.53328 66 52 29
-9.25724 0.0582097 -3.84339 65 60 39
-0.651071 11.2332 -4.1879 10 34 29
7.74876 3.60765 11.6553 62 65 53
-2.68844 11.1017 -4.49267 3 24 14
-7.2667 8.1445 -4.10825 3 22 9
-9.09283 4.34732 -5.07063 61 54 31
10.3368 -6.53925 -7.92518 27 40 35
4.72066 0.418449 -12.0105 66 55 32
6.91993 -0.603167 12.9706 59 51 35
11.4363 -5.58542 8.01734 7 33 13
3.89877 -4.41665 -6.21657 20 22 22
9.29192 1.96395 3.4775 28 43 49
8.72418 2.78761 5.04189 43 44 47
4.20727 1.50792 -3.37706 64 56 40
-8.88841 4.22726 -10.6511 66 60 40
-1.54066 8.71326 -14.0212 64 59 35
-11.8987 -3.78314 3.87665 70 62 37
-3.46552 10.8531 -9.78991 7 39 25
-4.99291 7.28829 -14.2285 61 49 29
10.1266 0.454536 8.80056 31 48 61
-10.6976 6.07426 12.9315 29 45 59
4.53803 3.96331 -5.1091 69 61 40
-8.96803 -6.88601 12.7303 68 61 40
10.0629 0.628464 8.07222 26 44 59
-11.7671 4.34302 13.9305 47 51 50
6.71809 13.4966 5.62351 15 34 46
11.2508 -6.85672 -5.23988 31 39 35
7.92687 -4.6972 -3.34591 13 31 18
10.993 -6.37326 -10.5318 19 32 31
2.32304 9.19006 -10.1718 11 35 27
-7.19355 5.44162 13.3672 31 47 59
6.82448 -5.85252 -8.91492 27 37 26
-8.42385 7.26496 12.1964 29 43 57
-12.2565 -8.29451 10.9334 73 68 45
-0.62466 11.5209 -10.6073 9 37 28
8.60754 2.34536 9.85065 33 47 61
4.23607 -1.64586 -3.58887 63 57 37
-8.97384 1.98134 -9.08302 61 50 22
9.27411 -3.83891 -12.9736 13 35 18
-2.39557 8.95689 -14.1213 58 56 34
-8.86977 -6.41195 -9.17535 76 70 44
-11.6382 3.92215 3.92641 63 51 28
-0.0103245 2.47793 12.989 50 48 27
3.98979 2.72354 0.163938 67 65 49
4.85043 6.70981 -6.41558 7 24 19
8.53725 -5.7284 -13.7108 3 25 10
-11.9626 -4.59854 12.6725 58 55 40
-6.22146 8.87086 1.68798 6 20 16
6.82694 -7.97703 12.8514 58 52 33
-8.88678 -7.07229 -8.5956 75 64 40
-5.00828 14.394 5.69695 70 64 45
6.06956 0.618641 13.0062 60 52 35
-11.5325 4.57414 2.48832 65 55 32
0.967085 9.31815 1.18945 9 36 32
10.3984 -5.19873 10.5086 65 47 15
-9.20335 1.43166 -4.99935 64 58 38
3.84888 -2.32317 12.9187 55 48 27
11.4246 -6.03028 2.23338 3 30 10
-3.15235 10.7048 -1.265 1 23 9
3.67071 5.51817 -14.052 67 60 40
10.2487 -4.69275 2.39867 15 34 17
7.53404 6.75018 6.88952 23 21 13
-11.6391 4.88854 5.84992 66 55 30
5.61626 12.2519 4.81677 21 36 45
8.23293 -6.99774 12.8731 53 41 26
8.70834 1.12453 11.2969 42 45 38
10.9566 -5.11655 3.95327 23 30 12
2.39209 10.0408 3.1961 23 42 52
-1.8901 10.5852 -14.8542 13 29 24
-1.41606 11.2663 -0.0184579 7 33 31
-9.97689 5.50547 -7.93321 28 37 24
8.95351 -4.49386 12.2703 53 45 29
4.47211 7.10247 -6.74845 1 13 4
-5.61117 9.40269 -10.8393 14 39 30
6.40967 -3.68453 -13.9244 5 26 8
4.68152 -2.2662 -8.83096 58 52 33
-9.14807 0.489374 -5.7113 67 55 32
-4.08006 0.778673 12.8967 60 50 27
9.22256 2.05439 4.0398 25 37 52
11.5871 -7.68264 -0.596177 0 27 4
10.8197 -6.69025 -4.98928 22 35 28
-11.6716 4.62941 1.34567 59 54 37
-11.5568 0.727997 0.631712 65 54 28
0.115402 11.5237 8.84195 23 37 48
2.17419 11.6801 -4.8154 2 11 6
6.02882 -3.44342 -13.9216 11 33 11
-9.07502 -2.27975 -8.83452 68 64 40
-0.842922 -2.26652 12.8826 56 47 26
1.33912 9.96619 -13.8566 4 32 20
-6.70378 7.20543 12.1347 29 42 55
4.09368 2.60773 -0.750244 68 64 46
-8.87219 3.41454 -9.84487 63 52 25
3.95131 -4.93839 -6.64339 11 11 12
8.42391 -6.14419 12.9941 54 48 30
1.50101 9.68182 -3.18936 9 29 23
9.01812 8.89983 9.99415 42 53 60
0.21399 10.5639 9.565 24 36 44
3.59906 1.52352 12.9677 55 47 29
-8.92739 1.04475 -10.4322 63 47 19
-5.31946 9.64056 -14.2736 11 39 32
-1.76293 11.8946 -6.55514 9 29 20
-11.7612 1.58499 11.2596 63 55 31
-1.42135 11.1376 0.95496 6 29 24
-9.06595 -6.21015 -6.88943 74 67 46
-11.7079 12.3239 5.08637 21 37 49
-6.64138 14.0327 3.64538 71 65 44
-6.53213 8.81496 -11.7106 14 39 28
10.3678 -5.35913 -2.95176 7 32 9
2.38454 12.0728 4.57286 16 35 50
10.2776 -2.52389 4.03388 67 64 40
7.39541 8.58885 2.38877 22 36 50
-8.66304 7.19361 -13.1281 17 33 25
-11.7635 2.03502 12.5015 58 50 27
-3.11183 10.6546 1.22221 5 26 20
-11.6593 2.89658 2.25742 62 56 35
-9.00306 -3.97329 -8.96667 74 67 43
-11.36 11.1472 4.18505 25 37 48
2.19553 8.44658 1.58423 2 27 22
-5.06699 14.202 6.35134 62 56 35
11.7164 -6.89695 11.6914 7 28 6
-2.43409 6.75687 12.2656 20 36 49
0.154694 -5.47991 12.6991 54 50 31
4.7638 0.93298 -10.7777 68 68 52
3.70797 -5.59097 12.6882 53 43 24
-0.511926 11.518 -8.71613 12 34 26
-10.5645 10.4862 9.65755 35 52 67
5.48579 2.13356 13.003 53 47 28
8.59608 6.78325 10.6874 72 73 61
4.46432 6.43357 -1.87141 0 20 13
-5.07741 4.65067 13.8973 26 33 36
4.77817 -4.54411 -3.66837 42 45 32
3.04868 11.8346 -7.27417 0 19 9
10.227 -5.16555 9.57172 60 68 53
3.04188 -1.26195 12.9372 58 48 27
8.79158 5.64124 12.6077 41 58 63
-9.23791 -4.13792 -5.2578 70 61 35
7.54543 6.06988 0.668286 17 35 53
-0.505496 11.3099 -12.6355 9 31 24
1.12752 1.56059 12.9686 53 48 32
-8.24118 11.3306 9.10097 32 46 58
5.11264 -5.43826 -8.87035 25 43 31
8.41401 3.09414 6.58282 56 55 51
4.77923 0.596708 -10.5203 67 65 49
7.74211 3.73917 10.5033 73 66 48
-5.54684 1.32569 12.8595 62 53 32
4.1578 6.93634 -2.05768 1 11 6
-8.84761 -5.28559 -9.28161 72 64 40
-1.40644 -7.96071 12.7969 59 56 36
-9.16815 1.4701 -5.54379 66 61 41
-6.70756 8.69617 -13.0747 17 42 37
4.96839 6.90282 -9.69977 0 23 14
-9.28255 -1.99852 -1.02916 70 63 40
5.95243 -5.74154 -7.98042 53 53 43
-7.05717 8.30363 1.04601 2 24 16
7.9281 6.5222 4.98076 71 58 35
-2.54119 1.29444 12.9188 57 48 26
-12.0328 9.3376 4.81549 48 49 43
5.42033 -0.719036 12.9548 56 51 35
5.62987 10.1698 3.49989 22 38 53
-9.03269 6.99384 -0.423453 7 24 16
-5.54557 9.46962 -14.2089 11 39 32
-9.65723 12.648 5.23153 24 38 52
10.7368 -5.06958 4.09361 29 31 14
8.59698 -5.29132 -9.90737 29 47 39
1.15971 -5.56567 12.7103 55 50 29
3.99256 13.5886 5.70182 21 37 49
-1.616 -6.41309 12.6842 59 50 29
-9.26306 -1.99628 -1.50276 72 65 39
0.897855 10.2311 -8.69613 17 30 28
10.1331 -8.13184 -11.9475 0 29 7
-11.2607 -3.33973 12.8387 66 63 45
8.47195 -8.59051 -13.3389 12 34 15
10.9696 -0.136847 4.0731 28 45 53
-5.88943 9.03696 -1.47365 6 27 21
2.89866 -2.22469 12.921 57 49 32
-3.38628 -3.63312 12.7359 58 52 32
-4.27588 -2.69931 12.7781 60 55 35
-8.92559 2.7182 -10.3248 64 52 27
-10.3076 13.7256 7.54364 31 51 66
8.64098 5.80208 0.48365 19 36 48
-8.97304 -4.88035 -8.53021 72 69 47
8.67539 13.7321 6.58124 30 46 56
11.8587 -5.52028 10.3469 32 41 16
8.75527 -4.37238 -2.57561 14 41 20
0.902681 -7.2004 12.7444 57 51 30
-9.28827 4.98312 -6.84299 54 41 19
10.531 0.173561 6.67052 28 38 51
-11.7597 0.940266 12.7599 61 53 33
-2.96539 11.1136 -10.7126 7 32 22
-1.5921 -8.40687 12.8023 57 55 37
11.5608 -7.96212 -0.48806 2 30 11
4.99674 4.80671 13.7844 19 31 39
-6.79039 7.92616 -15.1135 3 22 12
-9.21514 4.84427 -4.7012 58 48 24
-12.1951 7.69525 3.12351 49 55 47
-9.20881 -3.8428 -4.06748 71 62 36
0.0482483 6.76416 12.2743 24 37 41
-12.2184 -7.02024 9.82854 71 65 42
1.97176 -8.56138 12.7196 53 50 34
-10.7622 -7.0227 12.7151 68 67 52
-7.74825 14.3949 4.52805 64 59 38
-4.9778 -2.20144 12.8169 61 56 36
-9.11822 1.74079 -6.0126 64 54 32
-4.74836 12.5751 7.90838 26 41 55
4.62963 6.17296 -0.487728 4 26 31
-3.16051 10.7091 -1.40062 0 24 9
3.02437 0.345322 12.9503 54 50 31
2.40169 2.09115 13.0056 52 47 30
-12.1127 9.62784 3.23124 26 39 49
0.403095 9.83215 -0.122913 6 28 26
6.98928 -8.06915 12.8624 57 52 33
-12.0943 9.13981 2.677 24 38 49
-1.00456 -6.71034 12.7092 57 48 26
0.977705 10.8484 -7.88996 0 20 15
1.63584 9.14574 -1.7344 3 26 20
8.41853 6.74347 10.5312 74 77 62
-6.11828 10.4441 2.95921 35 43 48
-7.24442 8.21158 -10.4886 4 35 22
4.56616 6.66857 -4.62499 3 24 17
1.24771 9.66959 -2.57343 14 37 31
5.61652 6.13737 -11.6592 12 29 24
-4.30761 13.2128 5.44511 22 44 52
1.3736 9.45012 -1.46877 18 42 34
-1.07281 11.8938 -10.7874 4 31 22
-7.04592 8.1072 -15.1026 11 24 15
8.63249 12.6189 7.79171 21 38 49
6.00671 0.439306 12.9907 58 52 37
-8.83088 -4.97192 -11.5807 77 71 48
-11.5665 -4.71705 12.7919 66 64 45
11.3307 -8.04857 -8.99495 21 37 28
8.82037 2.58543 4.79357 31 40 52
11.1533 -6.73925 -7.16342 29 45 36
-11.6792 5.3869 7.42911 65 54 31
4.78501 -7.98995 -14.2708 61 49 24
-11.5723 5.35787 2.85148 65 62 41
5.56479 0.942286 13.0022 57 48 28
-2.52158 -9.58092 12.5846 52 46 27
-11.8015 4.60826 7.2864 64 56 31
-0.371022 4.85914 13.7753 19 32 42
-1.88025 11.9854 -10.8375 3 38 23
-6.42896 8.75288 -6.81721 6 27 16
11.5532 -7.43175 -5.2601 26 40 32
-11.8165 8.12356 4.02531 57 58 39
-5.13649 7.79315 -14.4721 47 46 25
-0.271839 6.79888 12.2692 23 40 45
9.91524 -3.88721 1.06416 2 30 5
-4.82796 9.67335 1.24035 5 27 25
-9.03276 -5.7911 -6.79009 71 59 35
11.0543 -4.84143 6.58311 94 81 47
-0.851004 11.6831 -6.2214 10 38 29
-9.16961 1.4594 -3.99946 67 56 31
-8.54396 11.5234 4.26727 47 42 35
0.227486 6.12153 12.7421 19 33 44
6.36281 -1.49756 12.9443 59 52 31
-11.4456 11.9034 8.84531 44 56 66
-11.0607 -1.44448 0.333091 71 65 45
-11.7798 4.68566 9.35935 65 56 29
-12.1731 -6.35612 6.53322 74 68 46
-8.54261 5.50003 -14.5308 43 43 24
-4.55466 13.7102 7.24531 25 40 54
1.9603 -2.79479 12.8509 55 46 23
1.28908 12.7062 7.84174 20 35 50
5.65338 9.38594 2.78143 16 36 46
3.13917 10.399 -8.43889 4 23 14
-8.85 3.18155 -10.4646 63 48 17
-9.08276 1.93578 -6.59431 65 49 25
0.403594 8.53192 11.0695 20 33 41
-5.56626 11.0704 3.3857 62 61 37
