ply
format ascii 1.0
comment Created by Open3D
element vertex 1404
property double x
property double y
property double z
property uchar red
property uchar green
property uchar blue
end_header
4.74383 7.40602 -14.6117 18 35 22
-8.88524 4.88965 -11.3229 61 55 31
-8.80107 -1.75455 -12.6115 70 60 38
4.02999 13.6776 7.22005 15 33 47
-9.02199 -9.0528 -11.5538 77 74 49
8.29128 3.05088 8.98842 57 55 47
4.35735 11.6345 4.41045 19 36 51
6.66186 -6.03546 -5.05106 26 35 32
-8.61556 10.7305 9.51693 33 46 57
0.687812 4.83817 13.759 20 34 42
-5.47254 9.17212 -0.197771 2 27 25
-11.6885 9.14201 8.38249 56 59 42
-8.98826 3.5698 -7.13614 64 57 36
-0.353064 12.5925 7.95004 19 35 50
12.0275 -6.09221 11.3265 1 28 10
8.9731 12.4312 5.2744 20 38 48
-8.90001 -9.27723 -11.6938 78 73 47
9.74746 1.25564 7.61723 26 39 53
-7.77564 10.7012 9.5352 34 46 55
-6.0863 8.88898 -4.21994 2 23 14
-5.39492 15.6262 4.84713 62 59 38
-7.14118 13.3897 7.51529 39 54 60
-9.07089 -2.65486 -7.9619 70 60 37
10.5786 -7.88021 -11.4973 6 31 14
4.3522 7.13332 -5.47493 1 20 13
2.8961 10.6339 -8.34474 4 26 16
-0.876568 -3.62551 -14.3412 60 53 33
3.31031 5.78351 -14.0395 63 61 41
-8.33035 -1.83292 -14.3077 60 49 34
10.9792 -0.546498 8.18431 23 39 47
5.41653 -8.35616 -14.1962 60 55 33
9.9303 -6.52308 -7.24703 28 43 36
-7.87289 7.79927 -10.0285 8 31 27
7.99723 3.47664 5.81401 67 63 41
5.81131 -3.76443 -9.88886 21 41 11
6.28634 -5.79664 -6.97045 64 69 57
12.1697 -9.97673 11.0176 18 36 12
4.15911 3.92387 -1.16734 65 64 43
-4.99957 9.80827 -12.6215 4 29 20
10.2436 0.335459 8.75388 28 44 57
-8.45686 -2.85041 -14.119 61 48 20
-0.321583 11.2703 -11.6947 5 31 21
4.21883 -2.2801 -2.97911 66 66 49
-7.81643 7.64431 -15.0968 12 25 14
-12.0104 -3.19127 9.72919 64 54 32
-9.81817 6.52808 -4.63343 7 20 14
5.64252 6.20891 -11.7089 11 30 24
-9.20877 -0.188998 -3.81104 67 60 36
-11.4375 9.2586 6.48526 63 57 31
3.85614 7.90397 -5.40515 7 32 23
10.7758 -6.54964 -8.08917 29 42 36
-5.72296 6.0581 12.8984 20 36 50
12.5022 -9.19761 9.19779 14 33 12
-7.3099 -6.26814 12.6301 65 61 43
-9.05163 -6.90354 -10.5299 76 61 34
8.68264 -1.56589 3.23364 71 65 45
-6.39033 3.25504 13.05 51 48 29
10.0205 -6.01353 13.2602 2 25 4
11.2144 -6.17538 -3.02175 3 30 13
-11.7353 1.37332 5.15195 66 53 28
-4.56539 11.9763 4.37965 32 44 58
-4.59368 -4.69941 12.7173 61 52 29
-3.2848 10.6869 -1.81216 3 28 13
11.9901 -8.35358 12.5833 22 37 21
-10.8039 7.37006 1.24455 19 39 55
-4.69719 -8.22854 12.767 62 58 37
5.45264 5.84614 -5.12274 9 31 20
7.7903 0.799179 12.3566 71 64 47
-11.7899 5.62524 10.1759 66 61 41
3.13748 6.51259 -14.2219 61 53 40
10.2157 -2.10666 3.36049 68 61 43
0.579594 13.2972 7.58987 18 36 51
-0.286846 -7.52047 -14.4344 61 54 30
0.474636 12.1181 8.5513 17 36 46
-2.74876 -3.84878 12.764 57 51 29
4.59676 -3.61655 -3.39083 50 53 33
-11.5824 7.64357 6.5047 66 60 36
6.69583 11.1519 8.96259 17 32 44
0.596404 10.543 -3.9062 0 16 7
-8.91541 -4.52726 -9.24151 74 66 41
-5.89681 -9.95454 12.7222 42 41 28
2.09746 11.6939 8.74935 22 35 47
-6.25978 15.2865 6.03087 65 61 39
3.06546 -1.61017 12.9279 55 49 28
-8.77368 -3.18908 -13.2484 76 66 44
-3.28383 2.3423 -14.1746 26 22 14
-12.1446 -6.63696 6.1092 76 66 40
8.97974 5.82499 1.99345 61 53 33
11.9208 -5.67387 11.108 17 38 18
4.22604 2.40516 -2.37938 68 59 37
-9.67848 6.56631 -12.3895 9 41 28
3.16151 10.7649 3.62762 18 35 48
-9.33532 9.09668 10.6419 30 50 63
-10.2627 3.90324 13.599 52 50 38
9.60818 -3.50563 1.33991 3 28 11
6.32735 -5.11114 -9.58854 0 30 12
7.11997 1.19466 0.722309 69 67 44
8.20137 -5.69482 12.8413 53 44 24
0.391171 10.7553 -8.82956 19 34 29
-9.07252 2.484 -7.35434 65 58 38
6.16663 11.2992 4.30187 22 34 50
0.516439 7.75757 -14.0965 63 61 44
-3.6018 6.69727 12.4024 23 37 48
5.60141 6.10923 12.7859 22 32 41
-11.9821 -2.94029 11.4918 69 60 37
-5.97489 -4.37345 -14.5321 61 50 30
8.2934 7.67166 11.6045 22 36 46
12.4022 -8.15166 11.1095 25 41 23
-9.22761 0.705153 -2.20585 67 52 23
1.61235 9.55615 -9.00821 7 32 23
0.230278 0.384134 12.9324 55 52 33
-1.01889 11.8966 -12.5687 12 38 31
-2.31128 3.42134 13.3467 40 41 32
6.10103 -5.52919 12.7494 58 46 26
-2.04713 -3.77141 -14.3567 60 58 40
7.16358 9.91 3.31249 17 34 49
6.43138 -2.7299 -13.4794 17 33 18
10.9738 -0.565752 8.60173 31 43 54
-9.54856 5.01002 -4.64807 51 41 18
-9.22378 -6.01271 12.6833 69 66 49
9.99347 -6.58437 -6.17563 29 42 38
2.06959 7.06383 12.1187 18 32 45
-10.2894 7.15859 12.2189 32 47 58
5.05871 5.75141 -0.679251 19 34 37
1.99341 8.85732 -1.98951 4 29 23
1.39383 14.0271 6.70497 25 40 50
-8.89342 3.53105 -9.30316 66 54 27
2.1386 -6.68553 -14.2732 67 58 35
4.11594 7.85429 -13.4501 12 37 31
-0.672641 0.157814 12.9257 58 50 26
3.64183 8.04462 -11.7801 3 29 22
10.5196 -0.0567589 8.97248 28 43 57
-9.14952 -2.74616 -5.9754 72 61 39
-8.95737 4.19111 -8.01474 64 56 32
11.9447 -7.04521 1.61646 4 31 8
-0.712159 11.456 -4.86763 4 35 25
-11.8655 -4.19451 2.05059 68 62 41
4.83593 7.26342 1.33242 17 34 52
-8.92668 -1.227 -11.1628 72 64 40
4.70059 0.0694818 -12.1176 65 61 42
8.80266 -6.15923 13.1252 58 48 30
4.94987 6.77636 -8.63168 0 20 16
-8.87822 -2.94642 -11.4437 73 62 33
7.66046 0.00265408 12.9218 60 56 36
-11.5932 9.62468 5.68563 60 58 41
9.95266 -4.75454 -10.8819 20 35 32
-11.6326 4.40227 4.06267 67 56 32
-9.28498 -0.367206 -0.871551 73 66 44
-12.4122 12.2169 5.33417 30 40 51
-12.0252 11.2776 4.33186 24 37 49
5.5196 6.63599 -11.7567 21 37 24
7.45051 5.65287 0.295991 19 36 51
7.55311 13.4937 7.2674 20 36 42
-11.4631 9.8201 6.1045 58 56 36
-6.48237 8.75475 -8.31595 4 35 22
-6.32502 8.72579 -0.179781 2 23 14
0.931177 11.705 8.71581 30 42 55
-9.85526 -2.10852 0.322958 74 72 34
7.07093 5.4561 13.3539 20 36 44
4.04397 11.9041 4.49784 17 35 49
4.21964 1.74578 -3.42987 65 58 42
-11.2389 7.15399 1.02014 22 37 50
-11.7788 4.6874 9.15094 65 56 29
-8.91461 2.13711 -10.8689 66 54 26
3.84044 7.83963 -8.74228 14 33 26
-4.45322 -4.08663 12.682 63 52 29
-1.30396 11.5737 -2.83536 6 30 23
-11.6806 1.19626 1.52809 63 54 34
-12.0926 -3.60659 9.90405 66 61 39
7.66784 -3.39575 -10.4659 32 55 25
-12.1535 -8.25455 4.03165 76 72 49
-9.97583 6.19809 -11.2942 9 34 21
10.9103 -0.196068 6.66295 28 42 52
-9.01656 -0.620743 -10.3095 69 56 36
3.09874 2.6371 12.992 53 44 27
10.2245 0.727245 2.9185 33 47 60
8.15457 2.2564 11.3155 62 65 52
-3.63069 1.69357 12.9224 58 56 36
-9.05469 5.11261 -11.9939 55 46 26
-0.858957 11.2138 -2.26877 15 36 30
5.0575 6.87738 -10.9145 4 23 16
7.93281 -3.22168 -13.1587 6 28 7
-2.57917 -9.87287 12.5611 42 35 21
-9.24477 2.78572 -0.948671 66 59 35
9.06384 10.8826 4.27398 22 36 44
0.506923 -9.937 12.5267 34 26 14
-11.7989 4.43441 10.835 63 62 47
1.16181 10.2533 -14.4241 22 45 31
3.14937 13.3994 5.61422 18 38 48
-9.70274 6.56097 -14.0413 22 40 29
-11.7631 8.00461 1.70332 22 37 51
9.05014 10.79 7.51491 38 46 53
3.02612 7.83545 -14.8828 31 42 30
11.1979 -6.76922 -7.10732 30 44 35
-2.03818 11.679 -2.28482 7 29 21
-9.05757 -4.67584 -7.14476 71 62 39
-1.96452 11.7908 -14.8479 9 30 24
10.4593 -5.02893 4.77967 59 49 29
-9.03411 -7.49733 -6.1176 74 67 42
-9.46094 -2.87332 -0.0155514 73 71 47
9.76871 -4.8921 13.0959 46 40 24
10.215 -1.70437 7.929 53 54 39
4.86271 2.18866 -13.5577 60 54 32
-3.91664 8.83466 10.8039 24 38 53
5.74723 -0.423908 12.9807 57 51 32
9.05683 11.4067 6.2184 33 43 50
-0.414524 11.3595 -13.9905 5 36 27
-6.3984 -6.20963 -14.6149 62 54 35
-12.0338 -6.78177 3.02711 73 70 51
6.54936 4.33891 0.0869083 65 57 48
-11.0127 13.3052 5.85359 24 40 57
3.07723 -3.47741 12.827 55 46 23
-6.93071 -4.57848 12.7028 64 55 36
-12.0746 -7.8906 2.53479 74 65 41
4.42301 1.80345 0.644218 71 71 53
-7.90633 -0.902443 -14.3529 62 57 39
-11.8123 9.24907 8.59224 50 52 39
5.66366 6.32048 -11.2502 10 34 23
10.6766 -10.0852 -3.30506 16 36 20
-6.98765 3.41604 -14.2352 62 49 24
1.99923 2.92067 13.0318 46 39 19
6.76119 8.45459 2.28614 25 41 55
11.2011 -4.84132 7.29162 27 37 11
-7.00354 6.16187 12.8551 23 36 48
-7.94829 0.994823 12.8664 64 56 32
-6.46252 1.96849 12.9126 64 53 30
-11.5914 5.19063 3.7538 66 56 29
1.55893 5.95237 -13.9487 68 61 43
-11.4178 3.08155 13.0622 62 54 39
-2.10184 6.19438 12.6549 19 32 47
2.2061 9.32926 -10.5469 9 33 26
-6.56425 15.3069 4.30816 63 67 56
-9.5447 6.63227 -13.5849 15 36 18
5.72273 7.50203 11.6543 22 33 49
-8.23497 7.51512 -5.17128 5 24 14
9.5394 -3.93107 11.1986 58 50 29
7.53719 -4.61884 -3.15463 13 31 11
0.380787 11.5658 -5.19744 1 18 11
-8.91722 -0.47098 -11.2416 67 55 31
-2.81042 -4.54289 12.7102 57 46 25
4.75217 3.03799 -9.62675 65 63 44
6.08844 12.1431 4.71755 21 35 44
11.3021 -6.50682 -0.123499 15 31 9
-12.1158 -6.68151 10.6675 70 62 36
-5.6755 -7.54455 12.7671 62 59 41
8.38547 -3.93587 -10.2937 34 49 37
-7.03833 -6.46498 12.6605 61 59 43
-7.81128 15.0244 5.28867 65 56 33
-2.07678 11.8732 -13.4571 5 35 23
-3.56507 9.48431 -14.7668 33 40 23
-8.33484 -4.73657 -14.4958 61 50 31
-11.8695 0.858224 7.0387 65 57 34
-1.86807 13.9555 6.91159 24 39 56
-11.6385 6.094 2.71886 63 62 43
2.95784 8.62211 -9.06838 2 27 19
-12.5414 9.36679 9.2587 30 44 56
-10.7491 -4.18701 0.223526 78 70 47
3.24363 7.66158 -1.87896 0 15 7
-7.8833 12.3671 4.53843 68 57 32
-4.83555 9.66798 1.11565 4 28 27
1.09611 9.69151 -2.23769 8 29 23
4.22246 2.54222 -2.89166 67 58 35
6.16966 8.5474 2.31491 20 33 47
-11.8907 0.651612 7.27908 65 57 39
-12.1 -4.75051 12.0791 67 64 44
-3.47622 10.4072 1.17853 1 23 14
4.77975 0.410777 -13.4627 61 61 39
1.26082 -1.21622 12.8477 54 48 28
-10.2532 5.53185 -4.49857 7 24 15
5.14694 7.68201 11.5478 20 35 42
-9.07746 2.33464 -7.07038 63 56 34
-9.13804 9.13271 2.35618 30 40 41
-11.774 -0.404193 3.68194 62 53 27
-11.9871 -9.48044 9.82465 75 69 46
1.80678 -2.86436 -14.209 66 59 35
-3.33984 9.45456 10.4215 30 39 50
7.03347 6.07676 12.8724 20 34 43
-9.23106 -3.35907 -5.5773 70 60 36
-5.02932 -4.43553 -14.5481 64 58 35
10.2053 -3.4769 7.45312 51 44 25
5.27102 8.29157 1.9977 20 36 47
10.3895 -9.8563 -7.95813 16 32 25
-0.0116892 -2.26178 12.8792 58 52 28
10.2486 -5.05889 -11.9353 22 35 28
1.65246 9.67967 -11.9739 13 38 31
-12.7338 4.9222 12.5899 22 39 47
2.68217 8.96147 -13.4846 15 36 23
1.55514 10.6083 9.56573 19 36 45
4.8141 1.53631 -12.5839 65 60 43
9.39252 -3.40454 -12.3541 22 34 33
-6.30098 10.948 3.28299 63 57 37
-8.60331 -4.78272 12.6632 65 57 38
-9.1419 2.86926 -4.80517 65 57 35
-2.90782 7.26604 -14.0802 67 54 29
10.3277 -0.728181 2.60948 62 65 44
-8.30228 2.72627 12.9265 63 56 35
0.837424 5.62406 13.2988 24 35 45
4.30208 -3.53401 -7.87975 6 0 2
-3.91877 8.52307 -14.3126 51 51 34
-11.1218 -5.73676 12.7192 69 66 49
2.94795 -3.5983 -14.1597 65 58 36
7.07409 -3.98452 -10.3424 23 49 23
1.12964 5.91768 13.013 18 33 42
7.66677 -6.52861 -6.31721 27 43 31
12.4872 -7.0531 6.34597 12 36 13
11.2682 -9.3347 -1.37062 0 27 2
-7.36237 -1.93977 12.7826 67 60 41
-11.6705 4.77853 4.74263 66 56 33
5.08663 5.8335 -0.190687 20 35 50
-6.25001 15.0923 3.69275 58 64 44
6.62847 -5.36925 -14.5588 8 32 17
-7.38066 -3.26842 -14.4204 64 55 33
-1.64523 11.17 2.18412 28 45 54
-1.7316 7.71156 11.6082 20 37 51
-0.743084 10.1349 -14.8086 20 34 26
8.71329 -7.31601 13.1558 33 31 16
11.1714 -5.88308 9.47694 71 68 48
-9.85573 12.5564 5.15761 24 37 52
4.2622 -0.351752 -5.86186 23 21 16
-7.86303 9.43971 2.57332 21 38 48
-2.20052 11.6262 -5.55614 5 28 16
-6.12657 12.96 7.59816 31 46 59
7.97975 2.7544 11.1222 65 62 44
4.85167 4.8923 -1.55846 60 59 43
7.25048 8.36031 2.23544 20 34 50
-11.8104 4.12857 7.46869 64 53 26
-10.002 6.49991 -7.13088 2 34 25
-1.67678 6.4348 12.3939 16 33 48
5.15861 4.46581 -0.102327 81 72 48
-9.49306 4.79877 -1.57985 52 45 25
-9.32332 0.501615 0.111482 71 65 44
-9.23411 -2.35011 -2.33153 68 59 36
12.3925 -8.4875 8.85483 17 33 14
3.78764 7.0924 -0.188697 4 23 22
-11.5435 4.47132 2.66024 65 54 30
-9.36628 5.34094 -12.194 43 39 20
1.77079 10.2461 3.30065 16 37 51
7.79448 -3.41986 11.1439 75 64 47
-12.2865 -8.06578 9.2936 75 71 47
12.2055 -9.34904 5.93958 13 36 15
0.996426 4.03017 13.9689 22 37 45
8.09429 -4.99809 12.6232 62 46 30
-0.318373 -6.09351 -14.4763 64 61 43
7.87244 1.55502 1.68252 66 59 35
4.19155 5.45836 13.3644 25 38 42
-9.18195 6.75668 -12.6659 7 29 15
-10.4386 5.63265 -2.25277 9 26 17
-9.03263 -3.72791 -8.68269 69 63 41
-6.03731 1.67494 12.8929 62 53 33
9.1441 -8.36169 -12.8538 0 31 8
-11.8083 -2.74916 12.8063 61 59 42
3.5545 -1.37274 12.9315 55 48 28
-2.77327 5.00873 13.5762 24 37 50
-0.232814 11.0952 -10.42 4 27 20
-5.71499 9.05165 -2.78874 4 25 15
-11.8192 2.65426 9.07366 61 53 28
-11.1895 -7.69355 0.0773067 72 58 34
4.82147 -3.46719 -8.59131 50 49 34
-8.26912 10.0784 3.00987 29 40 48
-10.7395 6.24392 12.7106 32 45 64
11.2705 -5.87573 -1.08497 18 38 20
8.51233 -1.96724 10.8726 54 48 29
8.68932 2.80663 6.0634 37 46 52
-10.4746 5.84154 -2.46709 6 23 15
2.45948 11.608 -4.72018 0 10 5
-5.66806 -1.42607 12.8833 64 58 40
6.78461 -4.22408 -2.92491 2 22 3
7.9777 3.59442 1.11033 54 49 28
2.51818 3.02383 13.0576 45 41 25
10.628 -1.0855 8.77328 42 51 50
9.23212 12.202 6.82128 44 52 65
4.91162 0.97333 -4.94552 54 58 42
-7.04826 -7.83729 12.7535 65 59 38
10.2107 -4.26033 8.97999 66 64 40
4.63964 -0.330562 -4.5023 31 33 25
-12.4479 7.02343 10.756 32 40 41
-11.5449 7.4985 5.21727 66 60 39
5.71679 5.55307 0.0728779 21 39 54
8.82766 -4.41555 -2.6517 11 40 19
7.78615 4.76426 5.92799 69 65 45
-1.29909 10.8475 2.59789 28 44 59
8.02386 8.62745 5.62004 68 56 33
-4.07818 10.5302 -14.5331 5 32 19
-11.7943 -0.311592 4.83234 61 51 21
-0.22371 -5.37684 12.6969 56 48 27
7.8362 -9.42839 -13.3717 6 32 7
7.79515 6.2653 12.6998 24 40 48
5.59733 6.78173 12.2889 21 36 46
4.18701 10.0251 9.92075 21 34 50
11.7706 -7.51295 0.395496 18 39 23
2.83861 6.16506 -14.0318 63 58 43
1.70577 -4.16992 12.7911 53 48 33
0.563778 9.74333 -0.585068 1 25 17
7.84385 -5.56199 -4.02809 5 29 14
1.9894 3.13899 -14.0192 62 49 27
-10.2587 6.13186 -5.84835 12 31 21
-5.30951 -7.79868 12.7873 61 56 36
10.252 -4.69525 7.93675 59 59 38
-8.81917 -5.13355 -10.8746 75 65 44
-6.57591 13.894 7.21204 34 46 57
-2.60905 9.9446 -14.6585 19 34 17
-11.9144 -3.72285 4.1861 70 64 40
4.66648 2.8554 -9.09094 65 56 34
-8.9991 -7.9772 -9.04302 77 68 41
5.80814 2.37124 0.63608 74 73 54
-11.4871 7.49284 1.3553 27 39 50
4.96809 7.13702 -13.2846 2 32 22
4.57418 2.21216 -5.96602 66 61 41
-2.50438 1.78487 -14.2794 58 53 34
8.05559 -5.09607 -3.57964 0 25 4
-6.93484 8.39885 -11.1492 9 27 16
-8.29167 10.3378 3.15027 28 37 43
-9.20129 -4.53137 12.7332 66 58 39
7.81223 0.362156 12.6693 66 65 50
-3.18257 -8.69149 -14.3934 60 54 34
-3.31175 3.54397 13.4639 36 41 40
9.55829 -3.91253 -0.556091 1 22 5
-11.279 6.94734 0.720504 18 35 48
-0.701744 5.45112 -14.093 53 47 28
8.90046 6.08942 2.20976 61 52 38
-11.8413 5.1829 11.0809 55 60 43
5.79078 14.0288 6.4893 22 38 50
-9.5417 6.64274 -5.41846 6 21 10
-12.1834 -7.15449 11.7581 71 70 50
-1.79622 11.4872 -0.197992 9 32 28
0.583426 -8.89594 12.6669 53 50 29
3.98286 -1.56212 -0.231453 69 66 49
-1.89077 11.7869 -2.70608 8 26 21
-5.13362 9.49456 -6.95305 3 25 13
-5.82425 -1.20212 -14.3384 58 54 35
-7.97772 7.63836 -8.66089 5 25 15
-9.89995 6.46295 -1.7827 3 16 5
11.4545 -7.06737 -5.51649 28 39 31
6.93561 8.13309 11.4347 18 33 44
-0.16019 10.3114 0.518181 3 27 19
3.33773 0.140181 -14.0914 68 65 51
-12.4762 11.3048 4.93008 33 41 49
2.1648 10.3508 -8.3435 1 23 14
9.56014 1.15446 10.4697 33 45 60
7.28071 1.1829 13.0345 58 52 32
-5.56412 8.47268 -15.0299 9 28 14
-2.38073 -5.40969 12.7137 57 49 27
9.94109 -9.47807 -11.0895 8 33 9
3.4572 9.88305 -5.00333 12 36 29
4.38624 -3.15267 -4.01563 57 50 35
-9.20048 3.21591 -0.906698 67 56 30
9.43409 -7.9508 -12.7863 8 30 16
5.90984 -8.41155 12.808 58 50 31
11.4519 -8.29559 -3.82405 8 37 12
-9.82996 6.5394 -4.15037 6 21 14
-10.2828 12.6407 5.39204 24 39 54
-10.7113 5.13733 -0.340847 57 53 31
5.07339 -5.07948 -14.0574 59 49 27
6.57052 -8.14003 12.8399 57 50 32
8.33207 2.16038 2.67584 61 55 38
-4.22639 -7.14711 12.7342 59 54 37
-4.24532 14.0585 6.55484 32 45 48
3.9831 -3.28945 -5.16885 18 19 23
-9.18657 4.19553 -1.377 64 57 35
-11.7556 5.35204 7.05311 64 54 31
4.16814 -2.84046 -3.37941 60 57 37
7.84681 -2.43434 12.237 70 70 48
-11.917 9.18493 4.83872 53 53 41
-9.15791 -1.03878 -3.91486 67 59 38
-9.80658 -0.335847 12.8344 68 60 41
-9.24455 2.78484 -0.634114 68 58 35
3.61616 8.86812 -7.08063 31 31 18
9.27199 -6.49487 -6.5472 31 43 39
5.25496 5.56272 -9.05266 43 50 37
-7.98789 4.19566 13.94 44 49 43
-3.82695 7.95206 -14.1238 59 54 29
10.1368 -1.65112 7.09862 38 34 26
-11.7287 5.20289 9.29306 64 57 32
-1.09758 -4.74269 -14.398 65 59 38
10.998 -8.67271 -9.16059 4 29 9
-3.05416 10.8099 0.96075 3 28 22
-8.92021 0.887332 -10.4387 62 45 18
-3.889 -3.01072 12.7612 61 52 33
2.02122 12.735 5.21477 20 38 52
9.36822 -2.66772 10.3907 59 55 35
-10.5953 5.30352 13.3397 33 46 62
10.3956 -4.96781 12.375 57 49 27
-5.10508 -5.47205 12.6955 60 55 36
-8.20136 14.1444 6.50799 60 55 42
1.35058 0.840057 12.9042 55 43 21
9.025 8.72238 3.85275 50 52 43
4.23756 7.61097 1.52507 19 36 52
9.57725 -8.95927 -12.4355 12 35 19
10.1134 -8.98785 12.783 5 31 14
-3.89768 -3.53519 12.727 59 52 33
-9.07186 -6.24973 -6.81039 74 67 45
-1.10375 -5.2513 -14.4221 62 50 27
4.49099 11.2216 4.14782 22 38 50
9.10538 2.16446 2.91645 49 49 53
-11.6727 1.77581 2.16221 64 59 39
4.48375 7.39597 -10.4915 17 35 28
-11.9645 -4.41483 4.18296 71 65 45
-9.16855 -5.75457 -5.41769 72 59 35
3.91636 -3.61002 -5.60678 3 5 9
-0.759653 -6.84284 -14.4599 64 52 34
-10.6211 5.37216 -0.457376 53 48 40
8.73356 8.79936 4.18432 52 45 35
-1.6122 -4.70208 -14.4187 65 60 40
6.17799 4.91433 13.7131 21 37 48
-0.0629139 10.2927 -0.621195 21 39 31
4.65162 1.09014 -12.0578 62 56 30
6.03849 4.22484 14.0396 23 37 47
10.4811 0.463161 3.98914 22 38 46
6.76312 9.47747 10.2906 24 37 51
-9.15181 4.15867 -0.627957 63 53 29
3.27737 12.5059 -5.96605 8 31 20
4.09279 -0.546685 -5.43724 21 18 12
0.0499659 11.2606 3.82578 26 39 53
-3.70091 10.4478 2.87739 31 39 53
-6.011 3.92127 -14.2189 59 55 38
-4.53505 6.25301 -14.1503 63 54 33
4.66 -1.87482 -10.502 66 66 50
3.06416 10.5127 -5.70232 51 52 40
4.63386 6.97354 -8.29247 1 23 17
1.72956 13.4945 7.5239 17 34 45
-1.54031 4.35224 -13.7049 11 15 15
-9.2376 -2.98876 -4.21465 74 60 34
-4.19056 -0.537462 -14.3717 62 49 24
-8.95458 -6.57436 -10.1087 75 66 40
8.47001 -6.48453 -8.29757 53 59 48
5.90533 -6.4435 12.7533 56 49 31
-5.01936 -2.91443 12.7301 60 53 31
7.74698 4.08007 10.0272 72 65 45
-10.7945 14.0718 7.07282 42 57 70
7.92999 5.5201 0.13746 21 36 55
4.08434 11.4162 8.80797 25 41 59
-0.0922804 11.0272 -9.96082 9 34 26
8.67658 11.1243 4.21518 19 34 49
-9.23768 -4.91355 -2.57582 74 63 38
4.36017 -2.77246 -7.80232 5 4 7
1.91849 -3.42446 12.8337 53 46 27
-6.89236 -6.65615 -14.5701 63 54 33
10.8166 -7.02434 -11.568 18 37 21
-1.78328 5.41192 -14.0758 51 44 30
3.70085 11.2604 -7.27108 11 33 24
-10.0378 10.0179 3.19766 26 40 47
-9.29002 -0.879114 -1.10853 69 62 36
-11.7332 3.81962 6.2081 63 54 30
-7.26371 6.39343 12.5204 22 39 54
-10.6293 10.383 3.50078 21 38 50
-6.90662 8.40142 -6.9155 5 28 17
-3.0816 -0.338787 12.8602 59 52 32
-11.8617 3.65524 8.66755 62 54 31
5.24446 5.45813 -1.10991 18 38 22
8.9056 7.35125 11.0235 53 55 55
-3.86013 1.11842 -14.2912 62 57 35
5.0764 5.30704 -10.7102 55 54 36
-12.8482 4.19019 13.4056 31 40 52
-1.92207 12.0077 -14.444 14 40 27
10.2291 0.19623 10.3919 27 43 58
4.07465 -5.20999 -5.24713 4 17 12
-8.18382 -3.08467 -14.3342 60 49 39
-6.67334 4.5111 -14.2544 62 49 25
1.41408 9.94925 -14.6885 15 39 29
9.56288 1.24151 8.82311 26 42 55
6.75278 9.83072 3.26247 15 35 49
10.773 -9.21282 -7.90804 16 30 23
-11.8067 0.892256 10.0323 62 54 30
8.05096 4.19731 13.8314 25 40 50
-2.16216 7.91905 11.4567 24 38 50
11.0941 -9.49018 -1.63433 2 30 4
-3.23662 -3.39222 -14.4596 62 58 40
-0.710403 -6.28745 -14.5134 62 59 41
-0.727945 10.3831 2.12811 1 25 26
-4.65259 7.26687 12.0714 25 40 50
3.49411 -7.71276 12.6951 56 51 33
4.69253 -0.604581 -4.33334 44 45 36
3.41228 7.6662 -2.38671 0 11 4
-11.9742 6.06146 10.9362 53 52 34
8.27781 3.27742 5.56766 64 56 32
-11.7939 -2.05672 1.49856 68 61 40
-0.175272 7.63141 -14.0173 66 61 41
9.21721 11.3998 5.76616 36 50 61
-8.9947 10.0044 3.06673 27 40 50
4.73886 -0.0988884 -13.3057 62 64 44
-10.1358 6.41773 -3.77288 6 22 14
-9.33335 0.151046 -0.24457 70 68 46
-11.2933 10.3896 9.73978 35 51 66
6.5701 -2.46261 -12.9369 3 28 11
2.94747 12.042 -6.9032 2 16 10
-9.09283 6.42169 12.6253 31 46 62
7.96561 12.9657 7.66692 19 32 44
-3.19776 10.8042 -5.00243 4 24 12
-10.4652 0.169741 12.8256 66 58 40
0.229088 12.2953 8.37898 14 33 46
-3.55305 4.81752 -14.2742 54 46 28
12.4684 -8.42056 10.5006 29 48 31
-9.1746 2.35533 -2.63248 65 57 34
-9.0251 -1.21328 -9.85603 68 62 39
4.6205 -2.23148 -4.26288 46 49 37
-8.87565 -6.94797 -13.3146 79 68 41
6.82141 -3.19755 -10.9441 18 48 24
-12.1038 -6.09079 6.21194 73 67 44
-6.52247 -3.77917 -14.4967 63 52 27
10.6358 -5.07924 4.39115 42 41 24
-9.99933 5.95474 -10.4123 13 27 16
-12.1948 10.2107 3.59183 26 38 47
-6.81506 8.50758 -7.21859 9 40 29
-11.1752 -9.00401 0.339697 71 59 34
-4.30274 4.13449 -14.2525 59 51 30
-11.7396 1.17813 3.81589 63 56 30
8.82465 12.92 7.55726 27 48 59
11.1664 -6.46279 -1.83537 8 31 12
2.02359 -8.15156 12.7121 54 50 28
-0.0883904 11.0844 -12.1017 7 30 21
-5.25755 -0.436244 12.8537 62 54 35
-11.9186 -0.125541 6.17845 64 60 41
-8.9359 -2.37584 -10.4575 69 58 31
-9.24116 2.66884 -1.30168 68 61 41
-9.7188 6.5094 -13.7228 19 45 30
-10.4556 0.848236 0.446859 78 72 51
7.32969 6.30093 12.6268 21 38 48
6.73985 -3.30463 -0.849247 18 37 10
-9.27063 -1.52368 -0.988929 70 61 36
9.96286 0.170452 11.2448 32 44 52
1.62387 9.62593 -3.21562 5 25 20
-0.753584 -3.97372 12.6973 54 45 25
4.92256 6.20306 -2.51678 4 23 18
-7.61282 7.95504 -2.4161 3 21 9
-6.06938 8.95075 -9.69181 5 32 19
5.34599 -3.38416 -2.91338 52 67 36
-7.73193 13.0282 4.84438 70 60 39
-5.76481 7.04419 12.2237 29 44 55
-1.0663 -2.13016 -14.355 64 60 40
-7.17724 -8.34266 -14.588 64 55 31
-3.51686 -4.98382 -14.5028 57 50 28
-0.204704 -7.16801 12.7707 57 50 28
4.24771 -1.54839 12.9756 56 50 29
10.9168 -0.519197 3.14336 55 57 43
-6.76484 9.4319 2.40384 18 39 49
-1.98023 11.9103 -12.9758 12 39 31
5.37268 5.84701 -12.7931 50 52 37
4.96182 -3.82708 -3.57607 52 49 29
-11.6968 -0.897283 0.648875 67 58 34
2.47134 8.4066 11.1597 22 35 44
4.72594 -0.42592 -9.55848 64 67 52
8.9621 -0.129326 11.5265 53 52 36
-0.881042 11.0393 -1.54323 5 27 20
-2.38908 6.50393 -14.2217 64 59 37
8.49648 -4.90575 -13.5883 2 27 5
-10.097 7.89997 1.45143 28 40 45
2.84585 8.12407 -1.90537 6 25 18
4.68857 -5.5041 -4.00698 4 28 16
-7.10201 8.4266 -12.5048 19 42 32
11.2806 -8.45362 -7.23675 14 31 16
-2.67308 11.3568 -13.1761 1 35 23
-2.08874 9.14504 10.5323 25 39 50
-11.7191 -1.33894 0.612452 64 56 33
2.37972 8.6603 -2.30566 1 14 8
-7.17499 -6.74433 12.6683 64 58 38
4.52668 12.0133 4.57279 20 36 50
11.6945 -8.03269 -1.67428 6 33 13
-5.10178 9.59446 -3.4012 7 32 23
4.85478 6.48469 -3.96453 1 23 13
6.79378 13.0814 7.59367 23 36 49
-2.85251 -6.41919 -14.6052 59 56 39
4.36237 3.12746 -4.65602 66 57 37
3.36854 1.49451 12.9426 54 47 29
-9.21866 -2.99605 -5.14529 72 59 32
8.25479 -2.87147 -10.9162 15 47 23
-9.71371 0.55006 0.440611 65 66 44
4.65775 0.243213 -6.92039 40 37 29
-10.1951 -9.69551 12.6576 44 39 28
12.2733 -6.54177 3.62064 8 35 15
9.24867 -3.1343 -12.033 26 38 31
9.17998 -1.48191 2.77272 104 90 56
9.79089 -5.01529 -2.3388 33 39 22
-2.13679 11.062 -14.9671 3 28 20
-4.85896 -2.12165 -14.3902 64 58 39
-1.18873 11.1209 0.244667 7 30 25
-0.632045 6.38472 12.4346 18 33 49
-0.150894 10.6806 -3.1271 2 25 20
-3.87263 -5.40553 12.685 58 53 35
7.0486 -6.1816 12.756 56 50 34
-5.2835 9.39693 0.350148 8 28 21
7.45485 7.04818 6.82839 19 18 12
2.58431 10.2467 3.38145 21 39 52
7.79218 2.05571 12.8232 65 61 44
-8.00722 -6.52971 12.7005 63 59 39
9.92721 -1.85789 6.48422 39 36 32
-1.89142 11.4852 0.29396 1 31 16
-4.63689 9.75949 0.251384 1 24 15
-9.13507 -3.36261 -7.14429 71 67 42
-11.69 0.84594 11.47 59 53 29
-1.63673 13.334 7.56399 20 39 52
-9.37484 -8.99492 -1.76243 80 66 39
-8.88228 -5.87449 -11.7772 74 63 38
0.719965 6.39643 -14.056 67 60 40
-12.6904 5.54732 13.2062 33 44 53
-8.95781 3.99591 -9.11743 63 60 40
-10.0353 -5.84701 12.6697 67 61 40
9.00291 9.32733 9.77672 38 51 61
9.22077 11.6836 5.08596 26 39 52
-6.52331 9.73516 2.68159 22 41 52
5.85464 -5.55502 -8.92217 6 36 7
-10.4124 12.6958 7.95474 39 48 62
7.74534 4.58367 7.93849 69 66 46
-10.7309 -2.98956 0.278667 75 68 48
-4.91134 8.50969 11.1482 23 36 49
10.8853 -8.9735 -8.36403 17 33 16
-4.64329 -0.229562 12.8128 62 50 27
2.50637 -6.93705 12.708 56 50 30
9.72451 -3.05319 6.60061 17 9 6
-11.8731 -2.84096 3.77873 69 60 34
6.34059 -7.79773 -14.2967 6 30 17
0.720331 -3.67568 -14.2729 66 64 46
-5.91772 15.1551 5.99492 64 57 36
-8.89401 -6.33916 -13.4479 79 71 44
-9.24084 -2.89635 -4.75795 72 60 34
3.62321 11.4283 -5.69513 32 44 30
9.18547 5.35503 1.04015 32 49 57
-6.67746 -7.81176 12.7522 64 59 39
-8.95827 -1.66701 -9.86278 65 53 25
-8.89785 -3.35071 12.7135 64 55 34
-11.7714 3.59513 11.4655 62 59 40
-5.42978 -2.80185 12.7286 61 54 32
7.78073 4.41583 13.925 22 39 51
7.87732 7.49789 11.6833 19 36 50
-3.49381 -4.65478 12.748 60 50 29
-8.5589 3.67157 -14.0457 63 55 37
-1.67158 12.8435 7.76387 22 40 53
10.1141 0.326281 10.9405 34 48 64
-8.29662 -7.21561 12.6598 66 60 39
-11.5689 4.94525 2.05779 62 58 40
-6.61572 -2.91198 -14.4579 62 52 38
-11.8195 8.86469 8.78684 53 56 38
-9.0929 -1.75554 -6.90495 67 55 31
-9.29353 -3.87554 -4.48577 73 63 39
11.3168 -6.83843 -6.15445 27 42 33
-4.73127 -4.08909 -14.4305 61 53 30
8.89436 11.1471 6.75551 46 47 36
-3.98027 -2.11212 -14.3872 61 57 37
-12.0841 -5.16736 5.75625 73 67 44
4.23104 -1.32275 -2.32106 67 60 36
4.75063 0.374313 -12.53 65 62 42
-0.849236 5.9366 13.0545 13 32 47
7.08749 -9.05719 -13.9578 6 30 5
7.08776 5.70065 13.2363 17 33 43
-11.7647 1.78427 11.8301 62 56 34
7.53347 1.16748 13.0413 58 53 33
-11.7719 -0.213093 4.1411 64 52 24
11.113 -6.13903 -3.75523 2 29 2
4.69183 -0.893507 -7.8821 7 5 2
-11.7189 4.0959 4.84674 65 56 30
10.5709 -5.50745 -3.15199 6 37 14
2.35512 10.2282 9.75371 18 33 47
-9.79469 1.00022 12.8274 65 57 34
-8.63818 7.2389 -13.267 21 34 29
3.16499 2.49534 -14.0072 67 63 45
-9.93582 8.85705 2.2598 26 38 45
7.72907 4.51497 10.2409 72 70 54
-11.9596 5.61445 11.1892 55 54 39
-11.591 6.78691 3.49057 60 60 41
-1.17638 11.6337 -4.13515 15 36 28
3.58722 7.37736 -2.11162 0 17 10
4.85229 7.21488 -13.6617 12 37 29
-9.7973 6.31353 -13.5613 21 45 35
-11.8429 4.59072 7.74526 65 55 32
-2.99965 11.027 -9.32998 7 31 20
1.81119 11.281 -4.48608 0 11 4
4.38622 7.74884 -13.7896 15 36 26
1.32909 9.96799 -12.8185 23 43 31
-9.05667 -1.97737 -9.05496 68 63 41
-2.46431 12.4517 8.13317 21 37 50
-7.28656 11.1289 3.51943 65 51 28
-12.1058 -4.30103 7.60523 69 64 42
10.3729 -6.48035 -8.38067 29 43 34
0.0142117 -2.85859 -14.2524 63 56 34
3.6791 5.33519 -14.0032 68 60 42
0.162724 10.52 9.59143 23 36 45
-11.9804 -3.92361 5.64743 72 61 34
3.52189 -8.01367 -14.3242 65 54 32
2.65997 -5.21795 -14.185 65 60 40
4.74978 0.157122 -13.6434 61 59 38
4.18233 -0.0341377 -2.62542 66 60 40
0.644272 9.67075 -0.280612 3 24 21
-11.7278 10.9455 7.30275 45 49 35
-10.4223 -8.42219 12.7331 63 61 45
9.05386 10.3651 7.95123 36 47 50
-10.5767 3.06958 12.9256 60 58 38
-11.7476 5.25638 8.44116 65 58 36
10.3036 -5.73433 -4.01333 15 31 18
7.37626 13.6711 7.13306 20 34 44
3.02322 9.80149 -6.75322 20 20 19
-11.4291 8.58452 2.2073 28 40 49
-12.6972 7.41859 10.9497 22 42 56
7.68349 -2.80152 -12.429 1 31 9
7.64383 3.52052 0.29516 69 64 39
9.02599 -6.09403 -9.478 33 52 47
4.03552 0.406628 -1.59933 65 55 31
-11.781 -2.1845 2.37058 70 62 37
9.50739 -8.95496 12.8228 4 24 6
8.48811 9.49402 7.79059 42 45 50
11.3443 -8.81641 12.8135 8 27 7
-9.23121 4.07875 -0.201534 64 57 37
3.97619 -4.99254 -5.17372 6 13 8
-10.2742 6.09133 -6.12859 8 23 13
-12.3279 9.41149 4.57436 38 46 50
3.30037 13.4376 7.50689 17 35 48
-3.75745 11.4528 4.04292 26 42 59
6.20133 -5.42382 -9.24742 4 30 11
-8.85468 0.962524 -11.7552 67 51 24
-5.63982 9.27628 -9.1696 20 36 28
-9.10906 11.3117 9.14568 31 46 59
9.14934 12.7895 7.1338 36 51 61
10.2718 -4.41052 7.76489 60 61 40
-4.06347 2.36655 -14.2058 55 51 30
-12.2714 6.57846 10.9113 42 48 42
-9.17897 2.3661 -2.19011 65 58 34
-1.95404 11.9453 -11.7929 6 33 21
10.1175 -4.57198 -11.8342 25 39 32
11.7702 -8.95627 1.42226 20 39 16
-1.95139 -7.07978 12.7918 59 51 29
-0.34267 -0.256333 -14.2062 64 57 38
-3.41288 11.0405 -14.7904 11 38 22
12.4438 -7.42153 6.74042 8 30 12
1.35577 9.94003 -10.0637 16 38 33
3.43725 11.105 -6.42741 53 58 34
-12.4419 11.281 5.41292 30 45 55
8.5968 -3.70209 -13.5329 9 36 16
0.803164 10.2767 -10.5765 1 29 21
-9.69088 6.59199 -4.36602 6 20 13
-10.0303 5.15754 -4.02491 33 35 22
-6.22266 4.67782 -14.2483 63 52 29
6.71079 12.4131 7.96695 23 38 47
-11.9732 -2.95313 11.9228 64 59 39
-5.58745 15.3313 3.77692 55 54 37
-11.4138 -1.0142 0.418806 71 60 37
-9.40079 -3.21013 -0.285262 73 71 48
-11.7487 -8.81995 12.5897 64 61 45
11.8242 -6.53815 11.6143 9 31 14
7.79804 4.51466 4.9955 70 60 39
6.03241 -5.73062 -7.73947 54 57 45
12.4848 -8.96318 9.36459 10 34 11
-9.17859 -8.7421 -8.6194 77 71 44
-3.90706 13.975 6.69516 30 41 54
9.57599 -6.4587 -7.38182 31 43 36
-3.05296 9.73834 -14.7147 28 34 21
-8.72632 3.62223 -13.3956 65 56 35
-11.5052 8.82173 6.27732 68 61 34
4.36292 -5.35413 -7.2464 11 19 15
4.64725 4.35227 -7.148 65 63 47
-10.3306 5.81213 -4.19865 10 29 18
12.4316 -8.55738 5.79835 11 39 19
-8.88533 -6.15738 -9.24251 75 72 48
-11.1985 6.31925 0.2439 16 32 36
7.52373 -3.36974 -13.3075 0 19 4
-11.8183 4.98672 1.20868 61 56 33
-1.63968 12.1131 -13.4136 8 40 27
-9.1513 -1.26493 -6.84442 68 61 37
7.68003 4.18596 9.47031 72 65 41
-12.1793 -5.40235 8.11576 72 66 42
-6.67851 6.06108 -14.3012 56 48 27
-4.873 -3.95914 12.692 62 52 30
-6.94106 10.3437 3.02404 39 40 48
0.547379 -2.20547 -14.2476 64 58 36
-9.22965 -3.27874 -3.86615 73 61 35
-11.8822 -1.39524 10.8083 63 54 33
-10.6979 3.71912 13.5105 53 50 36
-8.73425 1.93896 -12.2227 65 50 28
1.47991 12.5686 5.00254 24 38 53
1.46417 -9.02393 12.6603 54 50 25
7.13232 2.45499 13.0519 53 50 35
3.83733 11.1104 9.1391 17 33 50
-12.0539 10.8333 4.04175 25 42 52
-3.26519 -1.08019 12.8325 60 53 31
-11.787 -0.675276 3.50521 64 58 34
6.85657 -7.66379 -14.2396 0 24 5
3.32729 7.4416 -14.8243 48 49 38
1.47291 -8.99922 -14.3845 64 65 49
3.80081 11.7377 -5.43256 26 47 37
-3.77209 4.29725 14.0161 27 42 50
-1.01684 11.8313 -11.0369 0 24 15
-5.19851 12.6936 3.73691 74 73 54
-11.8217 0.163293 10.9418 63 52 32
8.2187 8.41151 8.70489 60 59 48
-0.696289 11.3825 -4.54733 11 42 32
-5.08747 -4.96417 12.6838 61 51 31
0.158125 10.7658 3.45183 23 37 51
-3.9367 -4.46065 -14.5477 62 55 33
-6.82685 1.10703 -14.2681 60 51 26
-2.80809 11.092 -1.50455 7 33 15
-12.3881 11.3207 5.80591 32 45 53
4.17945 -1.25288 -3.28222 64 53 27
1.18589 2.89712 12.999 48 39 18
0.715664 -6.40854 -14.3924 62 63 47
-3.19291 -1.75789 -14.2881 57 49 23
4.05405 -0.0735788 -1.37937 69 58 36
1.06135 -9.05579 12.655 54 49 31
4.69789 6.81565 -7.0842 1 27 13
-11.8091 -1.66255 2.84481 66 62 39
3.77596 0.05369 12.9286 56 48 27
-8.94238 -1.59906 -10.152 64 50 21
-3.55465 10.3191 2.02794 23 41 53
-8.70149 10.3741 3.23698 23 38 46
-11.2001 -7.83537 12.7516 68 65 48
4.49759 13.9579 6.26982 19 38 46
-9.28173 -4.04193 -1.18793 74 65 42
12.6037 -6.0167 6.36702 10 31 16
-8.83432 -4.84134 -10.9764 77 70 47
4.10285 -3.95128 -7.76491 0 5 6
10.6603 -4.98191 12.2891 37 40 24
-0.206635 12.2879 8.37745 20 33 50
10.748 -0.87391 7.6454 34 48 63
-8.81328 -3.13542 -11.9901 74 63 29
-9.36885 -1.46513 -0.0876637 72 70 47
3.30656 -7.08939 -14.2684 65 53 31
8.35474 -0.239756 2.89693 65 60 38
-3.39803 -7.42805 12.7858 60 55 35
10.0995 0.589457 7.17778 32 44 61
1.11181 6.08196 -14.0046 69 62 42
-9.21443 -3.47938 -4.10361 70 60 36
11.389 -9.79022 1.56539 6 30 2
0.348586 -1.94011 12.887 56 53 33
0.210464 6.29417 -14.1572 68 57 37
-3.00653 4.16273 -13.9732 4 3 0
2.77925 12.7721 5.28414 19 37 54
-3.2264 10.85 -5.42115 6 29 15
6.95816 -3.50863 -2.42577 8 27 7
-11.4675 7.9601 5.07046 65 61 41
-9.21592 -0.242499 -2.56145 68 61 38
9.70649 -4.04086 2.65858 54 44 22
-11.6827 0.624107 3.37861 62 54 29
3.5616 10.7392 -4.09734 1 23 14
-3.6701 10.8735 -14.3965 19 40 30
10.58 0.197029 5.8124 26 40 47
-11.0645 0.59966 0.432475 71 60 37
3.98016 -3.31231 -14.0878 69 61 40
-8.83111 -0.633901 -12.8767 68 64 44
5.99284 -8.14485 -14.22 9 30 11
-5.17737 -7.51331 12.7886 61 58 40
-10.0495 10.9268 9.4266 28 43 52
-4.36411 -2.54899 -14.359 61 52 32
6.00564 2.59014 13.0393 50 48 29
5.77477 10.0873 9.83643 18 37 48
10.277 -2.64769 3.94858 67 64 44
8.06042 5.6924 3.18701 57 49 25
7.69815 0.312311 12.9069 62 58 39
-1.80259 9.25387 10.488 24 35 45
10.2569 -5.02711 10.2766 62 54 35
1.78723 0.232982 12.9513 53 48 31
3.3805 11.0942 -8.08027 2 24 9
8.96457 7.11491 2.81811 46 50 50
-12.1482 5.75812 -0.0138035 43 49 51
-8.70934 4.35854 -13.461 64 58 32
0.588302 6.54944 12.3431 20 33 47
7.58992 -6.57396 -5.89075 26 44 35
-0.209276 2.85476 -14.2769 40 43 31
-8.94122 6.88633 -10.9758 13 35 26
8.04418 8.06309 2.05401 22 37 53
-11.7112 2.99409 5.3144 62 53 27
-7.50083 2.72963 12.9283 61 56 35
-6.29847 8.92549 -13.3756 12 35 28
-7.89735 6.15185 12.854 26 39 55
-11.7628 3.96725 11.4366 60 60 40
-11.7022 7.18363 8.46926 69 61 40
-5.92667 9.15647 -13.9447 3 30 21
5.03559 5.33411 -13.6348 59 55 33
4.19741 1.7171 -1.86303 68 64 51
4.90535 -2.74046 -8.44785 42 43 33
-11.7803 4.5165 8.91467 64 56 31
-9.42971 5.3488 -13.0082 32 38 26
-9.27926 -1.7881 -1.70013 71 66 40
-3.05887 -4.5003 12.7278 58 48 26
10.9267 -6.61799 -7.88339 29 45 38
10.138 0.792522 4.13197 27 41 55
-11.5719 6.007 3.19293 64 61 40
-8.88728 -6.1821 -9.70681 73 72 50
4.53764 9.42901 10.4111 16 33 42
8.58783 -4.36892 12.19 62 55 36
7.74853 -3.17048 11.4493 73 66 47
-4.98039 9.67595 -4.18887 8 24 12
-5.32321 9.55634 -11.102 9 34 24
8.35158 -3.85059 11.1311 66 62 43
4.39556 2.82511 -4.41427 65 58 35
-8.42123 13.989 6.96703 48 55 50
12.291 -8.2731 9.81235 1 29 10
-9.09198 1.66849 -7.39745 65 55 33
0.415554 10.8342 -14.6647 16 35 25
4.678 0.617001 -12.2383 64 56 33
-9.25001 -5.69053 -3.40673 75 64 39
-2.98946 10.2075 9.81388 23 38 52
-11.7829 7.25071 9.67299 61 61 46
0.706899 11.2411 -7.3015 3 24 16
-11.5664 5.81335 4.42243 64 61 38
2.03197 -8.46155 12.7289 53 50 35
-8.29279 4.8175 13.9128 31 44 52
6.71412 -7.34498 -14.2353 0 26 2
-3.69166 -1.77317 -14.3854 62 57 33
-8.84792 -1.2671 -11.6929 72 59 32
-12.1892 12.4358 8.27395 42 51 52
-7.97721 12.0852 8.64606 33 47 54
-9.19353 -2.9087 -5.50456 72 59 33
3.67363 8.64147 -4.4146 19 41 34
11.0733 -5.96685 -2.54187 9 36 15
-11.9461 -2.44972 11.2644 67 60 38
-1.05355 -9.44173 12.5493 51 46 29
11.5801 -8.04027 12.9536 30 43 21
4.95344 6.38722 -5.14048 4 23 16
9.07532 9.76599 9.35572 38 52 59
-9.32165 7.30405 0.995108 2 23 21
-11.5406 8.4051 6.47841 66 57 37
-12.2481 -8.602 9.30424 77 72 49
-9.92612 5.19936 -4.91726 39 37 22
4.53656 6.31174 -0.719598 1 23 18
-2.21641 11.6225 -3.02747 0 36 22
0.327396 8.30935 11.2654 17 33 42
-11.7696 2.20332 5.75744 67 57 31
-11.4649 8.40718 5.24157 64 59 38
-9.07197 4.57923 -5.72517 60 54 31
-7.34633 5.24723 13.4845 28 46 59
4.84721 11.2851 8.92162 21 35 51
-11.7074 1.44738 2.61088 68 60 35
-7.1846 14.5804 6.3566 63 55 34
-10.0944 14.0342 7.06451 47 62 72
1.44486 9.97311 -14.2577 6 33 21
4.36359 7.69512 -11.8795 6 30 20
6.5072 -4.68871 -9.82328 19 38 23
-9.92022 6.4504 -1.5082 3 12 4
-11.7826 5.47284 9.65307 67 59 36
10.203 -3.97462 8.68475 66 61 41
-12.384 9.03512 10.6626 35 49 59
-3.65294 10.7461 -9.28543 17 40 26
1.52851 12.3047 -5.61235 7 27 21
-11.7514 4.76903 8.58634 64 54 28
8.17074 5.15298 13.5028 21 35 49
3.94958 -1.33563 0.0380135 67 66 39
-2.32142 11.2072 1.86676 25 41 57
9.80995 -9.41469 -11.4069 6 34 16
0.845892 12.9217 5.38137 20 38 54
-0.174093 -4.49273 12.6827 56 46 26
2.00292 9.68328 2.73495 21 33 48
-6.56245 10.1592 2.88424 30 39 50
-11.6084 2.72528 1.40653 66 56 35
-1.97396 2.26694 12.9281 55 50 30
5.07736 6.30386 -3.85556 11 24 20
-0.137655 -2.04446 12.8703 56 51 30
-9.26068 -1.45391 -0.552278 72 64 42
-0.85265 -6.50712 12.7199 57 49 27
-1.45077 11.5341 4.05218 22 40 54
7.77317 3.80792 9.77146 69 67 50
7.80586 -0.909445 12.8088 64 60 45
-12.1376 -8.52326 5.66963 81 75 55
-5.22391 15.5098 4.40807 64 59 39
-1.04056 -8.30648 12.7942 56 51 33
4.70265 7.35706 -13.1884 10 35 25
-10.8709 10.2704 9.89541 32 47 62
7.95662 6.41229 10.1811 70 69 50
-4.52023 -0.165245 -14.3227 61 51 26
4.23007 6.87891 -14.8521 59 55 38
5.91378 -4.47112 -3.37666 3 26 6
1.74935 9.18734 -3.01144 5 22 19
8.85212 9.89544 3.43399 18 35 51
-0.672012 10.3687 1.77792 0 23 17
8.33001 7.3413 1.59305 18 35 50
6.14777 -5.73818 -7.35308 78 81 68
-5.96916 8.97508 -2.46104 9 33 23
3.76296 8.6423 -7.41767 10 23 14
11.5311 -7.53321 -0.341221 1 29 9
-9.26383 -1.29789 -2.75911 70 64 44
10.3953 0.604675 3.19016 26 39 55
4.84563 5.03755 -3.51665 63 66 50
-7.95129 2.08518 -14.2942 61 53 28
3.97689 7.83351 -12.5742 10 34 27
8.75602 -2.50532 3.06314 72 66 51
-1.78155 11.3815 1.04807 3 28 27
-5.45148 15.1112 3.74259 64 63 41
-4.00817 10.1485 2.13207 26 44 47
1.4115 13.3379 5.57796 22 38 52
7.45263 0.675213 0.787882 68 64 44
-3.23269 10.9416 -9.27324 9 36 24
-8.95741 2.91265 -9.96728 66 56 31
-8.99623 -0.53643 -8.22455 63 50 21
-7.64656 12.2366 8.42235 31 44 53
-9.11215 -2.44065 -6.53817 68 60 37
0.869756 10.2814 -11.2908 6 31 20
10.1614 -1.93794 9.47068 60 57 40
-5.94828 9.05181 -8.35087 6 22 13
10.4999 -6.63189 -6.67199 32 44 41
-4.46532 -6.74741 12.715 61 49 28
5.42531 5.943 -13.1105 49 51 38
4.1639 2.65321 13.0438 53 46 29
4.38644 -9.39715 12.6046 56 52 34
12.2576 -9.28961 5.46323 18 42 21
-9.63123 12.3157 8.45373 30 45 61
1.25761 -1.86048 -14.1946 63 54 31
-12.1067 11.6132 9.00092 42 53 64
-9.19903 3.72597 -1.1817 66 61 41
-12.2267 -6.18047 7.87501 68 63 40
7.90191 6.12437 8.26546 68 55 35
2.81256 10.8046 9.42216 21 35 45
-6.87504 8.41659 0.036721 8 25 19
-11.9907 -3.49622 5.56423 70 63 44
-1.39495 11.0096 3.26093 29 47 61
4.2147 12.2023 8.40094 23 35 43
-12.1974 8.8733 2.48082 29 39 46
-12.3465 3.91349 12.7568 44 45 24
0.753991 6.17221 12.6474 18 33 46
10.1979 -2.39851 9.23643 61 63 40
-11.6213 3.30609 1.98741 64 56 33
-5.87487 5.43098 -14.2365 62 53 32
0.0225334 1.22675 -14.2837 65 68 53
11.4359 -8.02694 -7.56137 18 34 26
-9.23096 1.45671 -2.51649 66 60 36
7.68984 6.61918 6.31937 54 40 20
3.62248 -6.95941 -14.2583 66 56 37
0.465873 0.313145 12.9005 54 52 33
9.21172 10.2024 4.61744 44 51 51
-0.550217 4.96348 13.6541 18 34 49
4.47353 7.39109 -9.27034 12 35 28
6.09316 -5.04035 -14.2208 3 25 11
-3.76527 10.4023 0.0342598 5 29 21
8.43999 -8.35964 12.9545 51 45 25
-9.28477 6.73844 -8.86557 5 24 11
-8.43662 -2.60011 12.7593 66 59 38
-11.742 5.87005 8.72006 64 56 34
-9.00552 -5.91153 -7.17543 72 62 38
-11.745 1.37245 5.43023 64 52 25
3.19835 8.04073 -3.73144 1 16 10
3.54684 -5.2814 -14.1707 66 59 41
9.91032 0.876972 8.324 29 44 55
7.82598 4.3633 5.72139 69 63 42
7.95506 3.62261 5.43103 69 62 43
-5.84087 2.33981 12.8829 61 55 35
-11.8416 2.27749 8.84596 64 51 22
-4.91399 -3.40481 12.6598 60 51 28
0.596345 7.47664 11.7087 27 40 50
6.03452 -5.14001 -3.36357 3 27 13
12.3548 -8.08532 5.02807 17 34 18
9.877 1.09112 5.41674 27 40 48
3.98224 7.96902 -7.75839 11 35 24
12.3999 -8.6583 10.9444 13 37 19
-7.08897 1.23527 12.8956 62 55 33
-11.7929 4.50596 7.25851 63 56 31
5.47752 -4.84515 -14.4466 52 50 26
-9.19077 2.70759 -2.04485 66 60 35
12.3027 -9.83462 9.42978 16 40 18
-2.54508 11.4438 -8.91059 4 32 19
-11.1101 2.59215 0.524199 69 61 38
-3.2071 11.9813 4.4994 22 40 53
-5.90449 8.25414 11.3619 29 43 53
-3.70293 5.30791 -14.2872 61 55 35
2.1705 12.5455 8.04833 16 33 47
10.6302 -7.52616 -11.6057 15 35 18
8.60786 4.2895 13.5074 37 51 62
-0.777887 4.27508 -13.7689 23 22 19
-3.14273 -0.754227 12.8312 59 51 30
-9.2185 1.95937 -1.30114 67 55 31
10.4093 -9.37941 -9.83378 2 35 5
0.325605 9.42051 -14.8397 25 36 23
8.50176 -6.43698 -7.51897 36 49 40
11.1901 -9.78883 0.296131 2 29 2
-8.83331 -5.38935 -9.42528 72 63 36
-2.87799 11.1543 3.44326 20 38 52
2.15526 8.11442 -14.7397 29 42 28
0.142884 2.65485 12.9988 51 45 24
-9.7352 6.58722 -11.1286 10 36 30
3.65309 9.48606 -4.2439 15 27 21
2.81678 9.66972 2.86395 19 37 47
7.75141 -4.20537 -10.2194 35 54 42
7.76945 4.9473 6.32282 62 58 37
4.76318 4.34667 14.0044 23 28 34
-9.19595 -5.29648 -5.44722 74 66 41
2.75194 14.0123 6.39619 27 40 47
-12.2037 -6.08613 7.50871 70 66 44
-4.42917 6.52883 -14.1505 64 54 33
7.82452 5.42065 7.72349 67 58 38
-11.5755 7.65412 7.11382 65 58 36
4.13067 3.43396 -0.672153 69 61 44
5.13795 7.95989 11.4571 18 35 39
7.76987 10.6752 9.49541 20 35 47
-2.61534 7.09787 -14.099 63 53 29
0.516945 -1.32406 -14.2712 68 64 47
3.34416 -3.93745 -14.1599 69 63 44
4.63246 -2.27831 -10.8384 65 56 35
5.16242 10.0533 3.35015 23 36 53
0.152014 2.2772 13.0016 50 49 30
6.02545 4.37425 0.0130234 71 64 47
3.0005 13.1839 5.51782 15 35 48
-2.53503 10.9969 -14.9601 8 28 22
-6.24175 14.8475 6.18066 64 57 30
7.64628 13.9147 6.12782 15 36 49
2.33106 9.25905 10.4737 25 35 43
-8.63631 9.28535 10.5714 28 40 52
-11.8058 2.82339 6.46932 63 59 40
-11.7793 -0.68537 3.99913 66 57 34
2.92554 11.6757 -4.78129 0 13 7
3.668 11.0533 -5.24529 20 38 30
-6.53837 -1.88896 -14.3808 66 49 30
-1.60648 12.1596 -11.8458 21 43 34
-5.0653 9.76427 -13.3082 6 31 20
-3.97552 -4.05165 -14.4261 58 53 32
1.23053 5.24984 -13.9921 59 50 25
9.78235 1.41637 4.22779 24 37 51
4.69736 -0.26943 -11.5014 66 61 40
-11.6748 4.4375 5.16788 63 54 30
8.71908 7.03013 10.6623 75 76 66
-9.58905 12.546 5.11691 25 38 50
12.1168 -6.85637 8.69828 10 31 14
10.2993 -2.27043 4.75862 62 60 38
-7.69644 7.81719 0.0189407 6 25 14
3.0822 -2.19297 12.92 56 48 30
0.104256 3.46721 -14.2686 42 38 26
-8.7222 7.11414 -13.7283 9 34 24
-0.858027 -9.28869 12.5649 50 46 28
-2.43103 11.3948 -4.44579 4 25 15
8.72742 5.94888 12.6262 30 42 51
-0.949368 10.7559 9.45421 26 38 47
-9.15707 -8.07428 -10.2585 78 65 37
-11.5481 13.2925 7.7972 49 58 56
-11.8432 6.14712 12.8926 30 49 66
0.752023 12.1195 -5.72499 2 25 16
10.9812 -5.1066 12.465 22 36 15
-1.61743 7.24186 -14.121 67 61 44
-12.5212 8.06747 2.48327 28 43 51
10.2302 -4.5975 2.30997 18 34 15
-11.7417 -0.828973 1.50263 67 57 33
-11.8167 -1.75765 2.53007 69 63 37
0.846193 -4.50902 -14.2147 64 48 28
9.74285 1.24177 7.15213 28 37 53
-5.31423 10.5688 9.61241 32 47 57
-11.6579 3.88669 2.94258 66 55 36
-4.77096 2.30635 -14.2437 60 53 29
2.14433 7.19364 -14.2089 56 56 33
0.494032 9.7374 -0.0882654 9 31 31
-0.981358 0.664217 12.9567 55 47 24
12.2126 -7.38639 5.46306 16 29 7
-12.0528 -3.87289 6.38577 72 65 42
-5.98762 5.83478 -14.1773 59 49 26
-11.9915 6.1773 0.133622 31 39 50
10.9835 -0.307154 7.29999 25 37 49
-9.19562 2.4373 -3.13758 69 62 42
-3.98967 10.3378 -2.04558 21 36 26
7.16429 -4.20131 -2.58086 0 28 7
10.7112 -0.249643 9.35935 30 44 61
4.68832 1.50396 13.0228 51 48 31
3.04712 8.39787 1.99236 12 33 43
-2.65522 9.43593 10.4159 25 39 47
-11.6966 4.23241 5.86644 65 54 29
-11.794 4.4312 9.47153 63 56 32
-8.93336 -3.0674 12.7131 66 58 36
5.45357 -3.42563 -2.17701 85 68 36
-7.79376 -7.70832 -14.567 65 53 31
-7.47082 -4.08354 -14.3863 62 53 29
2.28961 6.39364 12.4629 20 34 48
-11.7396 3.32041 12.0521 58 54 32
2.70642 10.8452 -4.1162 0 19 6
-5.59671 -5.56555 12.6906 62 57 39
3.12903 -5.59007 12.6906 57 47 25
5.88368 5.83936 0.415608 19 36 49
9.59823 -4.50191 -11.0606 22 34 36
-2.45304 11.5564 -13.5042 8 34 23
0.292782 10.781 -12.8344 3 30 17
5.2192 5.62108 -12.7253 61 57 36
7.9541 0.194971 1.29706 67 61 38
12.2323 -8.72101 11.5406 3 31 6
-1.25735 11.8033 -5.70909 13 37 29
8.08354 -2.2756 10.8438 61 55 39
-12.111 -4.83805 6.90225 71 61 36
6.33438 -5.79924 12.7379 57 45 26
2.59028 7.87172 -14.7995 40 48 36
-11.7325 -7.15849 12.7074 66 66 46
-10.7136 -5.118 12.734 71 67 49
-11.7311 6.84945 9.5059 62 64 48
4.09531 -0.0968161 -1.76053 69 60 38
-10.8235 -6.34704 0.118242 75 65 38
-11.5704 4.74136 2.19768 64 58 40
7.23314 -3.64746 12.9405 58 46 27
5.35642 14.0173 6.46228 24 41 52
-9.22889 1.92729 -2.43706 66 55 28
8.94795 -6.44939 -8.8453 33 49 41
-9.6883 5.10946 -4.95972 46 38 20
-6.75538 8.52359 -6.36766 8 35 24
1.15707 9.61515 10.3262 21 35 41
5.81114 -6.9159 12.7452 56 50 31
10.4819 -9.273 12.7112 12 23 11
3.11522 1.94796 12.9733 55 42 24
12.3267 -8.90606 4.99505 14 38 22
-5.47642 14.1407 3.63338 73 67 45
11.3498 -8.66042 -3.38671 15 38 18
1.05884 3.81947 -14.148 59 57 41
-0.226521 11.2824 9.05472 11 32 48
-9.32473 6.70176 -12.4641 12 30 18
3.90325 8.40236 -6.59004 28 38 23
-10.018 5.95308 -10.1338 12 28 14
10.487 -4.64309 7.14799 56 53 28
3.19732 11.801 4.47469 17 36 51
4.74179 -3.50124 -9.79494 81 72 48
-2.32919 7.39865 11.8751 18 31 44
-9.19113 2.90701 -3.40742 66 60 38
-10.3222 6.31566 -1.8256 5 25 21
7.42925 11.379 4.32338 19 37 51
4.04 7.80551 -8.39025 20 36 31
-2.37685 -2.65967 12.7789 57 46 22
11.4775 -6.90335 -3.7381 7 34 10
-11.7666 3.47543 7.01202 65 52 24
-4.43836 10.047 -7.27896 9 33 21
9.18407 11.757 6.07954 34 49 62
-9.5673 -5.89083 12.6872 68 64 46
-12.0122 -6.61935 2.53085 72 71 49
-3.14323 10.7371 -0.277883 5 26 13
2.56256 12.991 5.42365 18 37 53
8.7787 -4.16227 -1.85871 6 30 5
9.25483 -6.37278 -9.07622 28 44 37
-7.70459 7.88898 -13.8024 12 34 28
-7.63021 -6.94054 -14.5446 64 53 32
11.4649 -5.95658 12.2722 1 26 4
8.5963 -1.30886 3.19109 70 67 49
-9.06377 1.97216 -7.80042 64 49 22
2.4038 0.84585 -14.0617 66 55 30
-2.70723 11.2034 -11.5474 8 27 15
-5.06145 11.509 3.61728 55 50 29
-11.8504 -5.98429 0.276502 68 63 43
10.3692 -4.70924 5.2371 63 48 25
-5.15121 -6.82784 12.6981 62 53 31
6.10763 9.51045 2.8762 18 36 44
-3.09425 7.01721 -14.1104 66 55 30
10.8868 -4.87438 6.58864 60 44 15
8.05445 9.16368 7.07606 65 50 32
8.12294 -3.17801 -10.5395 32 51 29
3.54433 11.0209 -6.8929 45 47 37
11.6705 -8.57089 0.182611 20 40 19
-12.1629 -7.42941 5.05985 76 68 44
11.5173 -7.76917 -6.51416 19 33 26
5.27105 -4.67958 -9.49885 9 36 16
-4.8231 9.814 -5.24298 18 40 30
3.84575 7.37873 -3.86506 2 15 8
5.62571 -3.71154 12.8703 56 50 34
-11.9035 -0.856602 6.36506 66 59 41
-7.21981 8.15705 0.690447 1 24 14
10.6389 -5.18753 2.31658 2 28 16
-5.86837 14.8936 3.62196 60 63 39
-9.2346 -2.92733 12.7339 67 58 37
-5.16134 15.2482 4.84685 73 65 42
3.02491 13.5829 5.72283 17 37 48
4.66882 4.6607 -7.06512 62 64 47
7.77562 6.4159 9.77367 65 60 42
4.64903 -1.73914 -4.47848 40 41 34
3.96358 -4.37592 -14.0908 69 56 36
4.54715 4.43069 -5.26774 66 66 50
2.56863 1.44459 12.9812 55 49 32
-2.7221 -8.86713 12.7244 59 51 30
-9.1623 3.02432 -4.02914 66 55 34
-8.97206 2.64189 -9.89041 67 59 40
2.28775 8.66495 10.9179 21 33 44
9.14154 -1.2656 2.94271 110 101 63
1.16847 9.82072 -14.9881 13 28 22
7.21054 4.4171 0.00644302 60 59 45
-2.5682 4.35358 -13.7088 3 2 6
-1.97943 6.77004 -14.1853 64 59 41
-3.82851 4.03181 -14.3631 54 50 33
5.84126 11.0645 4.07867 24 33 47
10.3614 -5.95118 -4.23268 14 29 21
-4.68905 12.4347 8.13176 24 39 50
-9.15936 -2.51998 -7.16484 72 66 45
-2.71305 11.2501 -6.94856 8 35 24
1.74372 7.93632 -14.4971 45 49 34
4.24588 4.26492 14.0186 28 39 44
-1.66347 5.90428 13.0407 12 30 39
5.26971 6.35558 -6.05884 0 19 17
4.88258 5.20085 -12.2686 65 62 46
7.88148 3.11929 1.66842 59 53 31
-10.5378 -2.78034 0.282446 73 68 45
7.09796 4.71499 13.8199 23 37 51
-2.73805 1.65862 -14.276 60 55 39
2.66031 13.804 5.91718 16 33 46
-8.92464 3.75237 -9.52797 67 61 39
-8.91533 -2.02641 -10.8331 69 54 28
-0.535969 8.66512 10.9122 15 33 47
11.8095 -6.51025 2.02372 14 27 11
-11.5943 -3.82304 12.7908 64 62 45
3.37194 0.375367 12.9596 55 51 32
2.62963 -6.21753 -14.2194 63 51 26
-5.61161 2.24421 -14.2249 58 50 28
4.8143 4.57937 -13.7374 59 52 37
0.0472469 11.4738 4.10055 23 40 54
1.28761 -2.24066 12.8909 56 48 30
-9.28857 -2.01218 -0.922146 70 63 41
-0.465221 -3.38384 -14.3197 66 59 38
10.3548 -1.28153 6.31655 52 55 38
0.889874 9.88678 10.1625 17 34 47
2.80393 8.71537 -10.3774 3 27 19
7.88545 5.18929 4.22922 68 57 34
4.89587 5.42575 -14.1143 48 43 32
-6.19107 9.66091 10.3915 28 41 49
3.36881 8.30424 -10.0494 15 37 27
-9.24366 6.79982 12.4329 31 49 59
0.732081 -0.87026 -14.239 66 64 45
9.24217 -3.0648 2.90544 64 57 40
-4.92776 9.69585 -9.35449 4 25 14
-2.59596 11.4193 -12.4722 6 29 19
7.70696 -3.47367 12.808 60 48 26
-3.56284 5.68359 -14.2391 59 50 25
-8.93204 -6.74231 -12.6283 80 66 37
5.96043 -7.29156 -14.3217 8 25 8
4.13498 -0.620676 -4.95427 16 17 16
-1.59012 11.38 -0.00287342 10 35 33
-4.81051 12.0961 8.48082 28 41 50
-4.1199 -2.53718 12.7973 61 56 35
