ply
format ascii 1.0
comment Created by Open3D
element vertex 1378
property double x
property double y
property double z
property uchar red
property uchar green
property uchar blue
end_header
13.6787 -34.9551 -21.5419 143 144 107
-46.321 9.1727 9.01107 43 33 19
-42.6949 -1.51299 -10.866 143 95 42
64.6963 19.4202 10.7161 36 27 19
13.7831 24.1033 1.88632 62 38 18
-25.3454 23.0045 -6.85925 87 58 28
-42.0355 -19.106 10.5745 44 34 22
-51.129 15.4635 0.357422 156 111 67
28.3171 -0.576996 -14.1925 136 117 54
47.4577 21.6904 -9.63131 149 105 47
13.0948 24.6725 -1.13894 70 48 23
65.2661 25.6496 -0.688652 53 35 22
34.8423 -27.0707 10.6331 27 26 18
77.3464 16.517 -1.58773 91 59 26
-36.354 -0.438736 -13.3789 118 91 52
27.8806 25.9064 5.57916 24 19 14
-26.4518 23.5608 9.03051 21 18 14
-53.6701 13.8167 1.86697 83 59 37
-52.3469 13.4278 0.32008 148 100 47
-2.06567 11.0304 -14.8617 69 56 35
-35.9814 14.4444 -13.3874 143 105 51
-21.6292 18.3258 -12.0959 146 105 46
-1.77933 26.0105 0.388519 50 32 17
34.6506 23.4968 6.43597 30 23 15
-55.7348 -15.7975 -8.84621 148 99 46
-29.6993 22.7697 -5.33303 74 51 28
-61.5616 -30.4263 -10.4733 143 94 45
9.11606 -30.5859 -14.8092 49 37 16
-18.3534 24.3747 6.82672 30 23 18
58.7077 25.3834 8.32472 44 30 18
49.7313 24.9527 -13.3574 58 35 15
-42.3977 17.4145 -6.59064 44 33 23
-75.2092 -18.0326 -3.33773 28 28 29
-40.2241 12.5874 -12.6149 122 86 35
8.49786 -13.1347 -15.3413 147 102 44
-35.4067 19.0897 12.8393 43 32 19
-60.0202 -5.76971 -2.98125 129 83 40
65.943 18.9205 9.92457 38 29 18
56.313 27.3568 7.62933 49 32 18
68.1168 18.2397 7.12668 23 20 13
-54.424 -7.48486 -5.67344 35 34 28
53.1914 28.7181 -5.39006 99 63 31
70.3927 15.8811 6.0097 62 40 18
67.6924 14.7417 10.7708 53 37 19
11.6951 -4.40447 -13.8067 124 86 40
49.2891 26.4909 5.39053 67 41 19
-43.6197 15.9599 9.99134 55 36 18
67.4627 23.6245 5.03012 50 33 17
-41.5847 20.6127 -2.94578 91 60 30
37.1429 25.8874 -2.31125 89 59 29
-46.5257 14.4689 -2.24081 118 83 35
77.4014 12.6245 4.36879 24 21 17
12.1445 -24.0266 -17.9054 129 119 63
-16.6119 24.3394 -4.42489 79 53 24
-65.8278 -13.4766 -4.78395 86 62 36
-86.2522 -15.9913 -1.42465 86 60 29
66.9659 19.913 -9.62142 151 111 53
70.8136 16.4039 -6.85427 149 118 60
45.6328 25.2971 -6.5102 127 83 38
6.89967 23.8396 -3.05206 87 59 29
58.9537 23.2099 -11.6074 176 134 86
-56.0822 -0.918463 -2.16515 155 101 45
2.6012 25.1735 -1.00991 83 56 27
17.1908 23.073 -5.87358 97 67 28
-46.4931 11.3392 -2.69205 55 41 24
-67.1152 -13.4972 -4.16102 36 29 20
57.0848 26.6559 -8.59094 117 71 31
59.2313 22.1008 -12.0027 158 110 56
-47.8061 -9.45814 -9.5503 142 99 48
18.0615 -28.8755 -14.4216 32 33 27
-43.6155 2.71451 -10.8443 142 105 43
-32.4158 23.6484 4.27417 62 40 19
69.3365 11.8887 9.58887 29 24 17
-37.9636 22.1642 7.41514 20 17 14
2.24104 25.0845 1.18805 63 39 19
-18.0098 24.6171 -3.49611 86 59 29
-59.7149 1.28844 1.5605 44 31 17
7.81438 -13.8252 -10.4589 65 55 23
37.1609 25.7037 1.91043 63 41 19
-76.2703 -18.3231 -1.09594 16 16 16
-62.0723 -6.88167 -2.55013 92 72 41
-40.412 0.388332 -11.9673 86 71 42
58.9857 26.5572 -7.82149 106 67 32
54.8736 29.8298 0.0783787 56 39 18
-66.0003 -34.7753 -6.1588 16 16 15
8.30655 -8.81973 -13.9347 80 52 24
-54.2555 11.4771 1.26068 116 77 38
65.214 23.5419 7.16579 50 35 20
11.5878 -15.7015 -16.8176 152 105 47
-71.6931 -20.4112 -6.50013 134 89 43
-52.9944 -9.55491 -7.83354 133 90 43
17.8812 -27.0997 -14.2033 31 32 27
-4.15721 21.9001 -9.14119 73 54 33
-59.6948 -5.4534 -2.92075 133 82 39
-34.799 23.5365 4.364 62 39 18
-52.3042 16.5767 2.35412 61 49 36
76.9814 16.077 1.7682 42 31 20
58.0045 9.93269 -13.9384 88 80 57
-40.3565 -21.678 13.5165 54 35 17
17.3207 23.6747 3.39164 61 40 19
-21.0037 22.9709 -8.11577 90 62 29
-60.9595 -2.86716 1.6847 46 31 17
-44.2117 -4.1801 -10.5278 126 91 44
-59.3857 -14.7363 -8.08147 58 50 37
-37.2812 23.7978 3.31657 68 43 19
19.0646 -16.734 -14.1721 140 122 64
-22.1902 20.6663 -10.7202 125 81 36
49.8125 27.5905 4.34796 73 47 21
-61.6876 -21.4985 -9.77124 142 100 43
59.0637 24.5274 -10.225 117 74 32
-19.1703 24.6019 -3.37986 91 62 30
-55.7937 11.1102 3.27785 53 34 18
25.566 25.2217 -6.75424 37 28 20
19.2814 -0.524658 -15.3214 58 50 35
48.9212 20.6 -11.5768 80 52 22
-5.11034 23.5023 8.14566 56 39 20
76.8876 15.7384 2.61425 47 32 18
63.8585 26.6893 -0.301769 47 35 18
-66.4404 -31.6841 -6.24387 18 17 11
-16.7503 23.4905 -6.52956 27 22 17
-58.3712 -36.2897 -12.6973 101 74 41
-76.2304 -17.8582 -3.60795 29 29 30
50.0787 26.4064 -13.0198 61 37 19
1.57164 16.5791 13.0459 63 39 18
17.9658 -27.3311 -14.8797 34 35 28
-20.778 25.6039 1.54941 60 39 20
54.0352 0.160759 9.17126 65 57 35
29.3802 -16.176 12.3826 64 44 19
-15.3315 16.761 -13.3694 52 43 36
-39.8962 -2.72365 -12.3155 122 79 38
-47.476 16.2921 -1.41332 154 107 50
69.7064 1.73981 0.407732 56 28 24
49.1393 18.4212 -13.4166 123 90 37
-25.8682 24.3628 4.9631 61 40 19
3.03264 21.2057 -8.704 118 80 39
-6.15535 17.6742 -12.3914 142 99 42
-39.1122 -2.33128 -12.6097 60 47 34
-14.9604 11.2022 -14.6205 149 107 51
64.9652 17.8347 11.2311 50 36 17
35.5461 23.6725 6.44992 25 19 15
-40.4145 20.7688 7.98542 63 42 19
-50.6905 17.4112 4.9215 60 37 18
-63.2731 -15.4267 -6.06688 137 111 49
-40.5111 16.2618 12.6923 48 34 20
57.3581 29.4169 -2.99078 88 62 31
-84.2751 -22.0827 -1.49044 53 48 26
28.4094 23.2507 -10.1086 113 68 30
-50.3332 -0.317322 -1.48494 83 85 70
11.6848 23.9212 -3.23067 79 51 22
-51.8972 11.7534 -0.205296 162 109 48
-47.3459 16.0643 -1.56583 155 105 48
4.61069 23.1385 6.08084 47 31 16
-52.1331 15.429 1.17162 109 71 37
62.6073 16.7188 -12.5256 127 100 52
58.7731 9.62896 -13.594 90 87 68
69.9902 0.343164 1.79849 54 27 19
-46.8554 -11.2909 -10.5771 109 75 34
-44.1214 6.37862 -11.1336 126 91 43
-30.2553 21.2494 11.6614 63 41 20
70.3097 15.6394 6.2765 66 44 21
31.1355 18.0913 12.7783 57 39 21
24.6399 20.6291 -11.939 140 95 42
-25.8475 22.474 -7.60098 99 63 31
-37.069 -0.909088 -13.1896 135 102 49
72.4254 16.6921 -3.81819 136 97 40
68.953 19.2618 4.50935 57 49 25
-17.7879 24.5887 5.40184 32 24 15
-57.0349 -32.9135 -11.8587 92 58 29
49.8752 26.6858 -14.1663 68 43 21
-3.22404 24.777 3.62333 59 38 18
15.4626 20.5504 -7.78546 131 86 38
-21.0576 23.7329 -4.59494 45 34 23
-18.2462 24.2974 -4.01254 88 61 31
68.1743 16.8921 7.42764 40 37 23
-38.6996 13.1009 -12.9641 101 73 42
-0.884323 21.5346 -9.03322 104 73 38
-54.0271 14.0545 4.2979 58 36 18
-45.9546 15.7223 -2.5538 90 64 35
7.64769 -27.324 -17.9627 116 81 40
22.3173 -9.9898 -14.2183 134 128 80
-9.23206 23.9964 -5.60529 68 55 36
-48.1249 7.89767 -5.41652 45 39 21
-67.222 -15.6459 -5.49236 98 65 34
51.0323 27.946 -14.5041 87 58 27
65.4339 21.0916 -9.8753 148 110 52
-24.1563 25.2249 -0.000101089 75 50 25
-50.176 19.4341 2.99903 58 36 19
47.5683 13.9079 -12.365 146 119 67
71.58 15.6912 -6.41704 177 136 81
74.8116 11.4537 -6.07719 150 138 79
-4.47745 16.9905 -12.6227 127 89 41
-62.2422 -8.04931 -3.00308 106 74 40
-38.7249 17.2504 13.0417 58 40 21
-19.9603 23.9781 -4.36788 43 32 22
46.101 28.8055 0.814293 71 48 23
-6.6532 23.8699 7.42589 25 20 15
66.3916 12.9901 12.0539 39 33 20
-21.0047 24.3522 -3.14897 89 58 28
-10.606 13.8105 -14.3455 141 106 42
-44.9714 -3.58481 8.97851 62 60 34
-55.4128 -15.4814 -8.78061 145 98 44
17.9722 -25.712 -14.8383 28 29 25
3.52747 25.0261 -1.10854 81 53 24
-49.208 19.3613 1.38833 101 73 42
25.0675 25.88 4.99414 71 47 25
-40.3914 16.5845 -9.71988 100 77 42
-47.0092 21.4225 2.23997 57 45 34
-42.1512 -12.885 9.88145 34 34 28
-65.3722 -12.655 -0.416977 37 26 16
-72.7484 -22.2729 -6.66013 137 97 48
33.8005 -26.8005 8.82997 153 132 63
15.2264 24.7491 0.0482178 54 36 18
-66.0104 -19.2504 -6.81682 142 115 55
73.7049 18.3872 -2.2062 101 65 32
-44.0645 2.82091 -10.6741 156 109 48
-18.3626 24.1465 8.26276 27 20 15
-78.9151 -23.6336 -4.58843 132 102 45
56.8779 3.96187 -10.9923 131 141 108
58.2552 15.5469 -13.9172 143 137 83
57.6231 27.8349 -6.51045 106 68 32
29.757 24.2181 8.13757 56 35 17
-58.4086 -19.8227 -10.641 132 85 39
34.4389 -29.5176 7.58577 84 65 26
60.6531 27.0859 -4.96905 70 50 31
23.8314 23.0067 -9.79074 74 54 31
54.4399 28.332 4.12285 71 47 22
34.0365 22.7005 -8.28938 134 86 40
47.8356 16.85 -11.564 158 110 58
-41.2897 9.16763 -12.5808 96 85 71
-14.3064 24.3689 6.67981 42 32 18
-20.9416 24.5146 -2.71628 82 55 25
21.8777 25.017 0.966133 61 39 19
-85.8434 -15.2742 0.781708 19 17 14
-61.4308 -4.62902 1.76556 48 33 17
13.2324 24.4501 -1.90004 83 55 25
-65.8022 -13.3415 -0.88781 38 26 16
-51.0255 -0.772482 -6.41093 51 53 43
69.5436 20.6305 -1.73354 61 47 18
-12.6923 22.3098 10.2732 55 37 20
17.0435 -31.0312 -20.3713 79 50 24
-56.9912 -32.6008 -11.149 65 42 20
-84.1622 -21.1628 -2.88877 113 88 39
-17.0734 1.57248 -12.2948 143 133 71
-10.5538 24.0657 7.79338 61 39 18
-42.3237 10.475 -11.4586 34 36 29
34.8195 -28.6822 11.7374 48 35 20
16.0356 5.80197 -13.2506 132 96 45
13.675 23.2622 4.74995 59 37 15
-64.6631 -35.5753 -10.0528 68 52 32
-40.2485 15.3407 -11.2182 173 133 92
36.7548 25.5692 2.10933 60 39 18
1.49437 24.7881 2.03741 57 37 17
10.6359 22.5207 7.08521 59 37 17
-11.5419 22.5819 9.85793 33 22 14
76.7053 10.9102 1.12992 60 57 38
55.3437 8.92577 -14.6129 80 80 52
-6.91612 22.0239 10.7568 32 27 18
-56.2207 3.30574 -0.631626 139 90 43
-26.652 23.6452 7.6826 53 36 20
-51.9403 -6.95635 -7.90508 102 74 53
10.3491 22.4267 7.22685 59 38 17
39.2888 25.575 2.87636 55 38 19
-47.1708 10.3954 7.2803 41 35 21
31.4804 23.2072 7.99648 60 38 17
-29.376 18.9366 -11.3282 128 83 39
47.4187 14.0482 13.8871 57 39 19
-81.7028 -22.5155 -3.61493 127 111 52
10.6868 22.1989 -6.80723 109 70 32
28.0581 23.5198 -9.99571 113 70 31
-36.7631 15.3368 -12.5884 72 54 34
-84.9771 -12.4238 1.05861 14 14 15
-41.2422 -6.43797 -12.4879 53 44 36
-1.25998 16.9276 -12.4155 133 93 41
-41.0774 17.1582 -8.64982 87 64 42
34.6451 -26.6894 10.6177 26 24 21
-62.5277 -19.6143 -8.97639 159 133 62
-55.8481 11.068 2.688 61 40 20
68.7163 22.0319 -4.06206 38 30 19
5.87094 23.2591 6.06801 43 31 19
-41.5424 15.4817 -9.40031 48 34 23
34.7752 25.4466 0.343384 59 38 19
64.4608 20.462 -10.5282 152 118 54
11.4565 24.6974 -0.22991 54 37 21
76.9779 10.95 -2.76777 36 35 25
-85.9498 -13.9295 0.47187 25 22 16
57.3117 26.8723 -8.19558 114 68 33
45.3362 24.8064 -6.94352 122 74 34
55.8578 3.60405 -11.6177 110 118 88
54.9807 30.0417 -2.17602 83 53 25
53.1353 22.849 -13.326 165 160 96
70.0592 2.83206 2.83188 44 25 20
19.8237 18.7855 -10.0665 139 106 68
-63.8959 -35.8986 -10.3249 71 53 34
-24.5251 24.0536 8.1707 43 30 18
50.2329 25.96 -12.5872 61 39 18
-17.713 23.8704 8.35269 61 41 20
-46.3414 13.6742 -2.4317 92 69 32
4.1703 20.8922 9.93781 22 19 16
2.71585 23.3003 -4.69406 55 43 32
7.15425 -20.7842 -13.6024 55 41 18
-10.4128 22.833 10.1099 21 19 16
49.5454 22.794 -13.6776 79 50 22
-47.3867 5.05598 -8.17771 119 77 36
-40.5005 -3.40892 -12.2421 128 86 39
-40.7135 12.2125 -12.4642 120 88 48
-36.5289 -34.576 14.3838 25 22 15
54.4903 25.9738 -13.5943 133 130 89
-46.0537 12.6199 -5.67141 73 49 22
29.8145 23.6465 -8.62912 108 73 37
54.2419 28.9093 -5.19885 95 62 29
8.89427 23.8114 3.70626 63 39 20
17.0556 -14.4222 -14.4891 149 126 64
-44.1022 17.3792 -3.87848 96 65 32
-51.1588 -4.93643 -7.72477 102 75 50
11.0526 23.3684 -4.91475 89 55 26
-50.4805 19.2498 2.49883 63 43 21
-60.2071 -34.6111 -12.276 121 81 48
-56.3934 6.78592 4.61213 52 35 17
51.7305 8.58078 -16.0586 132 106 53
-28.747 21.4443 11.8053 65 41 19
-56.565 -14.0502 -8.1204 141 92 44
-46.1467 5.03401 9.67521 48 42 24
-58.6358 -19.4107 -10.2865 131 80 38
-44.203 2.076 11.9046 49 34 18
-45.2617 15.0711 8.11499 54 35 15
41.9148 26.1764 -4.49784 121 80 40
-10.3299 0.291875 -14.686 145 110 50
-41.2676 -12.8851 10.7782 34 31 22
-61.6782 -19.9145 -9.36456 145 115 48
-42.4025 19.3601 8.38885 51 33 18
-74.9103 -18.181 -3.91191 40 42 38
-1.48657 24.5714 -3.26599 86 59 33
-23.3841 24.8623 3.69627 60 39 17
9.69026 21.3086 8.62432 43 32 16
-48.1816 17.6968 -0.515457 130 82 37
-12.1932 3.66339 -14.8544 148 119 64
33.6436 24.5312 -3.75121 75 51 26
-76.456 -25.3128 -3.84551 95 86 40
38.4342 25.9808 1.75523 61 40 19
54.6969 28.5836 9.52756 48 33 17
-59.0034 -1.44891 -1.31939 135 92 54
-55.1758 12.4219 2.93098 57 39 20
17.3969 -26.2169 -16.0792 45 46 40
-45.1008 21.3671 0.748035 104 72 36
67.8426 23.243 -5.23807 32 25 16
-38.5817 16.1606 14.1082 23 20 16
-0.657761 20.9868 10.8392 57 40 21
59.7908 25.1411 7.45287 55 37 18
63.752 26.3407 1.02475 24 22 16
-10.4405 24.292 -4.47955 67 45 23
53.7477 20.1992 -14.9362 77 66 36
-36.6724 24.1393 0.0756226 76 52 26
70.3004 19.5712 -2.23882 58 39 20
52.4617 9.21023 14.7668 57 43 20
51.0641 28.2011 4.01548 72 47 23
-33.0467 23.7376 3.65901 66 41 21
-6.07188 22.1676 -8.89379 73 55 32
9.15892 24.5743 0.921199 57 37 17
-57.9313 -13.1463 -7.04446 31 32 26
-36.4781 13.9948 -13.4458 99 80 52
19.1369 -34.9868 -17.7973 64 52 23
-24.0191 25.1374 -0.248379 80 54 25
-23.4055 20.4952 12.3285 62 41 22
-46.0653 12.64 7.70913 57 38 17
18.5309 22.9487 7.39415 59 39 19
-50.0038 17.8536 0.96627 145 105 65
57.808 21.0272 11.9996 58 38 17
-47.0645 3.51395 -8.83673 135 88 42
69.1735 22.1414 3.54915 49 36 18
-62.605 -9.9182 -3.88029 117 81 43
-41.4182 19.0023 -5.74506 34 27 19
59.5547 24.7265 8.46917 54 34 18
68.8829 4.56316 6.21227 51 29 26
-69.832 -19.2981 -6.45135 132 88 45
-40.5759 10.2016 -13.1136 84 62 37
-16.891 23.1581 -7.96995 63 44 24
-50.7335 -12.955 -9.09327 129 82 38
-47.5421 16.8696 -1.18939 144 95 42
2.30571 18.4225 -11.4331 118 88 47
64.456 24.4235 6.70122 56 35 19
40.7557 -32.1925 12.7 56 39 20
30.8041 20.136 11.6555 56 36 18
69.0032 18.204 4.96421 52 38 18
75.0354 12.4004 7.14573 61 40 19
-65.9598 -27.1712 -5.57199 28 21 16
20.8038 -16.395 -12.8254 60 62 38
-54.5691 9.6609 0.623226 138 94 41
74.1976 16.9386 3.38354 60 37 19
-51.7268 -8.86434 -8.03465 142 95 42
-46.3975 4.10157 -9.24608 179 139 83
-49.6481 3.45343 -4.44405 44 44 36
69.7554 1.70643 3.95146 43 21 15
-52.6776 12.9967 0.434155 130 86 41
70.9179 17.2317 -4.62368 92 74 37
17.4727 -26.6825 -16.0843 89 90 84
-47.3307 20.5706 1.34027 99 68 36
26.035 -16.856 14.5015 63 41 19
1.94606 13.6253 -13.8137 56 50 34
-66.0576 -29.9095 -8.53991 99 74 40
68.1264 12.2854 11.1385 66 48 21
-62.0707 -35.7864 -11.469 77 57 37
-16.9453 13.823 -13.8633 145 102 47
-50.3883 18.7194 1.68896 71 62 43
18.5356 -30.9255 -17.2945 58 42 23
-12.2409 17.1389 -12.9614 137 89 41
60.2749 28.2828 -2.84611 68 48 30
63.0042 25.6458 4.00973 33 25 18
-51.9599 17.2078 3.73156 58 37 18
77.0078 11.2676 2.09249 50 44 25
53.9935 3.52798 11.4056 72 68 40
40.2598 25.8566 -4.22992 90 57 28
-66.8152 -13.5275 -4.47537 63 56 44
-20.1702 17.5926 -12.3211 38 39 33
-64.9456 -21.8679 -8.24266 103 81 40
65.2204 18.6431 10.5591 54 39 20
32.1328 -24.3477 8.53471 169 147 72
-44.6749 13.0557 -7.55189 41 30 24
-13.5333 -2.80324 -12.2562 142 119 60
7.82802 -31.2534 -19.0085 112 72 36
-84.9195 -12.0522 -0.224857 37 32 18
-39.2902 11.9761 15.1123 20 16 15
-21.51 22.8926 -7.93712 85 60 30
-41.1791 10.373 -12.8095 36 38 32
1.86374 22.2816 8.50147 58 39 17
53.6719 27.1854 -13.2736 54 38 18
-5.15532 25.9574 0.173428 51 35 17
51.399 27.9113 -6.28008 100 64 30
-37.0771 20.2361 -7.65287 47 38 29
-37.0267 17.673 13.4504 55 37 18
48.9648 27.5462 -5.714 109 72 34
38.9912 -31.6952 7.02333 77 52 23
55.7986 17.6596 -14.951 86 72 42
-42.1214 -12.4605 9.88883 37 37 27
-62.5524 -16.6546 -7.14321 96 72 33
26.498 26.0055 -1.98241 56 36 19
55.3667 29.413 1.68919 59 39 17
-47.8672 8.31543 -0.40583 80 70 44
-13.7119 24.3147 8.51025 27 22 17
20.8235 16.9172 -11.2437 133 93 41
66.2006 25.2807 1.52511 62 42 21
67.2104 23.1667 -2.71373 38 27 16
62.7472 24.7514 6.98119 31 25 16
-46.3709 7.93695 9.18007 42 37 19
46.9827 28.5444 1.97042 64 41 20
75.3609 14.4758 5.50361 56 37 18
-43.6234 15.2201 -7.31331 28 26 21
-48.2802 1.87914 -8.131 121 79 36
-61.4307 -3.46471 -0.504654 49 39 21
76.6377 10.8085 5.52518 65 46 20
76.7934 16.9856 0.807464 35 31 25
66.2048 13.0184 -11.8527 131 124 71
23.5022 25.2492 1.5876 58 39 18
24.4887 25.5877 -4.26063 72 49 23
-7.29759 24.8754 -3.04064 85 54 26
-47.7774 17.8881 -0.645357 143 97 61
-43.0052 12.1978 12.1704 43 30 16
-4.06111 8.03732 -15.7137 141 110 48
-39.1373 20.9802 -5.14084 74 50 25
3.16745 13.8618 -13.484 144 107 43
-72.911 -17.4263 -3.85646 26 26 25
-41.1481 11.3035 -12.3083 53 49 38
49.7784 25.8407 -13.4626 57 36 17
-75.8044 -18.2575 -2.14288 16 17 16
-42.8227 -2.06837 -10.8925 135 96 44
62.6091 25.8132 3.76656 25 19 13
-26.1505 17.2791 14.3527 62 41 20
51.2394 27.6026 -12.7935 58 37 19
-8.04276 13.4116 -14.4644 67 56 38
65.0794 17.0137 -11.6477 150 113 55
-62.2748 -28.1913 -10.1402 141 98 45
-55.9157 -33.549 -12.6141 131 88 47
-85.7474 -13.2941 -0.540642 52 43 25
7.25735 -24.0493 -15.2527 53 41 20
15.9088 24.6938 -0.0720863 51 35 17
-44.1979 14.5422 9.9465 52 34 17
16.7576 20.6032 -7.86835 131 91 42
-46.7414 13.901 -1.88083 146 106 48
-41.2865 2.50923 -11.9116 43 42 37
-61.5045 -6.83788 -2.81159 117 79 40
-64.7255 -11.2284 -0.660439 35 27 14
-27.1124 23.288 8.53517 52 35 19
-48.1746 7.4924 -5.01288 48 41 21
70.1692 21.7885 2.02001 41 30 17
-78.4777 -16.1884 -2.65971 29 27 22
-37.5355 12.8905 -13.4029 46 40 34
-46.1301 12.8343 -4.66748 60 39 23
-13.8105 -4.06149 -11.73 153 143 83
69.6303 20.9705 -4.60974 37 29 19
-5.96252 24.1878 -4.65294 75 50 26
31.9915 17.258 12.2025 44 34 20
45.9133 25.6626 -6.25242 123 81 34
40.9445 -34.4728 6.31761 107 93 43
47.3158 29.6094 -1.21548 56 40 20
6.10086 18.0545 -11.3158 46 43 34
34.0894 24.8625 3.89249 53 35 18
30.1512 -17.5241 8.30943 153 137 73
-62.5819 -6.06616 -1.05363 42 31 16
-10.9787 22.7063 9.98362 32 28 21
-2.95003 14.2951 -13.7093 70 56 40
19.9602 -18.4547 -13.7404 91 90 53
30.6112 -17.6543 8.96511 116 111 63
-17.5865 5.99849 -13.3666 125 99 48
-49.2205 -10.1676 -8.99652 132 90 39
23.5126 25.1329 7.0121 61 40 19
-44.8013 10.4669 10.4028 53 35 17
-50.5857 17.7906 1.25204 120 84 52
17.8805 7.15065 -13.4726 140 101 43
-30.0522 21.3761 -8.21797 42 32 24
21.5609 13.5986 -12.8593 146 97 44
-62.3602 -5.69866 -0.578671 42 29 15
15.9341 22.2974 -6.54549 123 84 41
36.3845 -31.4769 5.10238 112 76 37
-30.8137 21.4619 -7.97069 60 44 28
36.0254 25.5433 1.86378 58 37 18
-44.6287 -8.49635 -11.2703 124 89 40
11.5502 -17.1132 -17.3231 152 103 49
-2.66608 25.3714 2.32638 62 39 17
65.0596 25.0975 4.93201 42 28 18
-4.64255 25.9821 -0.175461 53 37 20
19.807 19.6871 -9.39709 146 115 72
-49.1897 -1.28836 -8.13375 139 93 44
60.8547 24.9799 -8.43807 105 69 33
-53.0762 -4.06842 -2.43191 65 67 54
73.2428 18.9835 -0.100864 55 40 26
-57.6426 2.14172 -0.246078 139 95 53
36.7113 26.0408 -1.53792 74 47 25
-40.6918 10.9056 -12.9069 91 69 44
-29.3847 21.1586 -9.18908 109 74 34
67.612 24.2902 2.41826 51 34 19
-49.9149 -0.177774 -2.84879 35 35 29
-40.9384 21.6713 -1.93708 94 61 30
56.9675 27.7791 4.87894 25 20 14
48.6375 21.4968 -10.2743 131 82 37
24.3581 24.3074 -8.05588 38 29 21
-43.0353 14.3626 -8.95301 106 70 36
60.97 24.2541 -9.14528 123 82 36
47.1023 23.2053 -9.03489 95 74 38
-45.7661 -1.70946 -9.63696 151 102 50
25.7389 1.80431 -15.3995 104 92 50
53.6989 29.7613 10.5083 53 35 17
76.7756 15.4791 3.34138 52 34 18
44.7456 28.3337 -2.27794 78 54 30
-7.98579 18.4969 -12.1902 65 55 42
14.6572 -4.26891 -14.6521 137 98 45
49.7388 29.3652 -3.24719 95 58 30
-39.9225 22.6626 -1.09359 95 62 30
-7.3734 -8.59661 -12.6839 149 135 75
-63.0919 -7.14694 -1.7682 52 41 24
-55.0739 -15.4835 -8.83557 140 92 37
19.0684 -20.5437 -14.6642 59 54 36
69.1131 16.5496 6.50728 41 31 17
-21.5905 22.5254 -8.8819 93 63 30
-60.4443 -22.4488 -10.8125 132 93 42
50.4304 26.6636 -12.7573 57 37 16
-27.8228 22.5069 -7.05817 70 48 26
52.3245 29.7641 0.905897 62 39 18
50.5807 23.7898 -11.4245 54 35 14
29.3927 25.8075 4.84862 34 25 16
36.3983 25.4632 -2.68505 84 55 26
-30.5071 21.6866 -7.45628 36 28 21
-55.7542 7.8369 4.82974 59 37 19
67.0305 23.5877 -1.28518 79 53 25
53.4689 14.1219 -15.6738 73 67 49
-10.1475 14.0423 -14.2654 138 98 42
18.1926 -31.303 -20.7576 102 70 30
75.2244 15.4604 -3.75425 144 104 53
-55.2721 10.5894 4.53274 59 39 19
72.2092 19.3913 0.312008 57 39 24
77.2848 12.3586 1.73244 52 51 34
-38.0902 9.7132 -14.0082 151 104 47
7.13239 -22.73 -14.8007 53 41 20
47.3754 8.66649 -12.0702 132 100 41
-22.1891 20.0871 -11.2046 133 87 41
-73.1216 -17.782 -2.45636 17 17 15
72.1675 13.7918 -6.70415 149 111 47
49.4476 21.8431 -14.0094 106 69 33
-37.3451 1.80708 -13.1966 53 44 33
53.3674 12.5855 -16.0641 71 69 54
62.6595 26.0994 -4.64041 78 58 31
-34.3602 21.4449 10.8317 27 23 16
-60.573 -9.00572 -4.1892 148 97 47
-50.854 -1.0258 -1.56742 85 89 69
71.4317 16.7648 -4.76378 87 60 27
-12.0547 10.9409 -15.0802 132 98 44
-62.6964 -18.4651 -8.62456 150 140 72
69.4856 3.86004 -1.34873 57 29 24
-78.8685 -18.0222 -4.27762 54 45 34
49.5251 24.2914 -9.20789 141 89 41
68.3077 16.591 7.43942 34 31 19
41.2444 -32.9318 8.58749 65 46 22
-64.1123 -9.74612 -1.79253 38 28 16
45.4838 18.8888 -9.89077 72 53 35
-59.8193 -3.49332 -1.9306 114 76 39
-52.8089 16.2184 3.58039 54 37 18
38.2428 23.8448 -6.77917 96 65 36
-41.7181 9.17133 -12.223 56 48 35
-50.3136 0.416559 -4.07657 40 41 32
-33.5453 22.7021 8.39888 44 30 18
65.9411 24.5713 -1.74316 71 49 24
-60.8199 -21.9131 -10.4041 126 86 38
16.8385 23.3844 -4.97172 75 51 26
-35.8675 21.1052 -7.20449 53 40 28
-42.8283 -10.2477 8.83342 64 62 39
-53.2615 15.2852 3.96682 57 38 17
-4.13634 16.9009 13.3773 21 19 16
-37.3791 23.7258 -0.522488 84 55 28
-9.43085 24.5756 -3.5417 83 56 28
-19.0079 12.3015 -13.3074 81 64 42
-16.2677 25.9436 1.57904 63 39 20
-56.7446 2.37586 -0.669781 131 83 38
-27.4141 25.0105 2.53279 62 42 19
-84.2708 -20.0471 -3.18178 138 99 47
-57.9079 -1.83814 -1.97435 140 90 44
2.33484 19.5932 -10.4601 107 77 39
-3.14702 22.7676 -8.38366 92 66 36
-4.86531 23.696 -6.13786 64 49 29
-41.5807 -12.5212 10.4601 29 30 23
17.9604 -28.4981 -16.1059 48 51 43
-1.50478 19.6852 -10.6979 131 93 41
-4.20541 25.9694 -0.606445 71 48 24
-27.3268 23.1466 8.82269 57 39 21
-49.3754 -7.19017 -8.6017 150 107 45
-20.4684 24.7009 4.64923 34 27 15
68.8724 13.3424 10.4937 55 38 18
-76.896 -22.6834 -5.72258 143 104 50
-36.6617 13.5625 -13.4764 68 56 36
-41.3897 -24.799 12.5105 28 29 23
24.5431 25.147 -5.86432 46 36 24
-9.1478 6.48958 -15.7627 71 56 39
-6.85928 24.1439 6.87043 35 25 15
-54.3352 -5.91037 -6.05824 44 46 37
-67.0934 -16.5247 -5.88642 131 85 44
-66.0589 -25.391 -8.05455 130 122 100
70.3195 15.2975 6.60723 68 45 20
52.5954 2.05152 11.6882 69 62 39
-61.0401 -3.17479 -0.864231 56 54 44
53.4918 27.2169 -14.6675 75 63 35
7.12396 18.8034 -10.3661 69 59 40
-10.8821 22.801 9.72535 32 26 18
43.7854 26.5615 3.08553 71 45 23
-43.6925 -2.25974 -10.5438 88 65 44
-8.95796 25.8464 -0.417397 78 53 26
25.6751 25.6457 0.652992 56 37 17
-22.4445 24.7793 5.05224 38 28 19
-83.0575 -18.2437 -3.9264 151 105 47
-86.3329 -17.2362 -0.471226 42 33 20
-47.2676 20.1636 0.93689 110 70 33
-24.912 25.0695 -0.36499 86 56 29
-44.3967 22.277 1.28526 72 56 38
-16.8893 23.5291 -6.08532 28 25 19
-73.7217 -21.1498 -6.42097 110 79 39
51.3421 16.3501 -15.81 133 110 56
-68.6257 -18.0467 -6.2032 135 93 45
-50.5026 -11.7156 -8.85471 154 106 50
28.775 24.7702 -7.65879 87 56 25
-46.539 11.5901 -5.56611 81 54 25
44.0724 16.4971 -10.219 160 111 50
49.6447 13.9216 -15.273 132 96 42
60.2951 27.157 2.77804 33 26 16
24.8223 19.5839 -12.4329 141 93 39
-52.5015 16.5113 3.63984 54 36 18
-10.3519 25.6667 -1.1483 87 59 27
47.8471 23.8427 -8.72664 132 90 37
-52.5263 15.8108 1.89893 75 58 37
-16.6857 5.36157 -13.5324 81 66 44
9.19124 23.9357 -2.93736 62 45 28
28.5643 25.2359 -6.20478 59 39 17
-41.9618 -6.6924 -12.1854 51 43 35
74.0609 13.8509 6.90439 57 37 16
3.8761 21.181 -8.55569 120 84 39
65.4761 14.8133 12.6547 18 16 15
-19.1193 24.6025 5.1025 58 39 18
23.4453 25.7513 -1.6523 55 36 17
51.934 18.0084 -15.6233 133 103 51
13.836 -27.328 -13.08 68 54 20
6.64046 24.9686 -0.51923 65 43 24
69.6047 0.272781 4.91863 61 37 21
-31.8762 17.6248 14.4797 62 38 17
-50.2461 0.804111 -1.4491 93 96 83
-71.8866 -16.9589 -3.43516 17 17 15
-62.0815 -6.55374 -2.41372 76 62 42
31.9122 25.2526 1.57043 67 42 20
66.7706 20.4596 9.06967 26 25 19
-72.7699 -17.4033 -4.3461 47 50 44
-18.101 25.3715 -0.919643 71 47 20
51.385 17.3007 -15.6219 137 100 45
-60.7419 -16.5467 -8.54377 146 114 50
-50.5267 18.0576 1.37488 108 76 48
-40.7674 22.0433 -1.46215 93 62 32
-40.388 22.2681 -1.38637 101 68 37
13.4463 20.7193 -7.49166 40 39 34
1.55673 24.5171 2.63315 62 39 18
-28.0056 22.5248 -6.61303 65 52 31
17.3138 22.2206 -6.75296 132 90 42
-82.5999 -22.9399 -2.37671 78 70 36
-33.6716 22.3825 9.59843 19 19 16
-43.9439 -1.45748 11.2293 50 41 20
62.0699 27.8138 -1.17798 27 21 18
-9.82516 21.7534 -9.54029 35 33 30
-71.3754 -17.9105 -5.51703 77 65 48
50.2033 24.0459 -14.5131 160 123 87
-25.4467 23.2836 -4.58924 41 30 18
27.4737 25.8538 1.12859 51 34 16
-44.9764 1.25753 10.8461 48 38 21
-60.0773 -32.575 -11.5206 119 76 37
-38.5534 23.6067 -0.358536 91 60 29
-65.0297 -15.7076 -5.87568 135 86 38
52.3349 26.9392 -7.89458 113 72 33
-39.3251 18.1271 -9.08559 111 74 37
68.7009 2.69802 -3.02883 112 70 57
-57.4016 0.43428 -1.23968 134 85 41
-43.9106 14.6726 10.1959 52 34 15
62.4295 22.4657 -10.0702 152 102 48
-46.468 3.41773 -9.27749 174 128 75
35.2423 25.5577 -0.12896 53 35 16
-44.6035 14.2201 9.5944 55 36 16
74.6706 12.4552 -6.06678 154 134 65
66.5932 11.2125 11.7584 42 35 19
-66.1205 -34.1217 -8.94588 71 53 29
0.715836 18.51 12.1836 63 43 21
-14.7661 24.1752 -4.57042 38 30 24
-45.5723 1.32956 10.0806 53 49 31
46.0792 28.5648 1.24456 65 42 18
29.2031 18.6599 13.2185 57 40 20
29.8281 -16.4492 11.9676 61 43 19
-52.9167 -14.4533 -8.90277 138 93 41
-35.9215 17.3628 -11.7865 134 87 42
-43.9681 -6.39424 -11.133 129 91 39
-51.3627 -3.24941 -7.3473 89 89 79
-40.1922 17.2313 -9.20828 95 72 37
-41.0932 13.3996 -11.4546 56 43 29
48.2216 28.588 2.59651 65 40 18
57.9241 23.09 -12.3379 125 85 42
-65.1181 -10.8784 -2.98291 47 36 22
59.4508 17.6772 -13.4671 144 115 52
-42.1594 10.9075 -11.4252 45 38 30
65.7063 24.9014 4.08834 58 39 20
-49.0127 -9.34192 -8.95044 142 94 43
-13.2547 25.0952 4.44897 62 40 18
-46.1617 9.27687 -7.98182 91 63 32
-26.4295 23.9474 6.69346 58 38 18
56.8428 25.487 -11.2793 68 44 19
-11.1995 2.11482 -14.856 144 115 51
59.9702 14.7148 -13.5587 43 45 37
-5.07494 18.735 12.9369 21 21 19
-20.9641 21.3011 -10.0229 99 71 40
-42.177 -5.19284 -11.8801 57 56 50
61.4663 24.2105 -8.88254 123 78 34
41.225 -32.957 11.4542 64 44 19
9.28015 -7.46463 -14.8341 128 85 37
67.1206 19.0264 -9.75471 150 118 55
76.8452 14.2826 -3.3761 123 86 37
-65.1422 -36.1228 -5.99942 28 24 17
-32.0544 16.3367 -13.0667 120 83 41
12.3916 21.9504 7.86725 61 39 18
27.2356 24.7704 -8.64547 115 74 33
-49.939 19.575 2.44912 61 41 19
-51.5562 13.2984 5.8617 55 35 17
-56.2789 0.774841 -1.62724 151 95 46
-9.06618 24.9215 -2.77403 96 63 29
-42.3356 -11.5843 9.83168 47 46 26
29.5421 0.638109 -13.4695 143 136 79
-43.8807 -3.33938 -10.4579 69 54 37
-47.2097 5.04165 7.71334 57 53 30
-65.7202 -31.2362 -8.91331 101 75 39
-56.3348 -32.9325 -9.73784 70 45 19
-6.89615 23.1148 -7.69597 109 76 37
64.077 25.8444 -2.62931 90 63 31
65.0873 25.4344 1.83047 47 33 17
-41.6887 13.0771 -10.8833 43 39 31
-57.3164 -12.3082 -5.77861 25 22 16
36.102 25.0902 -3.30123 90 62 33
9.29436 19.522 -9.47443 137 95 39
-49.4615 -3.62668 -8.3157 153 102 46
-66.5119 -26.8055 -7.3848 83 78 44
12.0455 23.4642 3.86266 54 37 19
40.7899 -32.4043 8.86025 58 38 17
55.7148 21.5266 -13.9711 58 50 32
12.6567 20.9108 -7.52601 33 34 27
74.7988 14.6946 -4.98872 128 91 38
-52.1707 -6.43957 -7.70292 68 61 44
0.361191 24.4892 3.6281 61 38 19
-64.4277 -26.8034 -8.90507 127 97 46
-58.6428 3.73195 1.1839 64 63 49
-40.825 19.6133 -5.62387 51 38 25
50.9402 22.9666 12.08 68 42 19
-2.09442 19.9068 11.9234 32 23 16
-41.1707 18.5799 10.3678 52 39 23
-36.4732 19.3552 -9.80218 69 51 29
69.7178 0.319595 0.0614853 59 32 26
-53.1439 14.8278 4.63702 59 37 17
77.9383 15.0702 -0.02141 23 21 17
-59.8161 -0.80307 2.90539 48 33 14
27.6983 16.855 -13.8024 157 110 49
35.6921 23.8732 -6.7299 100 64 29
-58.6725 -35.7972 -12.7632 98 70 40
74.0968 14.042 -5.84156 158 117 57
-45.1003 14.9657 -5.36517 93 64 29
-49.73 0.624037 -2.81506 36 37 30
51.41 28.8986 -4.43865 105 68 33
44.3601 25.5331 -5.80266 121 83 39
-44.8969 14.5542 -6.00455 91 60 29
-55.1838 -9.78319 -5.57309 35 36 31
-20.118 21.7974 11.2861 33 25 15
-1.60503 25.6254 1.64386 61 39 18
11.6588 -22.1551 -18.4855 133 111 51
-60.9878 -2.23191 0.220444 40 27 16
-52.9256 -8.53079 -7.70985 97 73 49
-45.5835 20.5384 0.196373 112 74 37
7.18274 -28.5408 -16.9311 50 35 19
55.3955 25.855 -9.629 89 56 26
51.6477 12.6656 -16.3128 138 108 51
39.9989 25.8404 2.45364 62 40 19
33.4536 23.8376 -5.45193 38 29 19
-34.8766 17.6156 -11.7638 127 81 38
64.5941 17.6383 -11.7873 146 107 52
-25.4927 22.1883 -8.00295 94 66 36
-28.7135 21.5398 -8.90586 98 64 31
15.0979 5.10509 -12.8673 47 39 30
52.9678 26.0399 -9.20607 114 70 34
-43.4184 19.2775 7.28605 50 34 18
19.8986 24.8267 -0.360104 58 39 18
-47.9127 -8.17464 -9.13781 128 89 45
20.8377 18.2123 -10.9936 150 107 47
1.78531 25.4527 -0.615681 83 58 29
-39.9224 -21.942 14.283 48 32 16
-39.804 -24.0915 14.9628 41 31 15
30.073 22.9323 -9.47984 72 57 36
-24.532 24.6971 4.09626 62 42 19
-8.09108 25.0517 4.08883 56 37 16
-8.08534 -8.00429 -12.6535 142 121 64
63.1144 24.2459 -8.13558 120 78 36
7.3976 19.5721 -9.77303 91 64 37
26.8624 25.8229 2.07329 64 40 20
-9.21101 5.8777 -15.7961 62 54 44
17.3892 -27.1382 -16.3257 54 55 49
36.7286 24.5155 -5.74797 95 64 29
20.6894 23.049 -7.32806 91 56 28
-64.6258 -24.3082 -8.71152 133 100 42
-44.393 17.9635 7.48859 61 40 18
64.1227 19.8159 -10.8757 147 118 58
23.8615 24.4993 -7.06745 37 29 23
50.0664 1.84059 -12.0831 121 126 84
30.7347 -25.2687 13.7215 66 43 20
-6.9231 24.1527 -4.51358 73 50 29
-52.4302 -3.25018 -6.5394 66 65 54
40.031 23.2497 -7.71659 93 68 34
-50.7724 18.4805 4.00525 60 39 19
-15.2556 24.244 7.11877 48 33 20
-27.0677 21.8187 -8.57889 111 73 34
72.2443 14.2268 7.27169 62 41 19
-47.3492 9.73891 7.44196 42 39 22
-35.3443 19.8488 -9.56873 101 63 31
-23.9388 23.4097 -5.36919 72 49 24
17.8405 15.0056 -9.99282 89 76 47
44.6376 15.5455 -10.7559 119 84 40
0.613785 17.0112 -12.1704 42 38 32
-39.0253 22.7683 -1.55402 95 65 31
-27.1206 23.3899 8.05573 57 38 21
14.7967 -26.4233 -13.6365 67 55 22
69.2806 20.8996 -2.68337 43 33 17
33.6165 24.9882 3.71408 52 34 16
-68.2367 -15.7323 -5.28263 80 63 45
-40.3592 -22.6358 14.1064 43 30 15
-23.7035 19.9028 -11.1667 125 88 46
-48.0697 7.40523 -0.775784 62 58 47
32.7429 -21.0484 10.2033 35 35 30
32.85 24.4508 -3.88482 74 48 22
78.0448 15.3553 -0.421505 35 31 22
72.7796 17.9965 2.80536 58 37 18
-42.4369 -11.1473 9.80381 39 39 26
-46.6542 10.7701 -3.78685 56 39 20
38.6534 23.4091 -7.37236 36 32 27
-5.41541 23.7657 -6.27577 86 65 36
12.1241 24.1307 -2.62568 80 52 25
46.7096 8.3625 -11.5825 155 133 69
-14.7139 2.48719 -13.3309 89 86 54
31.6493 22.7106 -9.09676 53 36 24
54.847 26.7962 9.56224 59 45 22
41.2404 -33.8165 13.6047 62 45 19
8.06992 -9.55444 -13.6199 73 51 23
-9.70697 23.2184 9.0165 23 19 14
-50.9929 15.3974 5.62518 58 37 16
-10.9459 22.931 9.21264 42 32 18
-13.0302 23.0751 -7.70391 85 60 32
36.3196 24.6224 4.53397 29 22 14
-32.1566 24.1494 2.38922 64 42 19
57.3651 28.4367 -5.28798 85 54 26
-72.1383 -19.9865 -6.22363 100 64 32
45.4779 28.9777 -0.54195 54 37 17
28.3875 -19.96 7.10741 165 146 66
-35.5874 19.6118 -9.8306 103 66 33
-1.93497 25.5421 1.90461 63 39 17
50.758 26.7653 -7.41437 127 80 41
11.2697 23.8075 -3.57199 80 52 25
-83.6892 -17.1491 -3.73235 149 95 44
-29.0244 16.4701 -13.1295 80 63 38
-43.0205 13.4236 11.735 53 35 19
32.8602 -23.3097 11.5483 46 39 23
32.5688 22.8631 -8.37971 99 68 33
6.78606 -20.0449 -14.2952 49 37 21
-3.32413 -7.28663 -13.6724 141 139 80
66.9345 16.7455 -10.2063 116 98 48
10.5599 -16.59 -16.7906 156 105 50
52.1357 27.6249 -6.95022 102 67 32
-18.4843 25.5849 0.143074 67 45 22
23.8736 25.5648 3.6689 66 43 20
-49.7435 2.92575 -4.80619 44 43 36
-44.5117 16.3661 -4.63188 84 56 28
-60.026 -20.3373 -10.1921 145 103 50
57.9903 29.6922 -0.962769 32 24 20
57.4072 20.6413 12.4619 57 37 17
-8.68231 -10.056 -10.8361 121 120 67
-13.6104 25.8646 1.92192 61 38 18
28.1536 25.7165 6.76719 19 18 15
-14.8758 7.73906 -14.7754 131 106 49
-54.3391 3.80972 -1.26722 152 98 39
-26.6683 23.7551 7.20086 54 36 19
64.7451 8.38293 10.6974 65 58 33
72.3337 19.1058 -0.916943 69 48 25
14.1001 22.6908 -5.14256 35 31 25
55.3841 27.4674 -7.86781 104 66 28
-59.2145 -21.8963 -11.2436 141 98 46
71.1422 19.0346 -2.35072 88 56 27
68.1511 2.98249 -3.68433 107 68 61
-48.7245 5.42999 -5.86465 53 46 28
48.4366 18.0551 -12.3795 103 71 28
-44.2457 18.2014 -2.86057 82 60 36
69.9188 6.66063 6.95813 53 35 31
31.8972 13.8374 13.7361 52 37 17
8.0379 21.9093 8.17308 59 39 17
69.0794 21.0944 -1.65361 61 43 21
39.0437 -31.0665 13.2581 58 37 18
54.2083 26.7728 -13.709 68 53 26
-61.3604 -16.5288 -8.22004 129 113 63
-17.6478 16.7569 -12.9538 134 95 42
33.3656 25.1708 0.812891 62 42 20
-43.4522 17.714 -4.4192 104 69 36
-41.5126 -12.0987 10.475 32 31 22
-38.8689 15.5988 -11.5895 89 65 36
32.9706 -22.1758 10.8978 39 39 26
-38.0631 23.2904 -1.11331 91 62 30
-61.2646 -8.6713 -3.84071 138 88 43
-40.564 12.8988 13.7274 38 29 16
13.3703 24.5508 -1.60699 89 59 31
11.6443 -21.5025 -18.4599 135 116 55
-64.3627 -13.0721 -4.89127 105 72 40
-49.784 2.92369 -4.38279 40 39 32
21.8986 24.5944 -5.3571 98 66 32
-16.7328 5.98008 -13.7168 45 41 33
-44.0154 15.5717 -6.26582 54 38 24
-16.3501 0.135339 -12.0753 144 123 60
-21.2524 18.5165 -12.0266 138 103 48
18.6597 -22.6891 -14.8913 33 34 30
-57.6992 -19.9235 -10.9249 139 86 41
46.9244 22.6579 -9.08606 142 103 50
77.2051 13.8739 4.62364 48 33 20
-3.42052 17.7291 -12.1395 123 88 45
28.2162 17.1261 -13.7147 154 113 51
69.0704 18.6003 4.5203 54 42 18
70.0896 16.6606 5.32413 63 41 18
-54.1118 12.5762 1.5659 105 70 41
-46.1947 10.4234 8.78843 53 38 21
-59.9954 -2.72672 2.97107 51 32 16
-64.8977 -11.583 -0.696877 35 26 15
-33.9355 17.8619 14.2717 33 26 18
-40.7313 21.522 -2.33743 93 60 29
-9.66629 10.7039 -15.2356 68 54 37
-62.8513 -6.58926 -0.718124 40 27 15
67.0312 21.81 8.29734 52 35 18
68.6027 19.1503 5.46654 46 35 18
-26.987 20.7827 -9.9398 109 73 31
-41.9267 8.41296 13.3441 54 39 20
-23.968 21.024 -10.0829 44 37 29
66.4022 16.7273 -10.6528 86 74 42
-23.4782 23.4946 -4.81128 69 48 25
-15.4704 26.0345 0.809208 53 35 18
-60.8288 -22.8862 -10.6173 131 93 40
-41.3252 18.5603 -7.03721 83 54 28
-42.0821 21.2468 -1.56261 88 56 26
47.6981 24.5058 -8.14901 138 95 43
-56.8224 -33.1024 -12.3072 98 65 33
-51.959 -2.64679 -4.59075 34 34 29
12.9071 24.4455 1.4253 59 38 18
48.6405 17.8017 13.9707 42 28 17
-52.0481 -4.85769 -7.28125 80 80 66
15.8839 -0.209427 -13.9609 139 94 40
-43.5606 17.4804 8.91954 39 29 16
-20.5561 23.6653 -5.02164 55 43 29
-58.9994 3.95938 2.10497 44 31 16
-17.2553 9.90088 -14.0337 51 46 36
-17.8389 9.33286 -13.6646 91 74 44
-61.351 -34.4431 -11.9148 119 90 50
-20.3085 15.7313 -12.8983 112 88 53
-10.0986 17.7922 -12.5744 122 84 43
51.4345 29.8699 9.88586 87 61 36
22.3544 22.0684 -9.53242 53 45 31
67.6932 22.5137 -7.56857 114 87 40
59.7006 12.3145 -13.9829 114 94 51
-5.80856 24.5063 4.74959 57 38 20
77.2183 11.2784 3.40468 59 48 25
-2.04962 24.6158 4.06328 60 38 17
65.5664 8.66146 9.97721 64 62 43
-26.1302 24.2413 -1.60582 92 61 30
23.5107 25.3284 2.51916 60 40 18
-64.748 -26.0669 -8.70569 122 93 42
-25.9087 24.0989 -2.02398 89 58 30
6.74168 -12.1261 -12.1626 84 68 33
-38.3292 17.4801 -10.3854 50 43 39
62.9699 23.3175 -9.13199 132 84 38
-11.5427 24.6545 -3.36149 95 65 32
67.647 14.6916 -10.7277 148 119 50
48.7651 7.2133 -14.3533 122 101 55
-66.0991 -33.8357 -5.98769 19 17 15
15.0181 23.5175 3.7183 61 39 19
-18.6999 23.3059 -6.98057 31 28 23
9.73874 -28.2428 -19.2713 152 106 52
15.4521 23.915 -2.77995 101 75 40
13.7104 -19.7443 -17.4048 132 116 57
29.3602 25.5091 -1.67097 44 29 16
64.5582 25.594 1.77617 44 31 18
-39.6439 16.6004 -10.4593 104 69 31
1.11415 23.1676 -5.68558 53 41 27
53.7983 29.8705 0.31496 62 40 19
-39.122 13.8489 14.6314 35 27 21
-54.5879 12.6954 4.37689 59 39 19
-9.32312 11.4324 -15.0362 126 96 50
-43.9333 22.5695 3.60541 65 40 20
-9.68524 25.76 2.08251 64 42 19
-71.2816 -16.7244 -4.64095 53 55 47
-49.9709 19.577 2.8532 56 34 18
-47.5996 5.54097 -7.80349 120 80 36
68.7372 21.0097 -7.99095 37 34 29
-17.5421 25.4735 -0.808399 77 48 24
68.615 21.8311 -3.2982 37 30 18
69.1779 0.0473175 5.22513 54 35 19
-31.2953 23.2492 7.05779 52 36 18
4.73677 17.4936 12.1785 20 17 14
-36.4268 18.5192 12.9596 64 41 19
-15.6658 16.2503 -13.5092 81 65 42
19.6032 -31.886 -18.0392 65 47 20
70.0823 19.8567 -1.60643 67 46 23
66.8769 24.642 0.363394 103 67 29
65.3795 20.8448 -10.0068 151 117 56
64.1379 12.6626 -12.6937 136 128 73
-50.6047 -3.33554 -7.85877 121 80 45
-60.0581 -17.388 -8.98002 154 103 47
-70.9339 -19.1742 -6.15813 129 90 48
67.2756 17.6418 -9.80176 137 125 69
-65.801 -32.8501 -9.12748 147 123 94
-57.9395 -18.3631 -9.79226 136 89 38
-67.0805 -23.7247 -6.58112 96 89 53
67.5739 24.3741 0.912193 97 64 29
-10.133 5.63016 -15.5913 78 67 42
-41.8491 22.0447 -0.658421 114 78 35
-45.982 -3.03221 7.83463 66 62 33
-84.4103 -13.0838 -2.13271 134 93 45
65.4562 17.9169 -11.1214 144 119 58
64.5407 17.8833 -11.6393 137 105 47
-46.8995 8.92134 -7.00578 97 62 29
-8.58743 25.9604 1.37854 58 39 19
31.0999 -23.7782 12.7382 60 39 17
74.2475 13.4337 -6.03032 150 106 49
34.1805 -25.469 10.575 27 26 22
-47.1075 9.9472 -4.83173 59 39 21
-51.6019 -1.58239 -5.69073 40 41 34
-36.6503 16.7303 -11.843 129 95 62
68.4855 15.3561 8.27448 45 34 17
66.8237 23.6633 -6.97359 40 36 30
50.0469 25.5794 -14.5706 90 57 27
28.1122 25.6428 7.19333 30 22 14
77.2718 11.9865 -1.63388 43 42 28
-57.1963 5.88434 0.840439 113 76 41
-49.8403 0.785821 -1.77727 70 72 60
53.8605 26.8674 -14.4032 79 73 42
57.5908 25.0883 -10.3388 91 55 25
-43.4272 -3.8025 -10.8045 49 42 33
-51.6575 -3.63625 -7.20379 68 70 59
-17.4687 24.3371 6.87569 39 28 18
28.6062 23.9872 -9.03243 112 68 31
55.4125 28.2037 4.26024 60 38 18
-43.2126 17.8345 -4.55315 92 62 32
59.7145 27.6092 1.86079 26 19 15
-57.0813 2.20773 -0.551376 145 98 52
-55.2382 11.5306 4.27379 52 33 15
-39.3425 1.62662 -12.5178 136 102 48
-47.5341 8.1236 -3.44925 46 39 22
-65.5754 -22.4385 -7.65962 65 55 35
-3.78737 19.0957 -11.5897 139 93 44
17.8805 -29.0764 -16.3842 52 54 48
-49.3885 16.9669 -0.0845795 138 89 48
-48.8416 18.0172 0.207695 116 72 32
-24.6932 24.8326 3.38231 61 39 17
55.7959 25.7487 -9.694 81 54 25
77.6118 13.321 2.3201 27 26 21
-48.2888 17.0131 -0.735077 134 88 42
-49.333 -0.977891 -8.0667 127 83 36
-9.32957 26.0474 1.0673 58 39 20
7.96356 -15.3722 -15.2384 131 87 41
52.0122 27.0258 11.0588 65 47 25
22.027 25.4575 -1.37019 54 37 18
-60.5947 -6.52046 -3.08373 119 76 40
-62.2177 -34.1369 -11.5039 103 73 39
40.6612 -31.8321 11.4091 54 37 17
19.4539 1.4827 -14.6315 140 102 47
-62.2619 -23.3835 -9.90413 138 97 44
20.0936 20.4881 -9.16076 123 77 37
60.0608 23.5528 -10.5222 132 86 41
-85.47 -17.9565 0.555344 41 35 17
-40.5796 -1.62581 -11.8482 105 75 44
60.3067 22.8964 -10.8503 135 94 39
-33.1683 22.66 9.22868 19 17 13
19.1302 -31.5053 -19.4418 74 51 21
-30.1713 22.4237 9.95891 64 40 19
-1.26723 23.9038 -6.25629 51 40 26
-35.0196 24.1642 2.45728 68 43 18
45.704 28.3477 1.29998 64 42 20
-15.9025 24.7859 5.10657 43 28 15
-64.4629 -11.3001 0.00492859 40 27 17
75.8037 17.0515 2.11567 51 35 20
-62.5795 -18.1059 -8.60548 149 140 80
-8.36935 9.25972 -15.6098 133 97 47
68.6187 21.637 5.46062 45 33 17
-36.9605 4.47598 -13.884 133 116 61
-31.025 22.3853 9.97861 64 42 20
-16.5407 9.59972 -14.4074 84 64 39
68.3122 22.9437 -6.34033 71 50 23
13.0037 -30.5035 -18.4354 224 185 122
69.4036 20.8743 -7.17155 66 58 33
69.7916 20.4534 -1.30704 77 53 26
6.38618 20.5476 -8.87761 36 34 30
-75.0493 -18.215 -2.66412 17 17 17
18.0456 -27.9887 -15.4425 38 39 31
64.9568 25.0362 5.39048 35 25 15
18.8527 -31.1087 -18.9667 70 49 23
1.29414 23.8744 4.85547 45 32 17
-60.2298 -6.9957 -3.4528 137 87 42
30.2143 -19.6782 12.4869 62 43 19
-25.114 25.4423 0.449493 60 43 22
72.3905 17.1831 -3.56183 197 158 92
70.3542 15.8979 -7.41876 137 106 46
-40.0016 20.1215 -6.04082 73 50 22
29.2126 17.1501 -13.5203 106 81 43
-17.1238 23.2856 -7.07381 34 26 18
-51.0434 -0.981613 -6.65571 53 55 47
-44.8465 -9.69568 -11.3172 99 75 42
-54.889 12.9816 3.2281 47 32 16
4.95261 21.5183 -7.8488 116 81 41
20.5406 16.3502 -11.2717 136 93 40
18.9453 24.435 -2.74225 41 26 17
22.7508 22.4253 -9.45472 41 35 29
68.6241 21.9394 -0.908419 96 68 28
16.5812 23.4226 4.29833 60 39 18
-55.2985 9.01004 0.919842 126 82 38
52.3388 18.2529 -15.6714 109 90 45
64.9898 15.942 -12.0035 112 98 56
-34.589 20.7871 -8.492 119 81 36
74.8928 10.4045 -5.87509 126 128 82
-49.7 2.92781 -5.23004 47 45 38
-63.534 -33.3338 -10.6472 108 73 39
18.6866 6.52304 -13.9384 140 96 42
-48.1819 7.53346 -6.17277 56 44 25
-46.325 5.51065 9.39127 54 48 28
36.6154 -30.8021 8.82557 59 43 19
-35.446 16.7026 -12.3317 126 89 41
12.4177 23.6339 3.2166 59 38 18
-35.0148 18.8514 -10.6932 123 84 40
-36.1806 18.8777 12.6783 64 41 20
-54.8046 12.3043 4.3437 60 42 20
-29.4877 24.4824 2.86569 62 39 17
26.8492 25.8567 1.66223 58 38 17
-23.3312 25.4697 1.29816 58 39 18
-63.1562 -21.397 -9.07744 155 123 52
-53.3606 8.85222 -0.171066 150 102 43
-17.3909 23.0732 -8.06752 43 32 21
42.1295 25.7007 -5.14641 126 84 41
11.1806 -30.0039 -19.7383 147 114 56
3.80997 24.6022 1.86994 60 39 18
-60.8271 -1.66158 0.454102 39 29 15
-58.4037 -19.2349 -10.2365 131 82 38
-47.3175 17.2965 -1.1614 139 91 38
-23.1013 21.4431 -9.92413 102 75 35
-41.2905 10.1278 13.5048 45 35 17
-35.5142 7.57931 -14.6438 64 62 48
-33.8403 23.977 3.00232 64 42 18
-49.3893 0.407811 -7.7485 124 81 42
-53.8196 9.27054 0.126762 147 107 46
-18.7146 23.7385 -5.51406 63 43 26
-42.9652 15.1413 10.8656 59 39 18
-32.3524 -36.4983 11.0105 116 80 35
-46.8581 17.3087 -1.48133 139 95 42
-45.5031 10.9644 -7.66259 59 45 25
-15.9487 23.6296 -6.23464 38 30 20
-30.9079 23.15 -4.41507 72 47 20
40.8888 -32.5831 7.77529 87 61 25
-17.9012 24.9603 -2.53596 83 55 27
20.4155 7.05602 -14.2598 142 110 48
69.7375 5.29116 0.733278 70 44 38
-65.6769 -14.151 -5.17138 113 75 42
-42.6329 -10.6853 8.44803 82 77 47
59.8842 5.08527 -9.70546 114 120 87
-26.3853 16.6485 -12.9343 108 81 45
30.4372 -17.4685 8.71879 135 130 77
-12.2325 25.393 -1.70364 89 59 26
32.046 24.8975 -0.93862 73 49 26
0.593262 23.4929 7.51573 50 35 19
-79.8713 -17.408 -3.91622 101 78 43
58.3799 20.802 11.7286 54 37 18
26.2454 25.4083 -7.26811 56 40 23
-52.6234 -3.94679 -2.33466 69 71 57
67.5235 24.5724 1.4248 53 37 18
-26.774 25.3097 1.13825 57 38 21
58.5293 19.9096 12.1389 28 22 15
7.31822 23.67 4.27834 60 39 19
-15.4485 18.2796 -12.5144 45 44 38
-24.2204 23.4419 9.15631 61 39 17
69.2251 20.9004 -2.03218 55 42 21
-37.994 19.4916 -8.46576 43 34 26
-56.2657 -15.8862 -8.74936 156 107 49
-27.6664 23.6416 -3.03907 76 53 27
-44.0957 18.4 7.55783 58 39 17
-54.7125 10.3963 0.986549 128 85 40
12.619 -30.481 -18.7659 179 146 84
39.6846 23.3969 -7.29304 55 40 26
-9.19096 24.3539 -4.54644 42 32 21
-44.5003 13.7613 -7.22846 52 42 28
26.6893 24.8716 -8.56345 106 69 35
-7.96205 17.31 -12.7106 66 53 38
12.6254 -21.1479 -17.999 130 116 60
-48.4979 5.65646 -3.59222 43 37 24
65.0182 22.4688 -9.13372 130 92 45
-41.9493 -4.59562 -12.0033 99 73 41
-50.3329 15.513 -0.0887375 139 93 43
2.8652 22.0582 8.57158 43 30 18
43.9742 21.8219 7.69939 67 43 20
40.8604 -33.4436 6.49462 119 86 35
-46.1045 -2.38809 -9.56807 143 97 40
-14.2963 11.5619 -14.7104 123 94 48
-82.75 -20.9697 -3.85032 136 104 42
-63.9355 -15.7116 -6.07355 134 91 46
-78.7369 -18.5622 -4.56269 97 76 41
68.6284 19.5306 5.79669 52 45 23
75.4079 16.1198 3.8206 58 37 18
37.3681 21.9025 -8.59135 44 39 31
-13.651 25.5084 -1.15905 84 58 28
-39.9984 -2.16462 -12.1772 91 68 41
-46.7417 11.1099 -4.7249 58 37 17
-43.246 7.89216 -11.6482 82 68 39
24.7735 25.1006 7.64947 55 36 17
-48.6457 13.9765 -0.984135 162 116 48
1.86143 23.0666 -5.33825 28 29 24
32.7371 24.661 -3.07145 69 45 22
-14.4125 24.6441 5.66982 60 38 17
-25.8641 21.1834 -9.52148 96 67 37
-62.2893 -6.80287 1.19428 50 32 16
-17.4167 25.223 3.53707 60 38 16
46.8318 29.4011 -1.59978 50 39 22
-10.6561 24.2117 -4.92768 71 49 24
-33.1321 -36.1247 11.0794 134 93 40
75.1969 18.2966 -0.00582695 42 34 21
-42.4627 15.9781 -8.4618 107 70 36
59.7244 27.3144 2.99565 23 22 16
-58.999 -1.34529 3.60684 52 35 17
-25.1366 21.9018 -8.40728 59 44 27
7.45058 -32.5271 -17.5149 49 35 18
-39.6355 23.146 4.24773 67 43 20
66.2259 13.7791 -11.819 126 107 60
-40.5775 14.9473 -11.288 116 84 45
-46.2338 5.8681 -9.24229 198 157 109
-47.5283 8.94948 -5.60515 68 51 27
-36.4875 13.145 -13.6542 101 77 45
-43.7964 -5.07543 -10.8822 119 85 42
48.014 19.5869 -10.3695 142 93 42
27.4987 -21.5826 14.658 62 43 20
16.073 -4.21327 -14.8916 61 52 40
20.2458 23.3627 -6.23302 85 58 29
-18.4835 25.1873 -1.47125 73 47 21
-74.1679 -18.2581 -1.98877 15 17 15
-46.5491 20.9119 1.27136 101 68 37
-34.0376 23.6677 -1.62982 88 57 27
15.5595 -15.5018 -15.4942 146 118 53
-54.6211 12.0477 1.79634 91 65 41
-11.5081 25.131 -2.40591 109 75 40
15.5745 -2.63852 -14.5129 125 91 48
7.52191 -27.8516 -17.7773 105 71 37
-54.3574 -7.18534 -5.50972 36 37 30
57.7272 14.5732 -14.1374 125 116 65
56.0502 19.466 13.5079 61 40 20
67.2155 23.2787 -3.40491 32 24 16
72.4003 18.5527 2.56249 55 35 19
-18.6277 15.1336 -13.1677 101 75 47
44.7622 23.948 -7.63402 150 98 43
-39.6404 19.4417 -7.56603 100 65 30
-48.8383 -7.87934 -8.80818 149 105 50
19.733 -32.6435 -19.2284 77 63 28
33.9162 23.8934 -5.38696 49 36 22
77.6526 13.5184 -0.395861 20 20 17
-51.699 -2.22353 -4.54607 38 37 30
-61.225 -6.99121 -3.01173 120 77 41
15.0417 23.1148 5.03376 59 39 18
-50.8611 -14.141 -9.51765 135 89 41
-33.8271 24.2389 2.27017 66 41 18
49.7621 25.2983 -13.2893 58 38 17
-8.54454 19.9884 -10.9998 64 56 41
-73.7402 -19.4497 -5.38759 44 39 30
-27.7305 24.0355 5.66248 61 39 19
49.0349 28.8582 2.49481 68 45 20
-65.5116 -32.0317 -5.43404 21 19 13
66.9002 23.6371 -1.63948 74 48 24
-4.56848 2.09347 -15.8444 142 129 75
-2.60738 25.9361 -0.271336 59 38 20
15.5134 -19.863 -15.9995 142 130 61
-43.7831 -7.61519 -11.5502 126 82 39
-53.4798 10.0947 0.219189 147 101 43
-53.6028 -14.8534 -8.86434 141 88 42
32.1955 -22.2193 9.11564 163 146 76
41.2188 26.4976 -3.57247 110 72 35
-57.2093 -19.0221 -10.3778 127 82 36
-38.4568 -16.0248 12.6529 52 36 16
-49.5184 1.42495 -2.36494 47 48 41
20.5461 23.2368 8.06477 63 41 20
10.2285 -17.5073 -16.9708 149 103 47
-59.681 -21.1592 -10.8303 122 80 36
-21.2324 23.9228 7.5684 61 39 18
-11.7896 20.5022 -10.8777 124 82 36
69.4536 4.17256 -0.213863 51 37 29
52.9602 14.4729 -16.0427 49 45 40
-41.5605 17.9957 10.4739 52 37 19
33.238 24.6627 4.48579 59 39 19
31.337 24.5799 6.12192 60 39 19
-16.6973 24.1337 7.72908 60 39 19
28.3455 25.8113 4.0381 59 40 22
77.5123 12.9499 4.01922 22 21 16
75.6275 8.06945 4.02571 68 46 36
37.5384 -30.5919 11.7559 49 38 27
-61.8768 -6.0182 -2.29115 75 62 45
-0.442322 23.8158 -5.53454 69 52 30
-57.9558 3.03777 0.515602 108 72 37
54.5415 16.2858 14.7221 56 40 18
55.7421 28.382 3.66409 58 37 18
20.3257 18.0074 -10.7315 139 93 40
-59.9431 -1.37029 -0.82505 81 65 41
-84.802 -21.3451 -0.608711 49 45 23
25.5018 25.0096 -7.24341 39 30 19
76.8907 16.7006 1.13211 35 32 23
31.5054 25.2526 1.17711 77 51 26
-65.6508 -34.1563 -9.49084 96 72 48
-41.1461 21.8215 -1.53853 93 60 30
-66.7348 -32.6762 -7.79036 45 36 26
20.1193 -18.8167 -13.5403 61 61 42
65.7407 18.62 -10.5902 147 110 51
64.1396 20.4097 -10.6858 152 117 51
14.6988 24.5586 0.743656 57 37 17
65.5622 25.1376 2.56879 46 32 17
23.6572 25.5185 5.45146 55 36 17
6.93759 -20.9488 -14.0245 54 41 19
-45.2053 6.00481 -10.0012 88 63 35
67.6096 22.7193 -2.21771 52 39 21
7.04106 22.7367 -5.40793 44 37 26
28.2891 24.7693 -8.23362 98 63 28
22.4885 22.8855 -8.86413 62 49 32
63.1544 24.6522 -7.45998 95 60 32
17.5022 -25.2564 -14.1821 36 36 23
-50.5875 -4.97989 -8.02147 134 86 38
54.7511 16.7423 14.5809 54 37 17
8.1774 20.8531 9.24623 60 40 19
49.5435 27.0878 -6.60799 113 71 33
67.2998 18.1575 -9.81335 154 136 69
-25.8351 24.1711 5.90627 63 40 19
36.2953 23.2168 6.707 60 38 18
-54.7105 -8.27396 -3.72631 72 70 57
-46.295 6.99888 9.48932 48 43 25
-16.9108 25.8889 1.43325 60 39 18
21.2845 9.38872 -13.9819 139 102 46
49.2056 21.2228 -12.7909 55 37 17
-39.6073 20.5828 -5.49765 75 50 25
40.3067 24.8108 -5.58343 122 84 39
-61.8226 -11.4023 -4.79104 138 84 40
