ply
format ascii 1.0
comment Created by Open3D
element vertex 1377
property double x
property double y
property double z
property uchar red
property uchar green
property uchar blue
end_header
-37.8938 24.4052 1.5369 61 39 18
17.3348 23.3129 6.32375 52 37 18
-24.5377 24.1583 7.68733 26 20 15
-46.2377 7.5826 -8.87674 99 63 31
-57.5126 1.97108 -0.414589 136 91 44
-83.1768 -11.8277 -1.36071 95 65 30
-62.0645 -16.5036 -7.45786 79 63 32
-23.7077 25.3829 0.281002 69 47 24
-46.6218 -9.7953 -10.1369 50 41 29
-16.1514 23.7447 -5.79287 27 23 20
34.3442 24.8715 -3.06411 76 50 23
-11.5939 24.9035 4.32574 59 39 22
49.3782 23.1249 -9.86181 139 95 54
48.1235 15.9855 14.4942 52 35 17
-52.2848 11.3701 -0.0686378 156 104 44
-44.1175 15.9424 -5.63128 84 59 33
19.8076 17.1311 -10.5711 123 87 37
-48.0344 8.12401 -5.25622 45 39 22
-7.66747 22.0732 -9.12421 128 90 46
-45.8377 9.65714 -8.36147 42 30 20
-41.1438 22.3781 5.18458 65 41 19
-16.2103 25.9739 1.11823 61 38 19
9.15448 -20.1252 -17.1651 135 85 38
49.6799 24.7327 -8.97557 136 84 36
50.3408 25.071 -9.05253 137 92 44
50.5029 27.6396 -14.5909 84 55 27
0.914352 21.813 -8.21921 36 37 33
-47.869 8.13399 -6.11172 69 51 28
-63.4786 -33.8778 -10.8217 101 74 40
-26.4858 24.4055 4.34643 64 40 19
8.05089 24.9395 -0.0808372 53 35 18
53.368 25.9058 -9.51407 101 67 33
-39.5327 -21.2939 14.2412 51 31 15
-46.8332 7.41748 -8.10715 105 68 34
46.8445 26.3111 4.78246 64 41 17
43.8358 15.9894 -10.2789 157 112 49
-66.7839 -24.7368 -7.2135 62 61 45
-23.4222 25.4521 0.426041 64 43 24
-36.2966 23.7014 3.74212 65 42 18
-17.9754 22.1983 10.8585 57 35 19
-37.45 23.462 4.3503 66 42 18
46.3035 29.3477 -0.969347 54 37 18
-32.0414 19.9457 -10.0229 119 75 35
-55.1772 2.7491 -1.28429 150 101 42
8.36267 24.3926 -2.06929 93 62 31
39.8752 23.602 5.80732 62 39 18
-5.86226 25.6102 1.98437 59 37 18
-25.8942 21.9396 -8.34523 103 71 35
-49.8286 1.68495 -6.43342 46 47 40
-63.1907 -27.5913 -9.83798 129 91 41
36.3887 24.9798 -3.80832 61 41 22
-47.7201 5.0094 -7.82348 122 83 39
-14.0768 25.1229 -2.51165 85 56 26
-23.7191 21.9381 -8.83737 46 43 28
-40.5943 -21.2197 12.9 56 37 19
-26.1416 21.6464 -8.85352 105 75 35
-56.3013 -13.6578 -8.06894 138 97 52
-33.6774 23.8854 3.23426 63 42 18
48.2274 9.80287 -14.267 104 71 32
-42.959 20.8603 -1.32223 98 65 32
-20.859 23.3642 -6.87823 60 43 24
-69.4224 -17.6663 -5.95457 84 63 35
44.2886 23.8741 -7.57594 143 96 44
18.1443 7.6371 -13.4117 140 104 47
-31.0038 21.8143 -7.18342 84 61 33
-28.0345 23.3374 -3.84192 68 50 28
47.2235 14.251 13.242 58 39 19
-84.6479 -11.9101 0.265293 25 22 17
-28.6986 19.2828 13.3776 25 20 15
-41.3102 21.441 -2.01075 90 60 28
-73.9145 -17.9972 -2.55821 18 19 16
-55.9243 -17.6178 -9.80624 142 90 41
-84.9771 -12.4238 1.05861 14 14 15
-61.7403 -15.042 -6.03691 154 102 42
51.1418 29.5378 9.63752 91 64 39
53.3308 29.1837 -4.40779 94 59 28
47.4332 28.8745 -3.06477 102 67 33
34.0633 25.1702 -0.896177 58 38 18
51.0267 30.0368 10.3805 74 52 32
-54.5888 5.96767 -0.531708 155 104 48
22.9196 24.8565 7.43768 60 39 19
-41.3964 -20.9118 11.7092 59 39 19
-43.604 15.5987 -6.8769 47 41 31
-38.1855 23.1249 -1.38152 91 60 29
-55.3248 -10.7243 -4.18918 74 69 57
52.771 27.8617 -6.84573 104 66 34
23.4625 25.4768 4.82733 60 37 18
-23.5828 25.277 2.24386 63 40 18
-62.7143 -15.3206 -6.09875 151 110 51
-37.9896 23.3939 4.21577 69 44 22
-38.3575 23.9239 0.119385 85 60 30
-14.4078 24.3797 7.14551 25 21 17
-42.6841 6.04836 13.1971 40 29 16
-57.3056 -16.3503 -8.79012 143 94 43
-49.8501 -13.6942 -9.77042 129 83 37
14.1675 22.3418 -5.9755 29 29 26
-60.096 -3.21196 2.9249 48 31 17
27.7411 25.7185 2.82627 60 39 18
-17.8052 24.3427 6.85535 41 30 24
-51.687 16.446 1.46701 106 71 38
-27.1823 23.6352 7.08516 58 36 19
-62.0176 -17.5003 -8.7713 149 138 75
-19.1407 24.3869 -3.73105 85 58 32
-41.567 16.8373 11.7445 32 24 15
-1.56667 22.645 -8.11696 116 77 37
-45.9084 12.4903 -6.19371 79 52 21
-29.8069 18.7372 -11.4122 128 81 34
-14.8071 24.7035 -3.6158 91 64 35
-47.3339 19.3475 5.63595 62 40 17
-24.412 24.7456 3.90769 64 41 19
27.4955 16.6194 -13.8254 159 110 49
9.99953 23.1022 -5.36782 79 57 30
49.8838 25.0819 -12.9254 57 35 15
-37.724 11.2626 -13.9142 117 81 41
-55.9086 10.5264 2.25497 64 44 25
-39.7342 12.4331 14.5863 18 16 13
8.32848 -13.7289 -15.2514 141 98 43
-48.1532 18.0127 -0.306969 159 115 70
19.807 19.6871 -9.39709 146 115 72
-62.4339 -6.39607 -2.11255 53 52 44
-26.7421 23.1848 -4.40676 31 25 19
-81.6407 -17.0198 -3.82429 123 86 42
-44.3176 20.8034 -0.339928 109 74 33
-75.6229 -18.3477 -1.86596 15 16 15
53.732 27.3743 -7.8781 125 81 36
44.7108 24.5751 -7.04736 125 79 37
-39.8489 22.8759 -0.837803 93 61 28
33.5704 25.2304 1.23687 65 44 21
-34.0875 21.3911 11.1395 21 20 17
9.66412 22.7991 -5.94891 88 63 32
-23.2645 25.4875 0.842136 55 37 18
-39.2507 22.2449 -2.24311 94 63 32
-44.2977 14.1762 -7.19059 32 29 24
-26.4954 24.4937 3.88021 62 39 18
7.30954 24.0089 -2.78811 93 61 29
-18.935 22.3568 -8.69958 36 32 28
-10.5103 20.5894 -10.6622 52 45 33
-45.2399 12.0225 -7.36827 76 53 32
-33.544 23.1058 6.27837 62 39 18
17.2863 -2.98839 -15.2109 132 101 50
17.3494 23.3788 5.78817 47 34 19
33.8746 24.8762 -2.59767 74 49 23
8.16631 -30.0054 -15.391 44 32 15
-7.88286 24.6937 5.1343 56 37 17
45.6035 24.711 5.81045 57 37 20
16.8276 6.88718 -13.1776 144 100 50
-55.5252 -13.2385 -7.90328 143 97 49
-47.4381 -2.30978 -8.87456 51 35 32
-28.2407 20.7571 -9.91178 125 82 39
48.5537 9.64117 -14.8285 124 91 43
35.6135 22.2328 -8.46552 136 95 43
-26.7627 24.3099 4.80182 61 40 19
24.238 12.6436 -13.9528 127 100 49
37.2095 24.1785 -6.46799 114 76 36
-56.7517 1.8833 -0.89954 147 100 53
-18.9406 24.7355 -3.22462 92 62 30
-85.7578 -13.5877 -0.775166 62 53 29
-39.0556 16.9949 -10.5332 123 95 58
46.2523 26.8618 -4.87864 106 67 32
-7.95383 21.9534 -9.21781 124 82 40
-29.7951 22.8459 9.11065 63 41 19
25.3245 24.4214 -8.95932 85 55 27
-62.4589 -8.66695 -3.22907 139 103 68
-41.8484 21.3164 -1.67736 88 58 28
11.8883 24.6649 -0.574944 63 41 23
-24.3381 21.8121 -8.73186 49 42 31
-52.7413 16.2377 3.1523 57 40 19
45.4069 18.3683 -10.0878 126 88 45
16.1518 24.0448 -2.64619 67 50 33
-59.9834 -21.0865 -10.6427 123 78 37
-31.6184 21.104 -8.58385 99 70 34
-62.8856 -7.22078 0.14135 41 28 15
-36.1922 -14.6252 13.6562 58 39 19
-42.7876 15.0654 11.0733 53 35 17
-65.1733 -22.1155 -8.04034 86 71 36
-55.2675 8.53142 0.716038 138 95 43
-8.12749 16.0775 -13.3781 58 46 34
-40.3059 17.3256 -9.0177 78 58 32
-59.9474 -1.09061 -0.683537 67 59 43
-27.3148 23.0544 9.2956 46 32 19
-60.9681 -31.3887 -10.7503 148 103 49
-45.7831 14.102 -4.1351 51 38 23
-3.15509 24.6306 4.14492 58 39 19
-37.909 24.3305 0.89209 64 45 27
-19.5634 23.7004 -5.47841 63 45 24
-40.8738 20.9635 -3.0262 80 53 31
-4.827 23.8016 -5.67417 54 39 24
-37.5427 -14.2847 12.761 58 39 16
-35.0545 15.9797 -12.8908 134 91 45
-82.6543 -11.8 -0.88438 77 59 29
-56.9105 0.798309 -1.3371 146 99 49
-57.9754 -16.5346 -8.8591 147 94 42
-57.0293 -32.5149 -10.3843 59 37 18
1.10527 22.2261 -7.67104 48 40 33
27.2415 15.4996 -13.9196 134 103 45
-43.9356 15.8126 -6.04321 51 37 22
-32.7639 22.2896 10.1821 39 29 19
-22.9562 21.8707 -9.42197 100 72 37
-17.6187 8.03302 -13.6515 47 43 34
-45.9755 14.9895 -2.73552 77 58 29
23.4004 25.4471 5.35776 58 37 18
7.86353 24.7467 -1.32184 81 56 28
35.3643 20.0708 -9.76258 114 88 44
-25.9377 23.8591 8.21769 31 24 19
-4.91281 25.9175 -0.755505 81 55 27
49.845 24.4697 -12.9665 55 35 16
-22.5573 22.9804 -6.75612 28 24 21
23.4252 25.3531 5.90468 53 36 16
-13.1194 24.8817 4.97207 58 39 18
49.6925 25.2596 -13.51 56 36 17
-40.9559 22.0526 5.69987 66 40 20
-19.9475 9.86345 -13.0528 148 110 53
-83.9441 -12.1682 1.12283 18 17 15
43.6587 23.619 -7.68519 146 96 43
51.7458 28.0422 8.01439 114 74 34
-22.8087 22.3232 -8.65738 60 45 24
11.0731 -19.6535 -18.095 136 96 41
-50.0038 17.8536 0.96627 145 105 65
-49.4269 -13.2621 -9.87852 131 88 45
-17.6779 24.3264 7.47241 37 26 15
-45.4696 11.5479 -7.2057 103 75 40
-29.3815 22.0298 -6.87519 36 30 24
-30.2928 17.9992 -12.1702 130 88 41
-55.0712 9.00659 0.739067 141 95 45
-41.3638 -7.02097 -12.5162 40 39 37
-26.7562 23.9878 -2.13504 81 53 25
-46.7313 6.72627 -8.52714 105 70 32
16.1033 23.1343 5.00568 56 37 18
-74.6007 -18.1612 -2.5613 19 18 17
-36.0736 16.771 14.2617 58 39 18
-45.6178 14.7104 -4.56586 65 45 24
-41.2244 20.7112 -3.09975 87 58 31
21.7643 20.9534 -10.1236 130 100 68
22.0366 22.5794 -8.94503 89 63 35
-16.3854 25.9475 1.33838 61 38 19
14.4311 22.5287 -5.607 42 36 31
-42.5668 17.6599 -5.53871 45 36 25
48.2215 17.3417 -12.067 116 78 34
-43.6433 12.8748 11.147 53 35 16
19.1722 16.6905 -10.2497 84 65 41
-57.627 4.96704 0.783836 94 68 40
-34.5081 15.9803 -12.936 114 84 42
51.289 26.2731 -8.08594 121 81 39
-33.9785 19.5948 -10.0405 115 72 33
-73.4935 -17.9151 -2.45331 16 16 15
-58.1335 1.40318 -0.337795 138 100 58
52.12 29.6237 9.24637 103 65 34
23.278 24.0937 -7.62558 49 37 25
-49.8892 1.65184 -5.9933 44 44 37
-29.0808 20.9183 -9.59795 111 75 31
-46.157 19.1026 -0.7267 117 75 41
-33.0526 22.988 7.77656 32 24 14
-40.8018 9.76849 14.3831 19 17 15
-62.9525 -6.81395 -0.822245 40 27 16
-47.5142 7.97327 -2.97988 48 41 21
-40.2101 22.6348 -0.909866 91 60 28
-43.1315 18.5172 -3.9259 92 59 28
-46.3081 9.89935 -7.12988 102 70 31
-55.209 -9.48737 -6.51048 49 49 42
36.9649 25.4194 -3.18077 88 59 29
-49.731 2.46111 -5.63718 46 46 37
-49.1384 18.5433 0.793072 131 92 56
11.3856 -15.5254 -16.701 148 98 45
16.7637 23.2624 5.13699 57 38 19
-39.7888 22.9862 4.57473 66 42 20
23.5304 25.5021 4.29825 61 39 18
-25.2464 24.4888 4.64809 59 38 17
-42.3412 -15.9591 10.0187 31 32 26
-30.711 20.4855 -9.75768 85 57 31
-65.1741 -12.531 -0.117989 38 27 16
-46.8707 19.7316 5.60178 64 39 17
-58.5983 4.63638 1.47411 60 48 28
-65.8254 -22.1674 -7.26027 69 65 38
-54.1487 8.0108 -0.0710716 156 97 43
-25.2108 25.4562 0.894543 53 38 20
-52.8953 11.3781 0.239212 144 97 43
-56.6781 2.40744 -0.697853 132 84 39
-57.7827 1.59477 -0.460716 130 85 44
-84.9743 -12.2678 0.622646 19 19 16
36.7027 25.8374 -2.06792 84 52 26
-55.5027 3.13507 -1.08401 147 97 45
48.1273 8.8838 -13.521 94 72 34
20.2771 18.789 -10.4347 178 138 90
-12.1854 25.9444 0.108295 62 42 22
-22.6303 23.4035 -5.38334 35 26 20
-34.3233 23.9454 3.08329 65 41 18
23.4959 11.1475 -14.1335 83 67 43
53.9517 27.8214 -7.24935 110 66 31
-36.4475 24.0027 -0.309513 78 53 25
-44.9056 12.9357 -7.30689 74 56 33
-71.4119 -17.5615 -1.48043 19 18 15
-31.0981 21.6475 -7.57727 72 51 28
-26.2812 21.7905 -8.61724 103 70 33
-41.5116 15.4093 12.3268 21 19 16
10.9935 23.8353 -3.35427 72 50 26
-39.8044 -4.5881 -12.7531 133 98 46
50.6544 24.5495 -11.907 61 37 18
46.9571 28.2028 -3.58348 108 67 31
-11.7145 24.7961 5.05551 30 24 15
-52.5338 10.2258 -0.0768242 153 104 44
-36.4807 12.2082 -14.2711 65 53 37
-54.2247 -9.11301 -7.22069 68 68 57
8.5692 23.8175 -3.26753 70 49 29
23.2013 23.289 -8.81536 36 32 27
-26.6972 21.5571 -8.96314 110 72 31
-56.6856 6.66336 0.923382 112 74 44
-23.8065 24.0583 7.86552 57 39 17
-62.9273 -9.4996 -3.50003 117 87 53
-7.94862 21.3692 -9.7226 122 85 41
-45.852 14.0822 -3.69687 47 33 20
37.063 26.3692 -0.912724 64 42 23
-16.7929 25.4716 -1.1331 77 51 24
-66.1499 -28.1508 -8.12684 68 61 39
-37.7938 -14.7942 12.7317 59 39 19
-41.4518 20.8597 -2.71877 92 62 31
-47.7083 8.04428 -6.52059 91 63 32
-62.88 -16.9627 -7.17343 96 72 35
49.8427 23.8345 -13.0037 50 34 15
-62.7468 -8.98871 -3.28829 135 103 72
-43.7712 15.7093 -6.45963 43 35 24
-52.7695 15.6212 2.09165 65 55 38
-45.8632 7.90863 -9.24726 102 64 28
-53.9428 6.28421 -0.689346 153 101 45
-11.6177 24.8429 4.81178 46 32 20
-43.9084 14.6709 -7.38008 30 26 26
-54.8034 12.6658 2.4061 58 48 33
-44.933 4.43184 -10.3955 114 92 51
50.4224 26.1044 -12.4206 60 39 18
15.0035 2.96915 -12.9722 75 65 43
-54.4195 -9.90665 -7.33185 65 66 51
-41.0605 9.80173 13.9733 30 24 16
7.88937 21.7473 -7.56462 43 36 24
-59.5345 0.364914 -0.202087 73 61 46
-62.2865 -22.4012 -9.71987 140 106 41
-51.1778 -4.38838 -2.47667 67 67 56
49.4851 27.72 11.6429 48 31 16
-64.1736 -33.7055 -10.4606 109 75 43
-32.558 17.2014 -12.4056 51 41 33
-18.5139 22.5912 -8.62211 35 36 28
15.8546 2.16661 -13.5313 135 104 42
-13.2173 24.591 6.15537 31 23 15
24.8338 24.13 -9.05034 82 54 31
54.1601 27.514 6.34642 75 48 24
-86.3506 -14.9478 -0.845924 57 49 29
-60.2428 -21.8532 -10.7775 125 83 34
-56.7615 3.21332 -0.295044 129 84 38
-49.1913 -13.7188 -10.1342 126 83 36
-25.3801 24.6758 -0.991734 95 63 28
-53.4693 11.3328 0.556297 139 95 40
-3.27937 25.0207 -2.87214 96 65 32
-39.6365 13.0971 14.4491 19 18 16
16.6247 24.4012 -1.81554 80 57 31
16.6241 23.1727 5.90623 37 26 15
48.0427 15.6138 14.6026 52 34 18
-16.6091 23.4474 -6.97152 32 26 18
-41.6792 21.0055 -2.3366 93 61 29
-19.414 23.6355 -5.925 56 39 21
-51.1711 -2.23944 -7.25946 64 66 54
-56.4481 9.43718 3.53078 50 34 15
-54.7143 8.60255 0.390892 150 103 45
-84.0209 -11.8152 0.635685 15 16 13
-59.6011 -1.45779 -1.02358 128 92 60
-77.9045 -17.0753 -3.39193 57 52 35
-43.8115 16.4154 -5.3537 77 55 32
-43.456 11.7849 11.7503 49 32 16
34.177 25.1601 -1.43126 60 39 19
-40.5219 21.2062 -2.95087 80 55 31
-73.3273 -18.0347 -1.79873 16 17 14
-37.036 23.7057 -0.697283 85 56 28
53.6113 28.5443 -5.90385 95 60 30
47.079 21.2795 -9.70613 130 92 44
-14.5008 24.376 6.33553 49 35 20
10.1564 -19.4063 -17.5692 136 86 41
-55.3973 -16.5947 -9.37527 134 81 37
-52.6657 16.2422 2.72775 66 45 24
-43.8023 9.22697 -10.6156 96 68 45
9.07822 -8.04703 -14.8893 141 95 48
-60.9729 -22.1275 -10.3755 122 85 37
-52.7805 9.82562 -0.116917 151 103 41
-51.8143 17.564 2.66979 58 40 23
-30.2436 19.0744 -11.0376 126 84 40
-53.1423 -8.37646 -7.57224 67 58 42
8.89874 18.529 11.6132 22 20 16
18.1091 15.4536 -9.93356 71 57 39
-60.2234 -0.825729 -0.321136 65 61 45
-62.7715 -6.44907 -1.60129 51 40 26
-39.3719 23.7379 2.96146 68 42 18
21.666 10.4855 -13.8731 146 102 45
-40.1571 -6.54684 -12.8393 126 94 45
-51.4582 17.0766 1.64527 85 65 38
17.0645 12.3975 -10.753 134 93 44
53.24 27.6279 -7.36225 106 64 28
-55.8671 9.98152 4.09155 58 37 17
51.5683 26.4506 5.64696 68 45 19
-41.6698 16.1908 -8.85527 134 105 76
-52.3042 16.5767 2.35412 61 49 36
36.869 24.9785 -4.32353 81 56 30
-44.5942 15.7354 -5.27416 85 56 27
22.4852 24.451 7.8997 59 37 17
-45.7196 14.6282 -3.68163 34 25 17
-42.841 17.3314 -5.59362 33 28 21
52.2349 30.1367 9.84674 83 55 29
-30.5248 22.6008 9.61999 65 41 20
-81.9138 -16.9516 -3.81253 129 91 47
-5.38005 23.2474 -7.26806 41 35 27
54.7029 27.779 7.04061 101 65 32
-29.2154 22.9961 8.79469 66 41 19
8.05518 22.5986 -5.44686 32 30 25
8.54639 -17.6605 -16.0961 144 96 43
-45.1348 13.6404 -6.48289 100 68 34
-31.8864 22.916 9.0069 61 40 20
52.2965 30.0909 -1.09924 52 35 17
55.6617 28.541 -5.80923 97 61 29
-47.3301 5.96545 -7.97911 120 83 37
51.3389 27.6499 7.93761 113 76 40
45.4196 14.9688 11.0528 60 41 22
30.8184 23.2578 -8.65116 106 70 33
10.5714 23.6084 -3.9524 84 59 32
-59.6048 -21.908 -11.14 136 93 43
-13.0045 24.6874 5.4923 52 35 19
16.0072 22.9818 5.77457 56 37 18
-53.9078 7.14256 -0.412457 153 103 47
27.4025 25.8409 5.0472 50 35 19
22.3321 -0.11058 -16.0113 62 55 37
-55.3586 7.24478 0.303471 137 89 41
-42.0368 21.4447 -1.27433 89 59 27
16.6887 23.1675 6.19384 42 30 17
-85.5875 -13.09 -0.761139 69 59 32
-30.2941 20.1692 -10.1307 108 75 39
-15.1862 10.731 -14.6717 141 106 44
-49.0924 2.0235 -7.36237 84 63 38
-6.02608 22.4957 -8.32855 74 54 34
-63.1 -16.7578 -6.76792 192 151 99
-49.8475 1.8401 -5.64979 43 44 36
51.951 30.2504 10.371 59 39 21
-15.7661 23.6258 -7.16146 57 40 24
-66.4809 -25.1698 -7.6238 55 55 43
-33.3852 24.3913 1.75004 65 41 18
-35.9877 15.0647 -13.0805 131 89 41
-8.76408 22.2853 -8.83704 100 73 40
-41.6047 21.8822 -1.03274 95 64 29
12.5188 -18.451 -17.7729 140 103 45
-57.3048 -32.6242 -11.4253 82 53 25
37.5111 24.5503 -5.85037 106 70 33
-2.44972 25.888 -0.731136 72 47 22
27.6983 16.855 -13.8024 157 110 49
-56.248 1.18918 -1.46773 148 97 42
-41.8848 21.1318 -1.95105 89 58 28
-47.06 7.58517 -7.71201 99 63 31
52.835 26.1461 -9.00528 112 71 33
-24.5568 21.4671 -9.24231 38 35 29
-46.1328 9.79813 -7.53636 104 73 36
15.5454 22.538 6.74297 55 37 18
-65.3916 -11.867 -3.82826 42 42 35
-46.9724 6.91133 -8.13214 109 71 32
46.4013 19.901 9.45772 68 41 20
-58.3067 -32.7348 -11.6346 98 62 32
-27.0664 24.0045 6.06647 66 42 18
-37.0425 18.0992 -10.5724 72 59 40
18.9588 7.00806 -13.8765 139 97 41
-53.4986 -4.79088 -4.84939 35 36 30
-45.3782 4.18315 -10.033 58 49 29
-40.52 22.5808 -0.794559 95 62 30
-26.6212 23.1572 -4.8371 29 23 17
-24.8241 24.5549 -1.25505 102 71 34
36.7164 24.421 -5.98754 101 68 33
-76.5685 -17.778 -3.50488 27 28 26
-54.1544 12.2305 1.47404 107 71 36
8.76527 24.1737 -2.50494 83 54 28
-74.1607 -18.0933 -2.46119 17 18 16
54.3366 27.6953 -7.55272 115 74 35
-49.1723 19.2713 4.57188 63 39 19
-85.1274 -16.873 -2.87458 116 78 37
-55.0672 11.6654 1.95071 68 55 39
-34.9529 23.9903 2.93743 69 42 18
-40.8982 22.3661 -0.878952 94 62 30
-18.3098 24.7935 -3.09146 85 56 27
-85.2591 -12.7387 -1.1184 76 49 26
14.7614 22.4631 6.57196 56 37 18
14.8358 20.8564 8.7506 36 29 20
-49.785 2.4136 -5.18234 45 45 38
-42.2624 19.4417 -3.74767 89 60 30
-25.9486 25.2984 2.141 58 39 19
7.44621 -22.0632 -16.4626 105 73 34
15.9817 23.7641 -2.99645 68 50 34
-45.8743 -0.395279 9.15631 61 57 32
-55.7094 10.9853 2.27907 64 47 28
-53.0843 -4.75052 -4.29424 33 34 27
45.574 26.074 -5.58451 119 73 33
-32.3047 20.6392 -9.17202 113 73 34
-62.1758 -8.33046 -3.17299 129 95 54
-30.1022 22.0608 -6.55158 46 38 26
7.26492 21.6324 -7.43204 46 41 31
32.5809 25.2239 1.61375 69 43 23
-43.9811 -8.15938 -11.5903 124 83 37
-46.173 10.9555 -6.67234 102 70 31
-21.4016 23.2408 -6.98721 54 39 23
-15.8552 23.9891 7.94134 45 32 18
-43.7352 20.8915 -0.637726 108 73 35
19.3037 19.6457 -9.0568 118 102 79
-49.133 1.14281 -7.63083 113 77 44
-46.8682 3.60925 -8.98184 137 93 41
-44.9814 19.7696 -0.900383 108 66 33
-50.5509 -1.39079 -7.45064 63 59 46
-48.4862 -13.8215 -10.4887 140 100 49
-23.618 21.405 -9.74486 58 44 29
-63.2083 -17.2551 -7.2408 100 78 38
11.6425 24.4827 -1.4254 75 50 26
7.23558 -25.2775 -15.4795 48 34 16
-54.7895 6.79689 -0.178425 138 89 41
-8.23146 22.4562 -8.73586 120 81 39
18.6331 -2.21404 -15.4984 47 46 33
-66.6548 -32.8926 -7.98425 48 41 26
23.0645 25.0611 6.7394 59 40 19
-47.7399 8.53671 -5.6442 53 41 21
23.6643 11.7136 -14.0814 62 53 32
44.6942 22.478 7.35381 63 39 18
-46.3515 7.05304 -8.89716 108 68 32
-17.1752 25.2807 -1.6861 83 56 26
-45.2714 15.0834 -4.95243 85 57 28
-72.3718 -20.8763 -6.55528 132 91 45
-43.6416 16.3253 -5.7551 42 33 23
-44.5391 -3.73779 -10.3075 130 97 47
-41.4297 19.4553 -4.87732 32 27 19
-64.191 -10.8207 -3.73639 80 72 55
22.7257 25.1138 1.98241 58 39 18
6.9213 -18.1473 -15.0751 85 60 35
-49.0519 3.59311 -6.74459 63 58 40
20.8577 20.5861 -9.83152 173 129 84
-59.024 3.8994 2.39718 35 25 15
17.3699 23.4216 4.99962 57 38 20
-41.5479 -23.8921 12.3006 39 29 18
-38.7892 22.5852 -1.94712 93 63 30
-21.6533 20.1915 -11.1097 130 91 41
-77.8213 -21.4054 -5.48663 146 99 51
-59.5532 -2.12524 -1.42867 128 88 52
24.1976 23.3842 -9.71625 74 54 31
-42.6644 -1.18817 -10.8275 144 100 46
-17.5093 25.148 -1.98521 89 60 30
-57.2713 4.54102 0.435394 124 80 38
-20.1401 23.6245 -5.58715 59 43 23
-38.2017 23.141 4.94577 62 39 18
-45.9736 9.71239 -7.94646 77 59 30
-24.9879 24.4181 5.20465 61 39 19
-47.9947 5.2386 -7.43769 112 73 38
51.0759 26.2539 -11.7539 67 41 19
-14.7103 24.318 7.73125 20 19 16
-16.1734 11.6873 -14.2995 153 106 50
-52.5967 -4.79282 -3.71976 30 30 25
14.041 21.8574 -6.53351 39 36 28
-54.5645 7.73178 0.0135307 141 92 39
-70.4038 -19.9759 -6.56573 131 87 42
-47.4957 7.89639 -6.91689 102 69 34
-16.0634 23.7626 8.25596 35 26 15
-40.9345 9.25262 14.3861 17 16 12
45.4642 28.554 0.692242 75 49 25
-33.5145 19.7399 -9.95502 104 69 29
-19.7295 23.7759 -5.03504 62 45 24
-39.9392 23.357 3.61815 64 40 18
-24.1249 22.6452 -7.2802 47 35 26
-83.7641 -12.2997 -1.91828 142 104 56
-42.5386 21.0424 6.27385 66 43 21
-37.7048 23.3348 4.60015 64 42 20
-40.3349 22.9565 4.44521 67 44 20
-24.8349 21.6734 -8.82274 44 37 30
-57.2804 7.47516 3.89458 51 33 18
-43.5151 14.765 -7.91104 55 43 26
-50.8138 18.5049 3.93718 49 32 16
-55.7331 10.3849 1.85783 66 56 39
-15.5307 23.789 -5.67689 28 23 18
21.4996 21.9586 -9.14414 108 72 35
-84.4244 -12.072 0.992298 16 15 12
-34.4228 24.433 1.21559 62 39 18
9.02617 22.6554 -6.06904 67 50 32
-45.7133 7.23718 -9.51706 128 87 38
8.74954 22.3165 -6.63869 68 52 28
-40.1608 21.4402 -2.8732 82 57 32
-56.9777 2.748 -0.324123 132 84 41
-52.3139 -3.91628 -6.99637 75 76 61
23.7668 25.4527 -4.3924 72 48 26
-56.9274 4.14297 0.0799217 139 95 46
-47.7124 8.19547 -4.29081 44 40 21
-11.4221 4.38565 -15.2056 146 125 65
-39.3993 22.6516 5.66549 64 39 19
-53.0275 15.6887 4.00092 55 37 16
-49.5383 0.25708 -7.70715 111 79 49
-50.7668 17.3745 1.22621 109 72 36
47.6831 15.2435 13.9271 52 34 17
-32.4313 18.1348 -11.4671 42 38 30
-54.7635 8.00798 0.213463 141 91 37
50.7525 26.5413 -12.3515 59 38 17
-53.0071 15.8792 3.10815 57 39 18
-12.4807 24.7395 5.36059 43 30 18
48.3247 6.66167 -13.6186 101 83 44
-29.3236 22.65 -5.40604 48 36 26
51.6606 28.1166 -13.8441 55 35 17
-11.6924 26.0638 0.693413 52 35 17
47.6792 9.24693 -12.5914 121 82 35
-11.6577 24.362 7.51308 55 37 18
-45.6696 14.6724 -4.1237 45 35 18
-16.7842 23.3173 -7.34868 46 34 19
35.2293 18.2157 -10.4285 149 120 56
22.1604 21.3057 -10.0498 72 62 47
-41.2781 22.1482 -0.962357 97 64 30
-43.4566 17.1898 -4.84982 78 56 31
-47.2777 7.73871 -7.31359 101 67 30
23.8352 11.9477 -14.0567 69 56 36
48.3098 8.84155 -14.0893 97 72 35
-17.9012 24.9603 -2.53596 83 55 27
7.48373 22.0147 -6.87343 38 31 26
-40.3617 -11.791 11.295 52 36 17
52.3981 30.0945 -1.6555 61 41 20
20.7595 17.6275 -11.0297 145 102 44
-40.4025 -23.0527 14.2401 40 28 15
-49.994 1.71664 -1.47028 76 80 68
-51.481 18.091 3.35564 55 37 15
46.7425 25.6434 5.33512 63 38 18
-54.3791 6.3847 -0.498413 155 105 48
-19.5498 21.7514 -9.29265 38 32 25
-46.183 13.948 -2.75442 86 63 32
-32.8588 20.0454 -9.73268 109 69 32
-25.4272 23.774 -2.85707 79 55 30
16.0212 22.8974 6.31073 54 36 19
-56.206 7.49336 0.995079 117 77 38
-46.4531 11.3743 7.73684 48 33 17
15.7871 6.26753 -12.8219 166 129 87
-60.7332 -1.72615 1.29868 43 31 17
-85.8674 -13.6941 0.0499649 29 25 17
-44.4548 9.496 -10.1989 126 83 36
52.2842 26.3991 -8.5032 115 75 35
-73.4712 -17.7982 -2.9028 17 17 15
49.6897 22.1303 -14.2702 107 69 31
21.4713 24.1239 7.48486 60 39 16
-34.5318 19.0909 13.1363 19 17 15
52.189 28.0887 -6.14753 98 67 29
-21.5068 19.4604 -11.5746 134 97 46
54.9639 29.4838 -3.92241 92 57 28
-30.9842 20.6642 -9.35908 93 64 38
0.156555 21.503 -8.70731 60 54 38
-48.0826 7.71611 -6.15079 61 49 28
-56.1111 9.31116 4.17426 55 35 17
-37.8089 23.1221 -1.49023 90 59 27
-17.5564 22.9529 -8.44778 50 37 25
17.1406 7.32019 -13.1101 145 99 48
-36.4188 19.2203 -9.99768 82 60 34
-81.5151 -18.1396 -4.19315 147 98 43
-13.735 24.4731 6.80547 26 18 14
-33.6522 16.3647 -12.7816 50 46 35
22.0349 24.3668 7.60408 59 38 17
-64.1124 -28.9979 -9.51193 110 75 34
46.8397 13.8982 12.5621 60 38 17
22.5868 25.1436 2.49644 63 39 19
-52.4537 -4.49832 -2.77322 66 66 54
-16.0929 25.9516 0.672699 55 39 19
-36.2829 23.605 4.19548 63 39 17
-57.2492 2.36472 -0.370586 138 92 49
-42.1735 10.2935 -11.6296 34 35 30
-41.4006 -23.4083 12.829 40 32 18
53.7737 29.4825 -3.7549 89 55 29
-42.0381 21.5263 5.91507 64 41 19
-62.1667 -5.99094 -2.06762 57 57 45
-66.0394 -33.3594 -8.94241 81 57 32
-52.1479 -6.50894 -7.72592 69 61 44
9.40814 22.9114 -5.47887 65 51 28
-10.9319 21.7152 -9.72665 56 48 30
-84.6749 -12.0183 0.689594 14 14 15
-13.6889 18.5306 -12.2191 135 98 48
27.7814 25.9005 6.10531 19 16 14
-44.873 9.6004 -9.94208 117 77 36
15.4125 22.8737 5.93903 60 41 18
23.5083 25.3967 0.510368 63 42 18
-19.3992 24.0914 -4.25135 54 38 23
-65.4619 -11.8919 -3.39318 38 36 25
-25.8683 23.7133 8.7104 29 23 18
-45.0676 -8.04617 -10.8864 117 80 35
45.5685 17.6004 -10.5157 92 72 39
-38.8237 23.7859 0.0122185 91 63 34
-22.1753 22.8017 -7.60502 57 44 27
-38.347 -1.66447 -12.9421 114 86 46
20.9339 23.8669 7.36988 61 39 18
-26.8761 23.3398 8.93211 29 22 15
-30.761 20.0179 12.744 60 38 17
49.9321 22.6594 -14.4155 109 68 34
-23.1579 22.4741 -7.80145 36 28 19
-29.9285 21.7456 -7.3383 29 24 22
-78.637 -16.048 -1.68915 22 20 15
-49.8389 2.36612 -4.72648 42 43 36
53.7115 29.5568 1.42799 64 40 17
11.2343 24.1337 -2.26448 72 48 24
-32.7423 20.4564 -9.26012 115 73 34
7.53378 -14.6372 -14.8341 113 83 41
19.7989 9.15254 -13.6538 85 68 40
-74.1278 -17.9888 -2.92252 18 19 17
-51.5256 7.74828 -0.729412 159 108 45
-35.4993 23.8487 3.27309 66 43 19
20.4887 19.0261 -10.4832 202 158 109
-13.6655 24.4964 6.32984 33 25 16
47.7774 27.0686 4.38362 67 40 19
10.178 23.3611 -4.54554 65 53 29
-44.2937 16.0573 -5.21743 84 57 26
-13.2704 24.5586 6.62639 22 19 14
-52.9256 15.8795 2.68438 65 44 22
-76.2741 -18.2338 -3.87624 34 32 31
23.0056 23.9055 -7.76272 63 44 28
23.2262 25.3778 3.53646 65 40 20
-31.5643 20.0929 -9.9275 118 75 35
-26.3927 24.9307 2.99002 62 41 19
-38.1322 24.2122 0.604801 69 52 27
-17.0436 25.7673 2.16297 64 42 19
-73.3067 -17.899 -2.26835 16 17 14
-16.6609 23.1247 -8.39621 85 56 28
33.502 24.9975 -1.55074 60 39 19
51.8319 26.5934 -7.98846 116 74 34
-84.8643 -13.1907 -1.82607 117 80 44
-23.2135 19.4856 12.9833 53 35 17
-48.9921 1.65945 -7.60687 104 72 40
-48.302 7.21118 -5.74526 47 40 22
-74.5714 -18.0489 -3.02322 21 22 20
-53.0234 9.41597 -0.155106 149 106 46
15.6766 23.4298 -3.58327 39 33 27
-3.64479 24.7797 -3.43816 102 70 34
-46.8084 -0.679718 -9.23489 120 94 48
9.35985 -17.5648 -16.535 140 91 42
-48.2959 -11.6432 -9.96665 128 80 35
-15.59 24.0704 -4.87886 56 42 27
-31.9648 20.3966 -9.55422 117 80 38
-61.2448 -32.7428 -11.3979 119 81 44
-42.3889 21.1928 -1.34342 97 64 31
-46.1215 10.3417 -7.0962 103 67 30
-61.783 -7.23271 -2.86003 112 75 40
-41.6546 10.7718 -11.9692 34 31 27
-52.7908 15.8018 2.27902 60 52 39
-63.713 -34.4613 -10.8625 93 66 32
-13.037 25.5978 -1.02778 88 56 28
-11.7087 24.7156 5.54425 25 21 16
-77.1333 -20.6309 -5.49006 108 78 43
53.1086 27.1247 -7.97969 129 83 38
9.78801 23.1119 -5.13826 71 54 30
49.5096 20.1714 -14.0499 100 72 35
22.5616 21.6577 -9.97454 45 40 35
37.0245 26.195 -1.4479 72 47 24
51.2394 24.6105 -10.0997 88 57 26
-33.1622 24.1599 2.42385 65 42 20
-14.6962 12.3383 -14.5398 130 96 48
-50.2667 -1.03928 -7.56 74 59 43
-23.4967 25.2522 -0.141525 83 54 26
28.5518 11.3586 -14.5317 116 92 49
-21.1351 20.6231 -10.6782 117 84 44
-45.3651 13.8041 -6.09641 95 61 30
46.3618 27.361 -4.27628 99 63 31
-58.0012 -15.2862 -8.46245 146 101 49
22.4776 24.7682 7.15447 60 38 17
6.29172 24.9339 0.070488 55 35 18
-56.8106 -32.7214 -11.5513 84 55 25
20.3452 23.644 7.24491 59 39 16
-59.6223 -2.59557 -1.62498 115 75 39
-32.0542 17.267 -12.4885 70 51 32
17.2339 7.63626 -12.9928 142 94 47
-20.1172 23.673 -5.33236 62 46 30
36.6816 21.6179 -8.87465 90 69 41
-37.3243 18.825 -9.73755 34 34 29
23.4968 22.6065 -9.85908 63 48 31
-34.0903 19.1349 -10.5226 114 72 32
-84.4724 -12.2861 -1.77705 125 86 43
-40.3901 22.4397 5.41602 60 39 18
-42.9334 15.765 -8.10049 79 55 32
-16.3703 10.7418 -14.3434 151 114 57
9.02008 24.5089 -1.62612 80 53 24
-43.1539 15.0969 -8.2773 82 61 33
-26.3064 23.3074 -3.85685 47 36 23
-15.2973 23.9004 -5.29327 31 25 19
9.3783 -14.6168 -15.8321 154 108 49
-75.8712 -18.45 -1.25774 16 16 16
55.7738 29.5989 -3.20627 89 59 27
47.3615 14.8402 13.2644 56 36 18
-39.9021 22.5507 5.539 61 38 17
-25.1222 24.0176 -2.32947 84 57 28
49.454 28.5522 3.14255 67 41 18
-55.3781 6.75967 0.115219 134 85 40
37.6836 26.59 -0.802237 56 34 18
-51.4138 11.7459 -0.33316 156 110 43
-8.15694 23.2074 -7.75404 103 75 40
23.945 23.2189 -9.7017 63 47 30
-45.5981 11.3651 9.18298 55 36 16
-47.7545 4.25475 -8.04858 109 69 31
26.9771 15.0328 -13.9828 124 96 48
-48.177 7.72675 -5.72712 47 41 24
54.6092 28.5643 -5.96605 98 64 31
18.1066 20.8307 -8.01894 140 95 42
-45.6226 -4.59537 -9.95089 133 90 39
-40.0261 13.638 13.9295 25 22 16
7.55707 -22.5025 -13.9901 56 43 20
-25.8386 24.0121 6.84053 46 32 17
24.4465 13.1723 -13.897 145 102 42
17.1215 21.528 -7.2534 124 79 36
-43.087 10.1191 -10.8581 45 38 31
-64.8131 -11.2123 -3.71157 58 53 44
-28.9852 23.3916 7.60708 68 45 20
20.255 20.3079 -9.4087 147 105 61
-14.1371 24.3651 8.35529 19 17 15
37.0149 25.7121 -2.57013 85 56 26
-28.5151 22.5793 -5.68821 29 24 19
44.8554 28.0886 1.0242 61 39 18
-13.8157 24.4667 7.27579 27 20 17
-35.6425 23.6621 3.90972 63 41 17
-50.968 -4.06926 -7.66435 88 68 44
-63.1999 -33.0494 -10.7295 116 81 42
52.7584 25.5815 -9.8359 79 50 27
23.1676 22.2108 -9.92765 50 39 33
15.2189 23.0584 -4.40733 34 27 22
-18.0787 25.2239 3.39235 63 40 18
-33.1738 20.2689 -9.34715 113 73 35
15.0021 5.828 -12.2989 36 33 28
12.3186 21.3438 8.69769 59 38 17
-56.0766 -18.0214 -9.98566 142 94 43
-46.6543 14.7031 -2.078 132 94 39
-60.7127 -1.3481 -0.0929756 55 42 25
50.1981 25.8807 -14.746 94 62 32
-12.8027 19.859 -11.5439 140 99 44
14.2917 20.4214 -7.77509 81 61 36
-64.5289 -11.1128 -3.80047 86 76 64
-45.252 13.9612 8.79161 51 34 16
-7.60127 24.2811 -4.2299 53 39 22
10.285 -17.1307 -16.8559 149 101 45
-30.7003 22.0542 -6.6662 82 61 32
50.7743 24.8487 -9.57648 118 79 39
-17.9723 25.0305 3.90195 64 41 20
40.3126 21.828 7.609 23 20 16
-41.7873 20.6018 -2.79012 91 60 30
33.903 25.0139 -2.03615 67 44 21
-65.6682 -13.1949 -0.665867 38 27 15
-25.2383 24.3204 5.58556 62 40 20
24.0027 25.7707 -3.27608 68 45 21
-32.9809 23.4231 5.04693 57 37 17
-47.5341 8.1236 -3.44925 46 39 22
18.4172 8.12148 -13.3494 135 100 50
14.7645 20.7522 -7.50052 113 84 43
-54.3674 13.4845 2.65256 59 41 22
-46.1783 10.8142 8.60349 53 36 20
-24.0503 24.6952 -1.18451 85 57 27
-28.3844 23.3304 -3.84922 76 54 28
-53.5835 13.4894 1.55688 98 66 37
-26.4325 24.2069 -1.60834 84 55 27
-65.7408 -28.3252 -8.37992 106 79 47
8.34769 22.4311 -5.91784 29 26 21
-57.9605 5.58688 1.26468 67 63 52
-66.7583 -25.8354 -6.91295 62 58 32
-46.0468 7.57811 -9.12234 104 65 30
-13.865 24.5271 6.00215 48 35 19
-6.16934 25.7387 1.50335 58 38 18
46.2419 13.6787 11.8372 55 34 15
-24.6182 22.0132 -8.31076 37 31 24
-65.4444 -12.4329 -4.27005 126 113 95
51.9068 27.3442 7.46134 112 70 31
-12.3104 24.6749 5.64737 23 20 14
-27.0182 23.8804 6.54632 66 43 21
-31.1328 20.2853 -9.84186 100 67 33
-34.9627 19.3679 -10.2222 120 82 39
-26.6723 23.4812 8.63155 28 19 14
-23.5883 22.2583 -8.12075 31 28 24
-52.0211 -3.5412 -6.94193 71 71 59
-56.046 10.6031 2.66647 60 42 21
-29.7777 20.8125 -9.57268 106 75 40
-24.8356 24.2844 -1.80688 86 56 26
-11.0238 26.1201 0.839989 54 35 17
-54.1567 6.78033 -0.45871 155 106 50
-53.8685 -13.1717 -8.13486 144 93 40
9.24826 -15.2572 -15.8805 144 97 39
-63.719 -27.3571 -9.48747 122 84 37
-19.4446 24.5686 -3.32963 89 60 30
-31.4788 20.5323 -9.45786 113 79 40
23.2551 24.2863 -7.17674 60 45 27
-42.7054 14.795 -9.0653 103 71 36
50.3355 27.6823 -14.0427 60 37 17
55.5237 29.237 -4.41757 94 59 30
53.5814 29.0603 -4.73767 93 61 29
-48.7404 -13.3109 -10.2098 125 81 37
24.6469 23.7025 -9.63131 94 64 33
-33.4453 16.4855 14.9911 35 28 18
55.9496 30.0026 -2.00729 85 56 25
25.9122 24.6577 -8.85484 95 61 30
-53.8917 14.3225 2.53601 69 47 29
-33.0349 19.1711 -10.6716 127 88 39
7.21164 -14.4081 -14.4722 110 83 41
37.2602 26.1155 -1.96178 86 56 29
-53.7593 11.6301 0.922028 123 77 35
-23.7095 22.8071 -6.98868 46 36 26
-43.3372 16.3142 10.039 53 36 17
-47.2739 6.86032 8.11126 55 51 27
-51.1812 16.8076 1.28206 103 69 34
-32.8211 16.7817 -12.6304 56 52 36
20.8377 19.6837 -10.3146 189 147 102
-28.6217 22.4381 -6.26686 32 27 20
-35.9778 24.1483 -0.203587 78 50 24
-38.4004 16.3849 14.075 22 20 17
22.8186 21.8227 -9.99843 36 34 30
-10.5029 22.4195 -8.67338 33 29 24
-35.4474 19.4779 12.3837 50 34 19
21.6495 22.2251 -9.019 104 70 36
44.824 25.09 -6.44106 122 79 37
-33.652 23.6301 3.96387 65 39 18
-58.8108 -32.7737 -11.7411 106 67 33
-33.305 19.8754 -9.82268 103 68 29
-65.2906 -26.017 -8.44755 115 87 42
-49.908 1.67424 -4.72572 38 39 33
-36.6863 23.727 -0.800934 89 60 30
-62.968 -22.2517 -9.37381 142 109 44
-42.027 10.7798 -11.5978 32 30 27
22.8197 25.0846 6.33003 58 36 18
-47.4639 5.3864 -8.0007 119 82 36
-33.4801 17.9438 -11.6686 112 81 42
-47.5283 8.94948 -5.60515 68 51 27
-47.4737 7.94962 -1.53438 57 49 29
-29.0321 22.8953 -4.89187 56 40 26
-29.8313 22.3386 -6.0387 65 47 30
26.1426 24.0176 -9.91151 113 71 34
-13.1616 24.493 7.42408 27 22 15
-23.196 21.6289 -9.66218 93 68 39
-42.7008 18.2402 -4.69969 76 52 28
-43.0856 15.8558 -7.67875 48 38 25
-42.6197 10.3447 -11.23 37 37 33
-45.4055 14.039 -5.86541 94 58 29
-44.7959 -9.01549 -11.306 121 88 42
-9.71744 19.9081 -11.0393 42 37 32
-56.6769 -16.7636 -9.03958 138 91 42
-53.9404 -10.1406 -7.60228 91 70 43
-40.0401 -11.3691 11.3987 53 35 17
-70.7023 -20.2922 -6.62789 128 87 40
-23.4629 21.7896 -9.25088 55 41 26
-43.9902 16.3761 -5.15997 85 59 31
14.8936 22.7435 -4.9959 40 36 26
-55.7029 2.70119 -1.11597 142 93 43
52.98 28.8323 -5.05061 96 61 27
-76.7738 -19.0718 -4.57749 95 77 44
-60.3892 -1.19679 1.88166 44 30 16
-46.2388 15.1902 -2.36343 114 82 38
-72.2319 -17.1764 -3.51284 20 17 17
-47.2075 7.086 -7.73696 103 67 30
1.64569 23.843 5.18428 42 28 17
-53.3233 -12.2955 -8.03649 147 101 48
51.7371 26.078 -8.60036 110 71 34
44.7038 18.3162 9.61083 59 37 16
-42.9947 14.6503 11.0449 55 36 18
-1.62189 25.7115 1.42506 60 39 18
-58.1362 4.83534 1.12234 68 61 46
-51.6852 17.274 2.02401 70 56 40
-40.7117 22.072 5.79466 64 40 19
47.9727 9.1062 -13.1533 107 74 35
-42.4627 15.9781 -8.4618 107 70 36
-13.1376 24.5541 6.93786 22 20 14
-30.227 21.5061 -7.85151 34 26 22
-62.0535 -7.64435 -2.9045 105 72 42
-47.1941 6.54311 -7.95918 112 73 35
-34.2248 23.7427 3.57211 63 42 19
-4.61201 23.6893 -6.13397 56 43 26
-42.014 20.7475 -2.40795 94 62 31
46.6534 29.253 -2.04519 62 43 27
-39.7753 17.475 -9.34933 109 74 37
16.0333 -3.78416 -14.81 72 58 41
-69.8379 -17.1067 -5.62253 73 56 42
-36.8568 23.4769 4.50277 65 41 17
10.7758 23.9358 -2.87047 65 45 24
39.3334 24.1632 -6.19461 118 77 38
-57.7227 -16.5425 -8.87154 142 95 40
-54.0543 11.9351 1.28598 114 76 37
19.7498 23.4261 7.1167 57 37 19
-33.2141 22.0267 10.5341 20 18 15
-72.9146 -17.8964 -1.70875 18 17 13
-40.0771 -21.2428 13.5652 54 35 17
19.3258 20.8153 -8.48345 130 90 43
-65.305 -11.3578 -3.37482 50 40 24
-41.3522 8.38437 14.3351 21 19 14
-53.4338 6.65434 -0.716152 150 98 43
33.3318 25.0465 -1.02493 58 37 19
45.7384 28.9335 0.0583115 62 40 19
-42.208 21.0695 -1.74745 91 63 29
-27.7247 22.4076 -7.48714 82 57 25
-25.0125 24.2644 6.15013 41 29 16
26.1938 25.0148 -8.26048 85 57 27
-47.7421 7.77039 -3.94542 48 41 22
-85.9984 -13.902 -0.609688 53 43 24
-43.2068 17.5405 -4.7996 80 56 30
-38.0634 13.3573 -13.0456 89 68 41
-46.7052 10.0347 -6.52441 105 69 33
-30.5017 19.8955 -10.328 128 84 41
-56.8679 1.22212 -1.15073 141 90 46
-83.9951 -20.2124 -3.31762 138 98 47
-5.83817 25.3655 -1.89147 83 54 26
-21.264 22.7542 -8.3531 91 60 27
-43.6497 16.155 -5.9903 37 29 21
-47.4728 3.9763 -8.45509 117 74 34
-2.14667 25.3614 2.32786 68 44 19
-41.3445 20.3189 -3.55856 81 57 31
-28.9025 22.1755 -6.78436 47 37 25
-41.9212 20.3364 -3.01045 92 60 28
52.7362 28.4075 -5.67981 102 68 33
-38.3642 22.761 -1.86072 94 62 31
22.0515 23.1535 -8.38793 93 63 33
-41.3154 21.7078 6.08356 65 42 20
48.6424 8.85352 -14.8668 114 94 51
45.6216 24.2623 6.27591 62 38 17
-46.6821 -2.08913 -9.36474 132 97 46
-30.2743 19.6293 -10.5846 132 90 40
-72.6457 -17.436 -3.15714 15 16 14
-43.2366 15.9412 -7.25813 39 30 22
-42.149 15.203 11.8265 31 23 17
-16.6158 23.2353 -7.79666 76 51 26
49.2236 19.6122 -13.5423 105 76 35
-45.6716 6.45474 -9.64942 142 102 45
-23.0313 21.9993 -9.16475 77 56 32
-39.7465 21.7971 -2.58259 87 60 34
-10.475 21.7155 -9.65115 36 33 25
38.0955 26.7795 -1.24071 68 44 24
-42.7691 16.2018 10.6585 55 37 18
52.8157 25.6129 -10.4017 63 41 20
-46.4906 -8.03021 -9.76337 36 32 27
-55.1832 -14.5414 -8.38364 147 96 45
-26.1826 23.8082 7.78662 26 19 15
-37.2974 11.6805 -13.9589 83 62 38
19.5714 20.0866 -8.9964 158 129 94
-31.905 23.1043 8.0743 39 28 16
-46.3999 -5.22514 -9.61745 124 90 45
-62.9876 -34.1522 -11.1551 96 67 39
-5.47047 25.599 -1.32796 81 56 27
-34.9944 23.7172 3.62276 64 39 18
-47.0475 9.63896 -6.13075 90 59 27
32.5312 24.6127 -3.38263 72 46 21
-2.8634 24.7743 -3.28221 95 65 30
-16.5064 25.78 0.110012 69 47 25
-31.4073 21.4211 -8.09079 94 67 33
-47.4349 4.77113 -8.21036 113 71 31
-50.1829 0.901215 -1.49229 77 84 67
-24.0688 21.6162 -9.15346 53 43 29
-50.4677 17.3785 0.978882 113 75 38
-41.5527 20.445 -3.16977 88 58 28
-44.5003 13.7613 -7.22846 52 42 28
-58.9385 2.96671 2.91671 56 36 18
-25.5669 23.1228 -6.44744 83 57 28
9.60599 23.7085 -3.37514 37 29 22
-42.2298 20.8851 -2.02604 89 58 28
-43.5007 16.0717 -6.40996 43 37 29
50.6273 25.4543 -8.79883 120 79 38
-56.4293 7.05394 0.965103 116 77 39
53.4377 28.0858 -6.73695 106 70 34
-46.3013 6.41389 -9.16674 119 76 34
-3.91182 24.4577 -3.98465 102 71 34
-25.4294 25.2013 -0.0789032 79 54 29
22.9249 25.312 4.1821 59 39 19
50.9347 27.2494 7.86112 102 69 34
-41.8925 -1.35458 -11.1644 142 99 47
26.8416 25.2104 -8.14764 94 59 27
-8.27148 20.8912 -10.2304 112 83 42
41.7001 25.2311 4.47243 63 39 19
50.8588 27.9924 -13.9551 59 39 19
49.8095 26.5245 -13.9849 63 40 20
-46.0439 13.8863 -3.16124 54 39 21
-15.3087 24.1317 8.07279 31 24 16
-40.0342 22.7722 5.04803 66 40 18
37.7212 26.4893 -0.23999 59 36 18
11.4068 24.5776 -0.954514 71 46 26
37.3456 22.3992 -8.181 78 59 36
-32.9257 22.5284 9.66434 27 21 16
-41.6719 20.0486 -3.62605 93 64 35
-40.8412 11.052 -12.7074 95 70 43
-27.547 23.8587 -2.35662 75 51 24
-44.9473 12.4889 9.73889 49 32 16
-19.993 23.5615 -6.03413 59 41 20
-45.8023 13.46 -5.304 71 48 23
30.5751 22.4091 -9.81056 104 74 38
-37.1814 23.3959 4.72171 64 40 18
16.3092 7.21277 -12.7003 182 136 89
55.1395 28.2918 -6.47654 109 73 33
-5.56743 25.8305 -0.891674 81 55 26
-16.9271 25.6184 -0.452347 73 48 24
-29.6839 22.9027 -5.03107 75 51 27
-11.7013 24.6311 6.03325 27 21 15
41.6893 23.5961 6.10881 39 28 19
8.04823 -21.7572 -16.9294 119 78 35
-28.2127 23.6857 6.71167 63 41 19
-30.5172 22.9169 8.9141 68 46 21
-25.3027 25.4617 1.34224 51 36 19
-13.5888 10.5572 -14.9274 61 50 41
6.31325 24.8437 0.585667 59 37 17
-30.8465 17.9862 -12.073 129 88 43
25.2902 24.1617 -9.45978 95 60 29
-77.326 -19.6233 -4.98213 75 56 35
-51.9633 -4.4211 -2.65893 63 66 56
-21.6741 23.3184 -6.1138 22 21 17
-47.5876 8.31206 -3.9261 44 38 21
-19.8764 23.5296 -6.48552 68 47 25
-8.16618 22.9287 -8.23021 104 69 34
-47.7818 8.48499 -5.20641 42 35 17
11.8193 -15.169 -16.6182 153 100 44
-9.3517 23.4962 8.33206 49 33 17
-65.553 -13.4943 -4.88303 104 72 44
-39.024 24.1594 2.14902 69 43 20
-54.8647 -14.1834 -8.32428 148 98 46
-46.7897 10.3012 8.0141 38 35 21
-85.0294 -12.1224 -0.483608 46 36 21
48.72 19.2137 13.3665 34 25 16
2.24072 23.5873 -4.28077 57 43 29
-46.3382 3.7589 -9.32464 138 98 43
-32.5117 19.7937 -10.1156 117 76 33
-51.8642 17.4104 2.41571 61 44 27
-39.3819 21.8618 -2.70421 78 53 29
-39.1167 0.0438232 -12.5712 127 97 46
-83.6068 -17.8081 -3.80272 153 104 47
-39.7142 23.286 -0.372707 95 62 32
48.5493 18.6396 13.3411 51 33 17
-10.9255 25.0963 3.48365 62 40 19
3.2767 24.8763 -1.55396 93 64 28
10.8176 -16.0404 -16.7255 146 98 43
19.6468 21.2164 -8.41642 129 85 44
-52.3637 16.047 1.92465 77 61 39
-60.5947 -1.63036 1.85047 44 30 16
25.6957 24.2457 -9.44089 94 65 27
10.3219 23.8043 -3.23705 59 39 24
2.52307 23.9141 -3.72021 66 47 29
-7.81624 18.3259 -12.2583 77 61 38
-84.6083 -11.8318 -0.152691 37 31 18
17.6982 21.1912 -7.69007 143 93 42
-28.2629 23.4907 -3.42493 77 51 25
-43.2292 16.1553 -6.9823 46 38 26
17.9978 23.5206 5.91774 42 35 16
8.49873 24.7876 -0.686007 62 41 18
23.1027 25.1589 -4.94226 76 51 26
-62.2893 -6.80287 1.19428 50 32 16
-39.3217 23.4999 -0.29311 93 64 36
-84.9101 -12.2172 -0.886572 72 55 28
-2.92532 20.7501 11.307 59 38 20
-24.1074 22.1377 -8.21688 31 28 24
7.96762 22.7336 7.15151 60 38 18
8.52625 22.4058 -6.16454 38 30 22
-47.4618 7.28745 -7.34729 99 63 30
-45.6892 13.6205 8.09511 54 37 17
-16.7007 23.256 9.20601 48 34 19
6.90186 -21.8619 -14.8171 50 39 16
50.0793 26.6183 -14.7125 87 60 30
44.178 24.5124 -7.00093 126 82 40
32.7999 25.1388 1.09794 70 46 21
7.27365 25.0072 0.114681 54 36 18
-56.1923 -15.2572 -8.48474 146 95 42
-46.0832 12.3557 7.76514 58 37 17
-24.0564 24.9861 -0.631386 87 59 27
-54.1585 12.7149 1.66749 94 65 38
-2.54604 25.6373 -1.25884 81 55 27
48.2947 5.90929 -13.0685 99 86 47
-12.359 24.6345 6.12819 22 19 14
-14.2627 24.6031 -3.65979 87 63 35
-28.7173 23.1223 -4.37403 72 53 30
-46.4308 19.8705 5.71279 65 39 20
54.0854 29.8461 -2.90269 86 58 27
-20.6908 23.5709 -5.44849 48 36 23
-17.4971 25.5528 2.7247 63 41 19
23.4622 25.5068 -0.0361176 62 40 19
7.24261 22.1209 -6.40365 28 27 24
54.0342 28.871 -5.24791 94 61 28
-2.59033 25.1965 -2.26683 87 59 29
-57.083 3.58685 0.068985 132 89 41
9.93547 23.541 -3.8277 57 49 30
33.3941 24.7823 -2.68396 70 45 22
-23.3886 23.0389 -6.46173 59 45 27
-30.6598 19.3892 -10.6602 129 86 41
-42.739 20.936 -1.41276 102 68 33
-59.6206 -32.4586 -11.4254 115 72 37
-49.7845 1.1172 -3.28144 38 39 34
-40.9829 -23.2902 13.4561 43 30 17
-53.8803 7.6104 -0.274448 155 101 45
-47.8043 8.40668 -4.76333 44 38 21
-25.0278 24.1923 6.62231 32 27 17
-35.4916 24.271 -0.091011 72 47 23
8.85861 22.6571 -5.8254 50 39 27
-55.0017 -9.65178 -6.923 66 68 56
-84.0812 -12.5724 -1.97988 146 102 52
-21.79 22.5509 -8.73458 90 61 29
-84.7941 -12.3043 -1.29275 97 69 34
49.853 23.9627 -14.1367 85 58 29
-17.0482 25.8619 1.67856 61 39 18
-37.2634 23.3912 -1.18939 88 59 28
-22.5958 22.2123 -9.0792 91 64 33
-18.7207 21.9695 -9.27102 51 40 30
-22.9722 25.3665 -0.0334244 84 53 28
-21.1056 23.4211 -5.99952 30 24 16
18.8684 23.4804 6.38873 47 32 17
-41.7532 -21.899 10.629 68 46 25
37.7136 25.4652 2.54574 59 39 19
31.8352 24.5436 -4.05029 73 48 22
45.5878 26.3996 -5.13887 109 70 30
-31.9875 22.9761 8.76725 53 36 20
-33.3224 16.7198 -12.5558 49 43 36
-17.8285 22.6529 -8.9758 75 54 35
-45.3541 -9.90256 -10.945 68 59 40
-62.8376 -6.48218 -1.16721 47 33 21
-13.3757 24.4086 8.05957 27 22 15
52.9896 30.2336 10.5746 56 35 18
-51.7508 -4.6559 -7.34209 68 69 55
-27.3426 24.0841 5.61636 63 40 19
-6.54361 25.3961 2.8168 64 40 20
49.7219 24.6103 -13.5443 55 36 15
-23.8462 22.9197 -6.75708 69 49 30
27.035 9.75906 -14.7955 124 100 50
3.25249 20.7888 10.2636 25 21 18
-16.2925 23.4896 -7.25847 51 36 21
-49.3968 3.0085 -6.50814 58 56 41
37.1576 25.0544 3.5647 61 40 21
-53.9164 -4.7121 -5.86234 35 35 29
18.1876 23.9196 2.19864 57 37 18
-46.7836 4.19392 -8.96848 134 88 38
-43.1696 20.9935 -0.940899 101 66 32
-63.1136 -7.41017 -0.832605 40 28 16
-39.1522 11.9688 -13.2701 135 92 42
50.0794 29.3694 11.1658 51 34 17
46.9746 28.7498 -2.99649 102 66 33
-33.8292 20.0039 -9.55372 113 73 33
-57.0952 -16.9338 -9.12815 139 91 41
55.0646 28.8551 -5.30862 95 59 28
-53.9023 -4.85063 -5.39938 36 35 29
7.1449 23.7123 -3.52584 84 52 26
-45.7324 11.7901 -6.80708 108 76 38
-37.8585 17.6099 13.2428 24 20 15
-25.1556 24.1432 7.54098 20 17 14
-26.9377 22.7945 -6.87329 76 51 23
1.59149 23.8079 5.67942 34 23 15
-38.3637 11.8557 -13.574 131 95 47
-60.5467 -1.20518 1.31672 43 30 18
-51.7934 -4.18506 -7.2244 69 73 59
-51.9113 16.254 1.5793 108 76 44
50.2171 27.1781 -14.6585 75 47 22
-34.5712 19.0143 -10.6117 118 77 37
-35.6753 18.99 12.8157 59 40 20
-54.9426 -10.7862 -4.54815 36 35 29
-32.4106 20.2205 -9.64415 117 77 37
49.694 23.5788 -9.79458 123 80 40
-46.1765 15.7509 -2.36654 127 92 43
-53.4781 7.95071 -0.339981 157 101 46
-53.7646 -12.5533 -7.99207 144 92 43
-33.1243 19.6602 13.0314 55 37 19
18.4138 14.7672 -10.3334 98 73 38
47.025 14.4532 12.5968 56 35 18
-16.4087 23.1763 9.66773 21 20 16
-43.6868 16.6919 -5.10326 82 57 28
-40.8803 -20.9347 12.3693 58 39 20
-20.5555 20.714 -10.5687 83 67 40
-41.765 21.9426 5.52213 63 41 20
50.4618 27.5277 -13.469 63 40 21
-45.9051 10.0322 -7.73441 90 68 37
-51.9381 -4.60922 -3.58854 31 32 27
-1.84674 23.4524 -7.54195 106 84 42
-27.9065 23.6758 -2.89226 77 52 24
-45.941 10.786 -7.06183 97 66 31
-9.14398 20.0228 -10.9412 40 34 32
-53.3767 14.4247 1.99554 74 56 38
21.8515 11.0414 -13.8199 140 101 44
18.8784 8.75272 -13.3219 80 70 54
-73.8805 -17.9008 -3.00309 18 19 17
21.0092 8.63274 -14.0953 147 111 48
7.894 -22.3968 -16.9823 114 76 35
-28.1333 22.5699 -6.17291 50 41 27
-45.914 13.597 7.7249 54 37 15
26.1433 25.2524 -7.67168 71 55 34
8.22073 23.0247 -4.67302 35 31 25
18.7029 21.1799 -8.04671 130 87 39
-35.0148 18.8514 -10.6932 123 84 40
-55.7423 -33.2142 -9.80481 74 46 24
-41.0071 20.5761 -3.48639 64 47 28
49.7667 26.1011 -14.2171 82 52 26
-13.2479 18.7644 -12.1404 140 103 48
-36.2702 23.5068 4.65151 65 40 18
-26.3927 23.6707 8.1088 32 22 15
-30.9237 19.6958 -10.4055 128 89 40
51.1916 28.3353 8.48959 106 70 35
-19.6491 24.2298 -3.83772 70 51 29
-40.4455 -7.31459 -12.8185 77 61 39
48.5036 17.4253 14.0761 45 30 17
-24.6464 24.6307 4.32709 61 40 18
52.1645 25.8973 -9.11853 98 65 29
20.3785 -0.686859 -15.7437 129 97 44
52.8726 27.4399 7.05964 109 69 31
9.19408 22.9478 -5.24376 44 33 22
50.1006 27.1846 -14.1042 55 36 18
53.4061 30.1003 -1.86055 62 42 20
-3.66661 19.0933 -11.5686 140 93 44
27.5417 25.81 4.52815 63 42 22
51.506 26.9426 7.38569 99 66 31
-52.3188 -4.55734 -3.19939 33 33 29
-45.2896 12.6306 -6.94495 110 81 42
-30.067 22.9582 8.77481 63 41 19
-31.2266 22.9823 8.71974 63 42 19
-33.4307 19.4729 -10.2978 118 77 36
-34.1989 20.8891 11.7138 22 20 17
-47.3643 -14.5734 -10.7694 136 94 45
-14.7524 24.2736 8.20608 20 18 16
-20.6983 23.5319 -5.69259 42 31 21
9.31239 23.8477 -3.13419 40 31 23
-73.4414 -17.6999 -3.34743 18 18 18
-65.7435 -12.2363 -3.44783 36 28 18
-32.9742 19.6383 -10.2082 116 75 34
-40.0055 23.5334 3.14371 66 42 19
-43.7831 -7.61519 -11.5502 126 82 39
7.7448 22.2887 -6.02366 31 28 25
21.3145 24.3033 6.90912 63 40 19
-48.5263 -12.8369 -10.1677 130 85 40
-56.1048 -16.4464 -9.03258 143 94 44
54.5825 29.0958 -4.79497 103 65 33
-1.73889 23.8994 -7.02113 58 44 26
-46.07 10.1405 -7.31095 103 74 35
-47.3295 8.24203 -2.02535 49 42 23
-27.42 22.9478 -5.10868 32 26 19
-33.6149 23.5096 4.42997 61 39 19
23.2942 24.7391 -6.09226 66 47 24
-18.5121 15.6555 -13.1339 97 75 45
18.8015 23.598 5.83723 29 20 14
-41.4038 -24.6264 11.9614 34 34 27
-20.4925 23.1996 -7.7344 97 68 35
-47.2905 8.40334 -1.50618 55 47 28
-56.0625 2.38579 -1.01303 139 93 41
26.7181 14.5604 -14.0449 84 68 40
-13.909 18.4241 -12.2538 132 97 53
-46.8967 -1.3548 -9.24952 126 99 47
-74.0995 -17.8749 -3.38558 20 24 19
-55.4804 10.1345 1.48398 102 70 39
-54.759 7.24861 -0.00968933 142 93 41
-33.0995 23.999 2.90208 64 42 18
-77.595 -20.8764 -5.45559 124 83 44
-47.1114 10.0277 7.66141 42 38 23
-69.7174 -17.9877 -6.01491 109 78 44
2.80293 24.6955 -2.15151 96 62 29
18.1736 14.2797 -10.3884 74 55 37
-47.2563 -1.47905 -9.02858 83 66 44
-47.1717 5.09546 -8.40363 112 70 33
54.4893 29.9965 -0.523769 51 33 16
44.4584 27.6346 1.51416 64 40 19
-53.6031 14.0494 1.95747 80 61 40
47.7302 15.6417 13.8199 54 34 16
-26.948 24.0798 -1.72143 80 52 25
-55.2159 9.86272 1.11256 117 77 35
18.2218 23.8153 2.73957 58 37 18
-19.9376 23.9004 -4.60078 41 32 20
-23.5241 23.1556 -6.22823 69 51 30
-33.2579 17.1873 -12.2368 50 39 34
-48.017 7.51035 -4.45734 50 42 23
-25.8753 24.5422 -1.09188 90 60 28
23.4195 25.6169 -0.58091 58 38 17
19.5998 23.6007 6.54604 59 38 17
20.8002 24.0313 6.80077 62 40 19
51.1003 28.9777 9.05193 105 69 35
-37.6875 23.214 5.06615 62 40 17
-20.2767 23.7312 -4.89917 43 37 23
-58.6012 2.39468 3.48534 54 35 17
-38.4157 22.9598 5.46186 61 39 18
22.4258 24.8728 6.60392 58 36 16
-55.4088 -10.5926 -6.99586 69 69 61
-23.8474 22.4421 -7.69862 49 42 33
-62.7417 -16.5261 -6.68984 135 92 43
-17.3678 25.386 -1.2485 78 51 25
-27.6325 23.839 6.39128 61 39 18
-18.2853 22.4498 -9.05958 46 37 28
54.1633 29.2985 -4.27559 102 67 34
-64.7382 -33.3725 -10.0957 94 68 32
-52.6213 6.77777 -0.862112 156 100 46
-61.3929 -29.9536 -10.3738 133 94 41
19.8435 20.5228 -8.93677 166 125 84
-32.0429 19.9288 12.8551 65 41 22
-17.2148 22.9998 -8.50351 70 49 27
-29.4374 21.8867 -7.23782 39 31 24
38.0419 26.0414 1.48787 59 40 18
-62.8879 -6.62772 -1.74383 53 44 28
-34.3328 24.4231 0.781582 58 39 20
-27.2369 22.5423 -7.39438 94 65 32
-55.7057 1.95924 -1.37403 147 98 43
6.65329 24.7192 1.0284 59 39 16
14.9672 1.41156 -13.1531 120 92 41
8.13284 22.1484 -6.75243 34 28 21
37.5308 26.3031 0.31485 62 38 19
-40.0431 23.2098 -0.261944 95 63 33
-52.9389 -7.84547 -7.53884 66 64 53
27.5005 25.7365 3.86648 62 40 18
