ply
format ascii 1.0
comment Created by Open3D
element vertex 1382
property double x
property double y
property double z
property uchar red
property uchar green
property uchar blue
end_header
8.16607 0.577381 13.8605 62 49 22
23.9063 14.296 13.5393 61 39 18
-5.36807 25.6558 1.66869 53 37 17
-44.1875 -4.7952 -10.6427 124 83 41
-29.6211 24.2814 3.57983 61 39 17
54.4924 7.53212 -14.9498 127 115 64
-11.6081 -4.74043 10.7641 58 46 20
-21.736 9.00408 -12.7252 136 108 48
67.4369 2.95983 -4.43977 131 102 76
-8.50948 18.7728 -12.0808 38 37 33
-0.780136 10.5477 15.1912 47 37 18
-60.7913 -25.2457 -10.5864 128 95 38
56.3549 8.90981 13.4285 66 55 32
-2.55244 -1.29855 -15.0531 151 145 91
24.2554 -3.59765 13.8105 31 27 17
13.1064 23.9185 2.28336 61 37 17
-28.4919 -0.568363 -11.3347 120 127 90
61.5517 14.9764 -13.1351 104 82 45
26.7423 26.0041 -2.15004 58 38 18
-48.5343 18.3726 5.6712 61 37 18
51.5538 5.08484 -14.5763 161 169 122
-0.788017 23.7696 6.16167 48 33 17
32.1177 20.9827 9.89828 22 16 13
-71.1661 -16.7056 -2.81406 18 17 14
-35.1516 -33.7859 15.9286 30 23 15
21.0016 -2.29088 13.9386 46 34 18
65.9253 19.8827 -10.096 153 117 53
-6.22723 24.0214 -5.42055 69 46 23
55.2785 8.83369 -14.6633 64 65 48
57.009 16.7802 -14.5313 53 49 35
10.1251 10.7909 13.9158 26 22 13
-2.8045 11.833 14.8708 43 31 19
6.90186 -21.8619 -14.8171 50 39 16
6.11403 24.8438 -1.1341 76 50 24
58.4444 27.6339 3.96004 58 38 18
28.1075 -7.62853 -8.32939 143 150 102
48.9113 5.44154 14.792 59 50 37
21.6823 -5.94118 13.3148 59 53 25
-32.755 -6.18344 -11.1364 117 119 80
76.1062 9.38878 2.51584 82 72 47
53.8974 6.62517 -14.8434 155 152 92
62.9188 1.9709 -4.26666 172 185 135
11.9961 22.7399 -5.80855 111 72 34
-28.5334 7.47923 -13.8992 135 115 62
-44.5681 -5.89331 -10.7161 130 90 41
-15.3295 13.2423 13.8442 17 15 13
-45.6507 17.0547 -2.2812 108 85 49
-6.87964 -5.62168 -13.5934 148 130 66
33.7531 25.0414 -1.5109 59 39 18
53.3974 15.3881 -15.8247 103 96 77
16.4356 -19.7664 -15.5798 163 137 70
12.3909 19.5382 -8.75645 47 43 36
-34.8533 0.152557 -13.6914 67 62 47
30.447 -10.1846 10.6172 65 57 27
-7.5092 25.5517 2.59849 60 39 17
-3.67856 14.8042 14.0833 20 18 15
8.35678 -22.741 -17.5029 127 86 40
49.8427 23.8345 -13.0037 50 34 15
50.5567 29.8236 -2.35346 71 47 23
-44.4721 6.68787 -10.7536 108 69 36
15.8526 -6.16485 10.9367 62 49 22
66.0066 9.38045 -8.94336 70 73 56
-37.8239 0.967466 -13.0028 124 97 49
-12.5884 10.7977 14.1068 47 36 19
23.5833 -5.72594 13.507 28 26 19
-5.92097 23.8526 7.59008 22 19 13
57.0984 24.0126 -12.3856 151 105 47
72.9404 11.2394 8.04092 63 42 19
-21.5196 -0.830025 11.2968 65 55 26
-36.622 -10.7831 -10.5879 125 133 86
20.8014 -16.5081 -12.3912 33 34 26
18.6356 -7.3787 12.7205 52 39 17
-23.6 24.4059 -2.02548 87 58 31
5.64803 2.69236 14.7 42 38 22
-26.6972 21.5571 -8.96314 110 72 31
-25.3602 2.55152 -11.5076 52 52 39
36.1528 25.784 -1.63776 73 48 24
64.466 7.33671 -6.02344 136 142 116
8.95403 19.4238 -9.61594 140 97 43
-40.7721 17.4775 -8.59304 92 66 42
77.1818 11.4758 -2.29495 39 37 25
16.3136 2.97472 12.4874 61 49 25
-0.418724 18.7865 12.2412 61 40 19
5.53152 21.7119 -7.44385 102 73 40
-17.2987 19.9069 -11.3952 124 79 36
-29.8501 -17.2045 13.8459 65 58 26
62.1034 21.3835 10.5267 42 32 18
-66.6766 -30.4404 -6.3522 21 19 14
-17.8642 17.9579 -12.4361 137 91 41
47.7302 18.2319 -10.9236 215 169 116
-1.99678 -4.95468 -14.2069 154 144 85
40.9384 -32.5765 8.69029 61 41 19
38.7496 25.6087 -3.99925 91 58 29
54.9271 18.7348 -15.246 168 138 84
62.0699 18.5692 -12.0427 100 88 45
69.6151 -1.41568 3.36189 57 48 29
47.4892 18.4725 11.3305 63 37 17
26.2136 -32.4697 11.4429 53 40 20
1.23347 20.8166 -9.53314 44 41 33
-29.5499 1.1317 -12.6043 53 53 40
-19.9096 24.731 4.54036 45 32 16
-70.5859 -24.3859 -2.75565 52 46 24
8.4326 -4.43888 -11.7658 187 167 98
13.0694 12.829 -10.6801 60 55 44
-26.4673 7.59758 -13.3453 38 37 33
9.35704 -29.1798 -14.1885 49 35 16
17.3233 -9.37377 12.5704 55 37 18
23.6473 24.8904 -5.93232 63 44 26
19.6814 -0.527752 13.5545 54 36 17
6.61272 -1.75584 13.4763 38 36 21
14.2732 -11.1787 10.6247 69 61 36
18.8292 -12.613 -14.2753 49 45 39
-51.4951 4.79852 5.69875 59 44 20
-50.8172 -9.57184 -8.32297 162 119 53
26.1691 25.4272 7.94767 33 23 16
-4.34804 -2.03216 -14.9228 95 94 65
39.8407 19.4952 8.5658 61 39 18
65.9731 11.609 -11.6669 131 133 89
15.4401 -10.6021 11.7705 55 38 17
-21.384 22.7373 9.93746 25 19 14
-74.2243 -18.4962 -4.40587 54 52 53
74.5812 9.93749 -5.80722 133 136 94
-57.3937 -12.2731 -6.94932 43 43 36
39.1446 1.69539 8.41534 56 55 33
63.8729 21.6669 9.97076 35 27 19
58.4766 21.6456 -12.7283 138 107 42
-24.7671 6.10406 15.0293 53 49 27
-28.7472 6.3392 -13.7655 126 116 59
-65.4877 -32.3756 -9.31769 93 64 33
-49.6305 -13.7509 -9.91877 127 84 38
-31.8037 -27.4009 13.107 49 36 19
-54.841 -17.5258 -9.83679 138 89 40
-37.7261 19.5808 -8.49001 31 27 24
7.90458 -0.668694 13.613 61 53 26
15.77 -11.0105 12.032 55 38 19
16.262 5.97655 -13.3056 138 92 42
30.5982 5.39669 13.6577 57 50 28
0.00506592 24.7039 3.29009 63 40 19
-78.7675 -23.869 -0.604874 53 49 25
75.3129 14.635 -4.51529 127 86 38
-20.6822 9.08663 -12.8381 147 116 55
14.0351 24.3871 1.2545 59 38 18
53.9395 11.2842 -15.6922 124 124 84
7.63722 22.367 -5.8153 32 32 27
60.0874 16.4991 -13.2588 113 106 80
24.0082 21.6855 11.5802 59 39 21
16.0269 -7.75767 11.4878 60 43 22
-50.141 9.32391 -0.398338 164 112 41
42.4165 18.2273 -9.6675 158 108 44
-8.91109 25.0268 -2.55637 93 61 29
-73.9719 -21.6307 -0.753021 34 30 17
14.0138 -4.7094 10.6304 65 58 30
61.4232 24.2521 7.90466 59 38 20
21.5191 20.9715 10.9668 26 24 18
-18.8588 12.8177 13.6308 46 39 20
14.7771 -10.6337 11.2982 60 46 25
-38.2096 17.0319 -10.8324 93 90 85
27.2016 13.6705 13.9268 36 28 16
-27.6419 -5.26449 13.968 58 42 23
-61.9213 -34.5264 -2.82298 21 18 15
16.3812 0.376282 -14.0013 140 99 44
46.7789 17.6177 10.9644 65 41 19
-33.529 20.5292 -8.96905 113 72 33
16.9358 -11.9031 12.5675 53 35 17
14.0661 3.22381 -12.2053 122 95 46
69.3386 22.807 1.24637 66 46 22
9.38474 -10.0402 10.4725 60 46 23
-40.5149 9.62663 -13.1636 86 67 33
1.75012 20.3434 10.8689 60 39 17
-57.0424 -10.2493 1.36723 60 54 28
3.4902 10.4365 14.8359 58 42 18
59.4315 9.94652 -13.4231 134 140 103
55.3063 7.58712 -14.6476 75 73 51
-34.3578 -28.24 14.4289 57 38 19
16.5038 -10.1694 12.3608 56 40 18
-19.1878 5.42315 11.7082 52 46 25
40.6057 -31.8809 9.83862 82 56 25
54.7522 13.184 14.5301 62 46 21
27.9629 23.7236 10.2916 75 54 28
14.3075 -12.7021 11.3684 63 58 32
7.68079 11.4401 14.0294 59 41 19
3.11507 14.1658 13.8751 62 41 19
-2.21446 23.7221 -7.2064 46 36 24
-32.5966 -6.80097 -10.5612 107 107 67
36.3754 13.0709 -11.4061 153 115 52
59.2766 20.861 -12.4249 123 95 50
53.2314 12.9181 -16.1732 52 50 39
-21.543 23.5645 -4.90886 34 27 20
19.2478 23.509 -5.09214 90 58 29
-7.56906 25.9784 0.14307 61 44 21
17.8318 0.629181 -14.3419 55 47 36
27.2732 23.7848 10.5084 58 37 19
55.5218 30.0465 -1.15016 51 35 18
-45.1003 -5.88069 3.65234 68 59 26
69.9657 21.9752 2.50517 32 24 16
1.02577 12.9045 14.3716 27 21 16
-29.057 8.0163 -14.1891 129 111 53
-4.64255 25.9821 -0.175461 53 37 20
58.9641 9.49522 -13.4576 109 108 81
-12.1572 16.5656 -13.2116 140 97 38
-21.0801 24.1661 7.06903 61 39 17
55.7886 24.7938 -12.7153 158 152 90
20.6927 -3.56065 13.7677 56 45 20
-4.59526 0.0673313 -15.3736 144 145 93
-13.7097 19.0751 -11.9778 136 97 47
16.1287 -11.8582 12.2882 55 39 19
73.6335 11.093 -6.51364 140 133 66
-29.6185 22.4088 -5.91909 56 42 28
-33.6884 -29.5218 14.6112 60 41 22
22.4696 0.0338821 13.8466 35 26 17
30.7199 -8.49007 9.48723 90 86 46
-41.3897 -24.799 12.5105 28 29 23
1.28166 23.2487 -5.46973 43 36 25
54.1534 12.3754 14.6308 68 50 24
66.309 8.33766 -5.92737 120 104 84
50.6462 24.2959 -9.99931 102 65 33
22.9838 20.9588 11.661 60 39 19
5.6551 -7.88756 11.6249 61 51 22
5.67496 -2.44068 13.4977 65 64 39
48.6543 19.8207 -11.6746 93 58 27
-16.5945 9.91071 13.1103 56 46 21
20.3691 -6.67588 13.0766 56 45 22
51.8829 3.75413 -13.6349 155 167 121
6.719 -8.08853 11.4713 64 55 24
-64.9779 -21.7176 -3.74129 44 42 23
14.4137 20.4464 9.33934 40 29 17
-48.8348 -2.83257 -8.41731 157 108 49
-40.6801 -15.031 -9.24837 106 106 65
63.6542 0.24029 -3.09518 149 155 103
-42.6441 -14.3272 -4.47934 69 65 38
-19.9861 24.0154 -4.26151 44 32 23
22.3116 14.7472 12.9738 38 30 18
16.4294 -7.57475 -14.3083 90 84 52
19.4691 -6.59169 12.9096 55 43 21
64.2588 13.5453 -12.73 180 166 118
23.0105 5.85635 14.0283 55 42 21
-45.138 7.92468 -9.99127 153 107 54
51.7194 20.6035 -14.6601 170 148 65
75.21 16.5088 -3.10553 154 107 49
-46.8042 -11.9477 -3.11006 58 42 17
76.2257 8.88186 3.84232 62 57 35
63.6613 1.17381 -3.86143 155 165 113
11.0665 17.8156 11.5201 62 44 25
8.55881 -4.41751 12.1327 66 58 26
23.9332 5.78293 14.1524 31 25 17
43.6876 20.0158 -9.1982 160 116 46
56.037 21.9792 -13.5459 103 84 43
7.56292 14.0808 13.3902 64 43 19
69.729 -0.264811 0.910889 66 37 27
73.5197 16.05 -3.9422 124 82 37
67.9546 1.70152 -3.71391 124 110 69
-25.1697 21.4429 -9.12335 39 31 25
44.3745 2.99604 8.79861 74 77 55
-26.0631 0.767963 -11.018 146 148 102
3.836 16.6081 12.6724 29 24 16
-1.50433 -10.2455 11.1643 57 44 21
65.813 18.7052 -10.5295 147 110 50
2.88371 6.68336 15.2245 19 18 16
-82.0629 -12.8352 0.356888 32 29 20
10.6379 -10.3396 10.0888 66 56 30
-61.6162 -20.7609 -9.60482 145 102 39
15.4348 -8.2461 10.9439 60 44 21
62.7475 24.474 -8.00284 115 73 37
15.8301 -1.75581 -14.444 123 87 39
2.93372 21.2591 9.681 45 33 20
20.071 4.64116 -14.388 138 115 55
49.9198 28.1369 11.9444 53 33 17
11.6733 -10.0912 10.0068 64 54 29
27.272 -1.75067 -14.8357 130 123 68
-23.1059 10.5681 -13.0411 102 95 62
20.1826 1.47376 13.4213 44 34 16
57.7553 26.782 -8.1414 108 68 31
77.2491 12.4179 1.11214 37 37 26
-58.5504 -21.8628 -3.66335 57 41 18
53.9122 12.111 -15.6917 103 99 67
48.4449 29.8035 -0.0313911 60 38 20
18.4556 -2.1155 13.288 50 36 18
52.1994 23.0776 -14.042 152 153 100
15.246 12.5194 -10.3633 146 115 47
-5.87831 14.8337 -13.5581 127 89 43
10.5758 -29.6678 -13.5015 59 42 20
-65.8449 -19.7902 -6.86531 139 113 47
14.8835 -29.7828 -17.4388 150 110 45
-30.0605 -18.525 13.3366 66 61 26
-59.7131 -15.5105 -6.4773 24 21 16
8.58878 22.8015 -5.35073 32 30 24
62.7809 5.03819 -5.62456 148 162 131
-67.2515 -17.7641 -0.768158 36 28 16
-42.5236 -15.352 -5.04408 64 58 33
54.4243 23.9416 -12.9335 178 176 114
-49.8062 2.60632 -4.63691 44 42 36
53.8304 12.9269 -15.6197 99 97 64
-31.1684 20.435 12.2984 65 40 20
16.7914 -4.83633 11.6381 57 42 21
-36.7718 17.3789 -11.4135 141 109 79
50.103 15.3817 -15.2105 138 105 52
64.1536 14.7324 -12.6482 153 127 78
-71.5404 -16.7359 -3.35654 20 18 16
-35.1779 2.33714 16.1563 52 44 27
-34.4001 13.0613 -14.1769 126 90 49
-2.59033 25.1965 -2.26683 87 59 29
61.4647 22.8855 -10.1617 131 86 35
-32.7802 -29.8778 14.3045 56 37 17
52.0305 29.9852 0.196243 60 39 18
22.2899 16.095 -12.419 131 92 42
-32.8197 17.9568 -11.6881 54 47 30
17.3903 -8.14009 12.4005 55 38 17
-27.052 5.83281 15.7816 30 26 16
43.2438 23.8608 -7.49023 139 91 40
51.0963 22.6477 12.493 64 38 18
55.2942 26.1815 -11.7656 55 39 17
-33.654 8.29742 -15.0355 108 96 55
-47.1277 -7.59888 -9.26773 46 37 33
34.2649 -31.3711 13.7289 59 38 16
-56.7776 -12.2035 -5.41738 30 30 26
9.50037 16.1229 12.5038 19 18 16
7.82163 15.1593 12.956 62 41 20
12.1305 17.7125 11.3611 62 43 21
14.8042 -8.71733 10.4481 60 44 20
17.8805 7.15065 -13.4726 140 101 43
-15.6619 2.44411 -12.9734 135 117 58
-46.2297 -1.07961 8.13608 66 61 33
-60.6603 -16.2425 -8.51155 144 116 53
-1.22638 15.0922 -13.3503 137 96 43
29.7383 -30.9068 13.7731 57 42 19
10.0325 -10.2023 10.2467 61 49 25
-16.8893 23.5291 -6.08532 28 25 19
21.1236 14.3837 12.5957 28 22 15
-7.84924 15.8813 13.8495 63 42 19
21.9081 -4.61831 13.5908 57 49 23
52.3992 30.0336 -2.03258 68 46 23
-75.7962 -18.7416 -0.773796 15 16 15
-27.4774 15.6734 -13.3233 105 87 48
-40.4377 -2.73429 13.1703 56 46 21
55.5903 19.9741 -14.8291 95 92 57
-30.663 -32.6038 15.6984 48 32 15
-34.1393 -26.8783 14.0059 58 39 18
46.1809 19.7612 -9.74338 153 102 46
28.5813 -11.6823 8.30238 155 162 102
18.7284 -5.2077 -15.1247 132 121 66
-46.9174 -17.9108 -5.31226 68 62 30
-0.636078 23.8894 -4.33527 41 31 21
-21.6033 16.6192 -12.713 145 110 49
20.7367 23.9137 7.00777 61 39 17
68.1466 14.87 -10.2396 140 115 51
-49.6053 3.06122 -5.62236 46 46 35
57.7055 11.1082 -14.5242 87 87 61
-34.4571 3.69841 16.3028 28 24 17
-73.1089 -18.0634 -1.44746 18 19 17
16.3561 7.15108 12.834 59 47 22
69.016 2.53293 -2.50963 89 45 42
50.3554 16.6136 15.0624 59 35 17
-25.904 22.909 -6.9723 85 56 27
-40.2123 15.8985 -10.7548 116 79 41
31.4681 2.30224 -13.2434 100 102 67
-64.4899 -21.4353 -8.36485 116 94 41
54.063 26.4146 -14.4885 114 111 72
-35.9452 -10.8002 -9.65891 77 75 50
-63.4144 -9.72982 0.616119 41 28 15
16.588 21.649 8.05701 29 22 14
-57.3168 6.7934 1.36911 76 59 45
62.5391 13.4328 -13.0522 141 119 59
18.5775 -6.50972 12.7406 53 39 19
54.7241 29.7091 0.629288 59 38 17
-32.3104 -27.581 13.3526 56 39 19
75.8694 15.3881 -3.35112 136 100 44
53.0654 13.7223 -16.0083 45 40 37
53.0609 20.6528 -14.3511 137 105 50
-64.4532 -15.3885 -0.0137939 41 31 15
-1.5002 23.2097 8.08679 30 24 15
56.0639 11.0067 -15.0598 140 142 95
51.4861 26.2176 -8.25835 119 77 37
-30.1499 21.9993 10.6937 64 40 20
28.2724 22.5972 11.2718 64 42 21
-22.5502 22.3864 10.1731 62 41 20
-25.6693 6.64316 15.3231 43 36 23
-16.6137 24.0284 -4.91935 73 55 32
4.99135 24.3051 2.35043 60 38 17
-15.4289 -4.4218 9.86108 63 54 30
-46.4048 -15.4858 -3.8918 66 61 32
-26.095 7.04565 -12.9443 51 47 38
7.11347 -29.1635 -16.8457 50 36 19
-59.1479 -14.6529 -6.83206 25 23 18
11.4003 -19.1893 -18.0221 140 101 46
63.5284 2.06211 -4.41684 168 179 125
15.8272 -4.47164 10.8715 63 57 29
30.4489 4.07283 13.3156 45 38 22
26.3733 26.0617 -2.83767 61 40 20
-6.27498 20.6579 11.8038 28 25 18
-12.757 16.019 -13.4186 140 91 44
11.0579 -9.9502 10.1784 61 48 24
-26.5026 -12.4269 13.7246 62 54 25
51.076 25.9548 -15.3459 135 90 45
15.3919 6.93916 -12.1955 107 80 48
64.3317 1.28618 -4.10661 157 161 114
-42.2828 15.1234 11.6731 37 26 17
42.7388 1.85178 -9.56216 156 155 97
-54.7664 -8.61256 -3.65702 73 75 65
20.2175 -5.7635 13.2124 60 53 29
26.4273 -1.33512 -15.3084 137 133 82
19.6552 9.68639 12.8887 56 39 19
-31.1531 5.0525 -14.1257 117 104 57
-27.7021 -14.5738 13.6233 63 56 26
16.0471 -21.2874 -15.8785 148 118 51
17.2242 18.0714 10.966 52 38 21
23.4331 6.24148 14.106 43 36 20
49.6252 22.9795 -10.2172 109 69 31
56.7905 25.2121 -12.0547 101 71 33
56.7126 15.9586 -14.7721 74 73 71
48.6574 26.7815 4.94707 72 46 20
32.1903 0.0680885 11.5624 68 61 29
-24.8421 0.363914 14.1249 23 22 17
9.29362 13.184 13.6298 30 24 16
16.2191 19.6857 -8.34767 146 97 45
11.2029 9.07973 13.8251 22 21 18
-1.41035 24.3848 -3.55009 70 53 31
55.5903 21.172 -14.243 46 42 31
-27.668 5.8271 -13.185 118 115 66
-27.5338 20.534 12.5343 62 41 21
-6.81133 25.604 -1.15109 89 60 28
-10.6967 11.5077 -15.065 140 101 49
-37.47 -4.17805 -13.3554 66 58 37
2.15237 14.2658 13.9617 62 44 21
49.3207 22.2581 -13.3705 63 39 18
-49.3008 -5.55669 -8.50489 154 112 50
-25.2443 24.2464 6.05035 48 33 17
23.069 -14.2078 5.57205 180 180 113
-25.8018 3.65553 -11.8479 115 111 65
61.1524 20.5114 -11.5901 85 66 36
10.1782 -27.4073 -12.8748 59 45 20
-14.0678 3.38204 12.1861 45 38 19
69.11 21.2631 -1.13342 88 63 29
11.5924 -5.73011 -14.5553 63 48 33
26.348 24.2235 10.355 27 22 16
27.6604 24.8546 9.30588 54 36 18
46.0995 3.18231 -10.1292 160 167 113
49.8838 25.0819 -12.9254 57 35 15
10.0157 15.6103 -11.2212 144 116 50
-39.6355 23.146 4.24773 67 43 20
16.2041 -9.77803 12.0545 55 38 19
-50.2833 -14.2066 -3.38904 58 40 19
40.1801 2.04236 8.48785 64 61 35
7.44296 -21.8443 -13.7521 56 42 19
53.6712 13.7317 -15.4622 88 86 60
66.7284 12.455 -11.4351 133 131 79
-48.9917 19.1965 1.16221 148 113 78
-63.2722 -7.85634 -1.31574 37 29 18
53.3952 27.7581 7.15693 114 73 35
44.6905 20.9232 -9.06825 165 117 47
19.1717 24.073 -4.02788 87 57 27
65.9248 22.9197 7.98129 20 19 15
-47.1717 5.09546 -8.40363 112 70 33
53.242 22.27 -13.3513 178 162 89
-21.3214 6.66376 12.7925 31 30 20
55.1416 26.7391 -8.75337 135 85 39
66.4234 24.0278 -2.25568 66 45 23
-19.5754 21.5902 11.4343 59 40 20
58.3189 20.448 11.9635 49 35 17
19.3296 -5.68557 13.033 57 49 26
13.3474 18.3547 10.9538 59 39 18
-32.9891 -30.43 14.7623 57 36 18
-27.1283 25.2449 1.99229 65 44 22
-44.9982 4.96089 -10.3047 45 35 26
18.2052 -0.50618 12.8462 57 40 18
22.703 17.1308 12.9373 49 34 18
12.0804 -4.28983 11.2489 61 52 23
16.3876 -7.33683 11.6555 56 40 18
-27.5117 5.20092 15.9221 29 25 17
-47.4077 -17.6764 -4.90427 69 64 32
64.9774 -0.464964 -2.81403 155 156 98
49.8558 29.9641 -0.191139 53 35 19
64.5028 5.61308 -5.2917 156 155 119
-39.494 20.7266 -5.20868 72 49 26
17.036 -6.0405 12.0651 56 40 17
-43.1194 12.2569 -10.0312 62 50 40
-60.118 -1.58852 2.65747 50 33 16
17.5304 4.54507 12.7502 43 35 20
36.2808 22.5318 7.35695 61 39 18
-53.6698 7.51433 -0.367905 153 101 45
-28.2516 5.79908 -13.4514 117 109 66
-28.4135 -12.616 14.432 62 53 25
-2.48018 11.0786 15.0764 39 30 17
69.4595 20.9796 -3.73354 25 21 14
-36.7569 -3.54162 -13.1418 110 95 53
36.6474 25.0632 -3.79872 66 47 23
-38.0065 -30.8796 14.581 31 24 16
8.341 -3.89675 12.4299 67 59 28
38.3678 -3.36031 -4.47696 84 89 64
4.34785 -9.3971 11.5028 62 50 27
3.43667 9.30187 14.9629 59 43 19
25.5577 21.4921 -11.72 143 90 40
63.6363 5.53412 -5.45628 160 167 128
24.9115 -9.09801 -11.7883 73 75 54
10.7561 -3.98747 11.7301 65 55 26
55.9299 -0.0158195 -5.86798 97 105 79
24.6329 24.1951 -8.54864 64 45 27
-23.7768 11.6284 -13.2107 113 97 56
23.6702 -16.2944 6.44792 187 187 119
-3.94603 26.0028 -0.0387344 52 37 19
10.3969 21.0551 8.90028 49 34 15
-37.8387 -0.188837 -13.0177 132 104 50
-53.3488 -8.91277 -7.60638 71 62 50
25.5435 20.3141 -12.3134 143 95 38
17.0103 23.3255 -5.47411 87 56 27
57.6305 8.97834 -13.7013 133 124 77
-53.2633 -5.88593 -3.84042 34 35 28
8.60475 14.3522 13.2152 39 30 18
-36.546 -1.09728 14.6628 26 25 18
1.59042 16.2053 -12.4565 49 41 31
-20.2909 2.8421 11.3948 65 59 31
71.6507 8.42024 -5.42168 154 148 107
-14.0384 24.5347 5.94489 55 38 19
16.3472 10.9564 -10.9222 140 92 42
40.4557 -2.19756 -4.13358 89 93 66
45.1455 26.6321 -4.63318 110 69 31
-46.4785 -1.09055 6.62575 64 59 30
-29.6858 13.536 -14.3168 127 94 47
-37.5554 -22.8547 15.1765 57 41 19
-8.94493 25.3601 2.91273 61 39 18
-41.5919 8.5224 -12.4263 59 45 31
-40.5055 -1.44992 -11.8748 71 53 36
-3.54602 -1.94243 -14.9153 149 141 87
61.5958 10.5939 12.8443 60 49 28
22.5572 23.4131 -8.29893 72 52 30
26.4988 -0.379715 -15.3901 134 112 55
61.6757 15.1287 13.4053 29 24 18
8.10356 -4.77491 12.1163 65 59 30
33.6395 21.9887 8.62578 58 39 20
-60.9519 -18.7881 -3.14128 44 35 19
53.301 27.2181 -14.8743 84 72 42
63.3246 14.6846 -12.8516 161 140 73
-57.0309 -33.5775 -4.42384 58 37 18
68.3201 7.25739 -5.29541 104 65 65
-36.5542 -4.6633 -13.3029 73 66 42
59.9289 10.4016 -13.4268 136 143 101
-26.3295 4.18921 -12.1427 122 121 85
67.7702 24.3766 1.36778 72 48 23
76.4749 16.5454 -2.28915 129 85 40
67.6422 15.6276 -10.2406 143 105 47
57.6189 13.1469 -14.4993 107 98 56
8.52819 -10.8023 10.3286 65 58 34
-49.6511 -14.7593 -10.2185 136 97 44
6.33673 -11.1969 10.7242 70 63 40
57.9191 8.71318 13.0878 66 51 23
-27.2075 -33.2903 15.1949 56 37 17
21.6077 -6.25595 -15.1991 69 74 53
21.3021 -4.08955 13.6752 59 49 24
-32.1138 11.5161 -14.7091 48 42 33
-26.7718 15.1028 -13.5089 140 102 48
9.88502 -4.73211 11.624 67 59 29
1.46176 -6.1246 -13.7541 142 134 80
-54.3015 1.03884 4.88074 55 39 17
63.4148 13.4913 -12.905 139 113 50
-26.2496 -5.6256 13.4921 64 46 21
-8.95152 4.37512 -15.8433 48 48 36
16.3733 -31.2384 -18.5139 75 50 24
-33.6349 -20.5849 14.2216 59 49 21
28.5861 -7.01693 -8.82967 141 153 103
1.65964 24.1223 3.58652 60 39 17
-58.4012 -19.8981 -3.66223 61 43 21
-33.5036 -3.81805 -12.6481 139 140 92
65.7147 24.8095 -1.97311 65 47 24
70.8172 4.72333 2.50984 59 30 32
42.8651 18.6819 -9.53433 162 113 47
19.2009 -2.13019 13.6321 52 37 18
43.655 2.44357 -9.94873 159 162 115
35.4058 25.5389 1.57376 61 39 19
59.2982 19.271 -13.0225 126 94 49
77.2357 11.5424 -3.09627 59 51 28
7.03444 6.47721 14.5371 23 21 15
66.5642 1.66536 6.65558 54 37 18
-39.8151 -28.2572 10.9765 71 56 38
-56.805 -30.0914 -5.87494 39 32 21
58.5208 9.04896 -13.5292 121 126 92
38.5142 4.20419 9.56465 61 57 30
-8.55414 25.2674 -1.99987 80 53 24
-25.2404 8.21098 -12.8693 124 111 60
15.6886 -1.32573 11.5657 36 33 20
21.9482 -18.7232 6.88896 174 167 96
-33.7035 14.955 -13.5039 62 47 38
23.1438 -20.6324 7.12486 155 145 72
-36.8124 -32.8531 15.2926 26 23 15
56.8166 17.5723 -14.3264 40 37 34
11.182 18.5412 -9.63499 79 65 40
2.06937 19.6999 -10.4248 96 76 46
26.7783 21.9509 11.8957 62 40 19
67.2039 23.2363 -1.95122 68 46 24
-28.9383 -8.92023 14.9292 50 37 20
50.2126 1.29181 10.2073 68 71 50
65.3262 0.991585 -4.09534 160 165 111
22.4787 -4.67641 -15.3791 117 122 93
11.2613 21.013 9.02478 59 38 16
-41.4915 9.7252 -12.3967 47 38 28
17.2961 -4.31852 12.2854 55 42 20
23.1229 16.7154 13.0761 57 39 18
11.423 -4.14186 11.4824 66 59 27
56.7868 14.7409 -14.8152 134 135 108
17.8832 6.17064 12.8353 31 27 20
58.3774 20.4461 -13.1945 92 75 46
-37.7769 -1.91354 -13.0943 128 96 49
-27.0625 20.327 -10.415 131 87 40
59.7974 12.4701 -13.9933 110 90 50
66.9718 0.614765 6.38194 59 42 19
-38.9921 17.4606 -10.0757 99 71 37
3.52243 22.1365 -7.45552 118 80 37
-42.1766 18.6009 9.25531 59 38 16
30.2224 -8.44694 8.56706 107 102 58
5.4771 -6.96244 11.8535 63 54 24
45.7937 27.1657 3.45378 65 41 21
64.0287 -0.673191 3.09641 62 63 41
26.1938 25.0148 -8.26048 85 57 27
1.57716 21.1122 -9.11368 55 44 34
11.7538 -1.49058 12.2599 63 54 25
1.94812 25.1896 -1.31884 85 58 28
-36.9605 4.47598 -13.884 133 116 61
-13.3376 22.1554 10.6046 60 39 18
-20.5342 20.1678 -11.042 85 65 39
7.22923 -10.4641 10.806 60 47 23
7.05133 24.9854 0.226833 54 36 18
10.9128 23.2009 5.54526 59 38 17
50.9347 27.2494 7.86112 102 69 34
49.5595 22.7188 -13.1083 60 38 19
28.1277 12.8028 14.1228 58 40 19
39.4665 5.00789 9.67822 65 59 33
43.3324 22.5779 -8.20898 154 100 45
14.8742 -2.10958 11.3601 64 61 35
8.34769 22.4311 -5.91784 29 26 21
70.2038 3.86288 2.05884 58 32 33
-21.9729 7.8833 -12.5689 150 111 47
45.0234 28.8327 -0.629936 53 35 17
69.3382 22.7832 1.97198 44 33 20
-51.2813 -2.17516 -3.98575 31 31 25
0.673279 -3.57274 -14.4109 142 141 88
-5.86957 13.3255 -14.2384 138 103 50
27.2821 24.5198 9.80557 58 39 21
20.3144 -3.96886 13.6272 55 45 20
-69.5237 -23.8017 -2.64725 50 45 22
22.3558 -5.66504 -15.2564 61 61 51
19.3948 -3.878 13.4962 51 38 18
50.9959 26.7986 11.5652 56 39 21
-2.58264 8.84352 15.3069 20 18 14
-3.30525 23.3997 -7.40096 54 43 29
6.10033 -7.52671 11.6542 63 53 23
42.0553 17.3415 -9.88927 161 118 51
3.87328 24.8065 -1.55418 110 77 41
10.8822 4.30376 13.8651 56 50 27
69.2275 5.99368 0.493057 72 44 47
-41.1713 -1.85656 13.3062 53 44 21
11.5443 -0.984402 12.5327 65 60 28
20.851 15.7026 -11.6303 142 101 45
17.8302 18.7993 10.7647 63 41 19
19.7435 0.271976 13.4203 52 37 17
57.7506 15.9909 -14.1415 146 136 86
9.50775 -15.3895 -16.0138 144 102 43
21.946 23.6597 8.67665 62 41 19
17.2804 -30.9719 -20.2127 68 45 22
39.8624 26.6467 -2.66914 96 65 32
-22.8366 12.2329 -13.2123 99 88 53
-42.9745 -3.30345 -10.9263 80 60 38
57.4195 15.1645 -14.3373 110 109 71
-25.9073 8.17493 -13.0639 90 83 52
34.7933 23.989 -5.79873 88 58 30
-0.213989 25.4618 -1.38269 109 74 36
-25.5201 -2.25291 13.7757 48 44 24
-34.0628 -9.40384 -9.56256 64 65 43
-59.6483 -3.19831 -1.88715 119 77 38
-8.87517 24.5514 -3.51694 81 58 30
-53.9179 -7.25677 -4.42034 36 36 31
66.3674 24.3916 -0.800156 91 60 29
60.5903 11.7008 -13.6819 45 46 35
21.0156 10.7996 12.99 53 35 17
48.1681 19.9798 -10.5844 141 95 46
-34.068 -0.355358 -13.5631 90 84 54
-36.7857 -33.7338 15.1471 27 23 16
49.2946 21.9066 -10.512 91 55 24
21.6806 5.95 13.7782 54 39 20
29.2416 7.26099 13.8647 39 32 20
18.4486 -2.94172 13.3498 39 31 16
36.6023 17.9573 -10.4519 146 112 47
49.7122 20.7205 13.5304 51 35 19
20.1366 -3.05677 13.7984 51 39 18
-45.7976 -5.00333 3.67744 69 59 26
-61.3007 -15.746 -0.333755 52 46 21
-28.4005 4.66294 -13.3629 51 50 45
-41.5466 -14.1189 10.7009 27 28 23
-10.0312 14.1135 -14.2348 137 95 43
-3.50957 -7.3 -13.6517 144 136 83
-63.5196 -8.85027 -2.58316 43 42 33
21.1755 24.3097 6.54984 66 42 20
-1.18042 -2.19737 -14.8562 145 130 79
14.7449 -3.4631 10.9303 63 57 29
64.2561 12.7411 -12.686 133 124 74
49.2303 21.5736 -12.8482 56 35 17
-20.5817 5.23686 -12.2887 98 85 48
-22.2545 14.6823 14.1438 47 35 19
23.2484 22.4196 10.5716 63 39 19
-48.9479 -13.227 -10.0882 125 82 38
70.8536 8.76299 -5.64423 163 159 116
-45.6857 3.74063 10.3549 51 41 25
-65.7186 -20.8936 -7.08018 126 107 55
-44.847 -8.54218 -2.57079 63 53 24
70.1541 20.4798 -0.533508 90 62 30
19.6411 -2.58123 13.7503 51 37 18
68.9441 21.3006 -2.29147 52 38 18
74.2766 14.2395 -5.65781 148 108 48
4.58366 4.0457 14.8476 24 23 16
32.7164 4.67613 -12.6049 138 124 61
3.67368 14.4729 13.7029 56 39 20
-34.9131 -22.6107 14.3389 60 44 19
-18.7548 14.8565 -13.15 95 69 41
24.8723 -4.46825 -14.4228 82 86 63
7.24306 -0.117035 13.8627 56 50 28
45.1142 15.8905 -10.8316 137 97 49
17.9045 -9.32172 -14.3441 71 67 44
-36.1908 1.33135 15.8523 52 43 21
-40.8331 -5.99733 11.8289 54 45 21
-65.3421 -27.647 -8.42554 113 82 37
18.8864 -3.3939 13.4653 44 33 17
-4.05878 -0.936104 -15.1489 146 145 91
39.1962 -2.75546 -4.73988 84 91 67
50.1964 24.4957 -9.48268 132 84 38
55.7223 17.9461 -14.9097 118 99 50
19.4915 24.4326 0.838779 67 45 23
15.9233 -31.5175 -19.2036 66 44 19
35.6202 22.5845 7.49513 52 35 18
18.4814 -30.6245 -16.7415 44 35 24
63.5082 22.543 -9.58556 136 91 41
7.90308 -10.6475 10.5289 62 51 28
-40.0042 8.89475 -13.4128 100 74 35
-37.23 23.6455 3.78896 68 44 20
56.7026 11.8957 -15.2328 121 114 69
25.3991 -11.6037 13.6364 60 41 19
17.0214 24.5321 -1.42405 71 47 26
-48.4257 -6.58882 -8.77363 147 108 46
19.0714 -4.15732 -15.4454 124 118 69
-51.6527 -17.0118 -10.1055 140 101 47
18.2054 1.9643 12.6805 57 47 25
-47.4228 9.9435 7.18846 41 37 21
28.629 18.5757 -13.2123 140 102 45
1.17024 -4.05474 -14.1648 144 142 85
-0.92926 20.0452 -10.3162 127 94 45
-20.5135 11.9099 13.7258 37 33 20
3.88951 8.86964 14.9892 58 43 18
17.4727 22.3569 7.70672 57 39 18
10.37 18.9917 -9.5663 134 94 41
43.3054 21.29 -8.80234 164 119 50
23.4907 -12.1473 -12.353 62 63 41
51.506 26.9426 7.38569 99 66 31
-12.5826 25.3613 3.12384 62 39 18
62.8022 10.9396 12.8236 28 25 16
-11.2207 -0.2171 -14.1232 151 133 76
-13.2892 22.8581 9.92911 66 45 21
-27.8174 21.3907 -9.18427 113 74 35
53.6743 22.6949 -13.2513 180 167 93
20.3976 15.1899 12.1873 34 27 16
11.9379 21.3255 8.71992 59 37 17
68.2113 4.61669 -3.57469 93 50 45
63.1228 2.98346 6.77905 68 64 37
-30.8406 -5.67056 -8.30826 89 94 63
34.9112 22.6462 7.69585 27 19 15
-79.9737 -15.8645 -0.311321 20 20 19
56.1426 17.5552 -14.7707 47 46 34
17.1121 -0.0831833 12.267 55 47 25
-46.7859 -10.5093 -10.2881 114 81 49
4.57977 -7.67636 11.806 63 53 23
17.7796 1.58205 12.6045 57 47 25
48.8402 20.3591 -11.6194 82 54 22
67.1663 5.86927 -4.92477 129 89 79
46.0479 26.8236 4.03673 61 39 18
68.1164 20.7168 -8.5609 75 65 42
27.3409 -26.0608 7.12312 161 132 54
17.2251 -1.78856 12.22 44 40 23
50.2357 23.3538 -10.8813 77 50 27
50.6848 27.8986 8.57243 98 63 33
33.3529 24.6716 -3.24373 70 46 23
37.7417 -34.3678 15.235 45 32 16
21.7245 25.3335 -1.92599 54 36 20
37.8843 -0.557383 -9.42316 138 147 108
-9.27448 5.26666 -15.8297 48 46 40
-16.3384 15.2713 -13.7209 142 99 44
10.0843 -3.82961 11.9945 61 51 23
-3.12698 12.9618 14.6513 38 30 17
-53.0706 -3.31402 2.9879 53 50 31
10.1001 6.4682 14.1851 62 46 21
-64.9457 -21.0805 -7.87379 74 61 32
-55.6136 -8.05154 1.95763 62 55 30
-39.1215 -23.6411 15.2335 45 31 16
-35.999 -4.05448 -12.9832 131 115 63
54.3759 21.5204 -14.0511 134 99 48
-11.4276 5.27466 13.5399 26 24 19
18.9152 -0.505135 13.2365 57 39 18
70.5749 19.7199 -1.12253 82 54 27
12.3492 21.9127 -6.73059 87 64 33
27.9502 25.4469 -5.80153 64 41 19
-19.9228 22.3576 10.8141 46 31 17
49.0349 28.8582 2.49481 68 45 20
67.6826 4.62001 -4.20665 118 78 70
39.6014 12.0353 10.1496 59 40 19
70.0529 7.82531 -5.09457 107 81 72
39.9554 25.9767 -3.71951 97 65 33
-79.6499 -19.7932 -4.83339 135 86 39
-14.1763 24.9407 4.95142 62 40 19
-36.8185 2.83608 -13.6521 67 59 37
-14.9669 13.3075 -14.4073 126 95 46
68.7798 21.7396 -3.46835 36 29 19
-63.2099 -31.4139 -10.2696 127 86 44
-49.9208 -0.672226 -1.84563 77 80 65
53.3931 26.4086 -14.9522 124 122 81
-27.3396 8.36422 15.6989 20 19 16
10.5076 -14.166 -16.1019 154 102 45
-33.5084 24.348 0.052948 67 45 23
-35.5589 0.147446 -13.6947 46 41 38
32.6868 21.6899 9.1591 20 16 15
41.5703 27.5095 -0.639114 57 39 21
69.7223 12.0776 -8.29887 106 106 81
-30.7781 -27.0405 12.6016 35 33 23
-63.5364 -22.6317 -4.26955 36 26 16
-4.6165 7.87223 15.0799 52 40 18
-6.43879 24.6796 4.46529 62 39 19
-37.508 -5.10537 12.9267 25 25 18
36.2635 17.0573 -10.7191 152 106 45
70.6226 4.25054 2.84624 52 27 26
1.59789 -1.91368 -14.5133 132 133 91
11.3656 18.5145 11.0547 63 44 22
17.8313 -1.32615 12.7267 54 41 23
-2.70177 -7.72023 -13.6454 135 115 58
3.5114 23.5612 -4.17945 38 35 27
27.4653 -7.15225 -9.0282 123 126 84
-13.2552 2.52206 12.2409 52 43 24
21.6386 6.77863 13.7743 56 40 19
17.0753 2.73584 -13.7921 124 103 57
23.8599 24.0205 -8.14906 34 30 25
76.4554 9.34612 3.42384 66 61 39
-42.1 -5.95569 11.2775 48 38 20
22.3552 11.6339 -13.7475 132 94 43
-21.6816 -4.44806 10.6613 66 63 32
19.7738 14.4798 -11.2265 148 108 63
22.2553 -8.17778 -14.4928 125 121 68
67.8536 22.4827 -2.85023 49 34 18
15.3605 -0.232285 -13.7113 143 97 43
52.3898 12.0387 -16.4173 120 104 63
36.2714 -29.718 6.69493 73 55 21
58.3508 11.9491 -14.0807 126 117 77
-28.91 5.2031 -13.6733 70 63 38
22.3189 3.39246 13.797 58 42 20
43.4058 27.8344 0.203957 64 40 20
57.1249 -0.309971 -1.88005 84 90 66
-24.281 7.09901 14.8606 61 47 24
-34.1914 -8.11786 -10.855 115 117 78
23.9704 17.4764 13.2174 63 41 18
24.2556 7.01963 14.2948 47 36 17
-2.75864 -4.52304 -14.2433 151 147 91
68.7778 3.37637 -2.9243 106 70 56
-39.8146 -6.48401 12.002 57 51 25
25.0749 -28.5403 12.6121 55 39 16
67.9432 4.20162 -3.86189 104 57 49
68.785 6.41791 -4.52975 115 93 79
18.0848 -2.5237 13.1403 40 31 18
-4.80742 2.16275 -15.8409 143 130 76
-49.6816 0.84108 -2.78202 36 37 30
24.258 25.0753 -5.82772 55 43 28
-9.86208 -6.20212 10.7669 68 62 35
-64.196 -27.5742 -9.11588 117 84 38
-5.38645 -7.89211 11.5089 60 54 26
-23.7191 21.9381 -8.83737 46 43 28
-32.5821 5.52474 -14.4758 55 51 39
22.4886 10.377 13.7121 18 16 14
-30.2953 2.8206 -13.4127 43 44 38
-34.7872 1.30419 -13.7131 127 104 54
-59.4742 -31.2154 -6.07355 54 38 18
17.8373 0.735973 12.5851 57 48 23
6.3801 -14.1456 -13.9684 145 124 63
8.0066 1.4521 14.0487 64 52 24
25.5777 -24.7875 14.4172 58 44 20
25.3527 -29.6229 12.3338 53 40 18
-31.8557 10.0951 -14.8877 46 44 37
39.1674 20.7001 -9.38806 140 99 44
-21.2704 4.38305 12.6192 70 65 40
66.7863 23.6504 -2.75932 49 34 19
54.8311 25.5994 -13.4885 146 143 94
8.07721 -21.727 -13.0237 56 43 20
19.796 1.07428 13.293 52 37 19
68.7751 4.62399 -3.00259 93 50 46
-31.1888 -5.59668 -9.4566 91 94 63
-82.6785 -20.8849 0.74794 50 47 26
-22.2861 24.9262 -1.29469 88 56 27
58.9729 21.2024 11.2362 49 34 19
59.0025 22.863 10.4337 60 39 18
-7.7962 11.8899 14.554 59 42 18
-20.9103 7.96989 -12.6815 147 111 47
36.1393 13.8001 11.4485 32 24 16
-65.1072 -35.8621 -5.64275 22 20 15
68.1961 22.5372 -4.04863 45 34 19
70.7337 5.19424 1.87051 60 52 43
-42.8717 -11.0407 -3.16869 66 59 28
75.8958 9.54349 -4.33231 85 83 57
22.4397 24.1466 -6.78858 85 57 28
68.2144 3.78517 -3.52512 103 61 53
-7.96364 17.7785 -12.5292 81 64 40
-19.0644 -4.76309 9.52679 64 56 35
6.14311 -10.6634 10.9981 60 48 27
-42.6965 -9.05654 9.37427 59 56 29
18.8388 -1.71369 13.4173 55 38 19
20.5387 3.93636 13.4409 28 24 16
58.8076 22.8436 -11.9167 119 86 36
67.8397 22.4579 -2.1353 58 42 21
-19.731 23.8569 -4.78675 54 40 23
9.43645 -3.68312 12.2245 65 58 28
62.2806 17.7911 -12.2812 51 47 36
77.5427 12.74 -2.97746 76 72 49
13.4344 14.2988 -10.3555 93 69 39
60.2686 22.4711 -11.1862 137 104 44
61.1877 1.72418 -3.95848 159 172 129
-6.33261 15.8216 -13.1874 142 98 47
-24.3639 -35.22 14.3555 63 46 21
-30.7158 23.5553 5.78502 62 41 18
21.9584 24.917 3.81454 61 39 17
70.2493 19.4055 -3.41043 73 55 25
22.3202 -16.515 6.43327 179 178 112
-9.70532 2.86125 -15.4844 101 97 62
-21.3878 12.0323 13.9007 62 54 29
6.53865 13.471 -12.9554 45 44 41
70.782 20.461 0.637466 77 55 28
47.511 29.5623 -1.74881 54 41 24
-18.9756 13.5531 -13.27 78 60 37
-44.1398 11.3732 10.9657 55 37 17
-24.0144 24.5043 5.41687 70 47 25
-24.5145 8.25469 -12.7189 132 119 57
-41.8358 22.3153 5.07332 68 43 20
-79.0269 -15.9859 -2.8018 51 40 26
4.92479 -9.94544 11.3661 59 47 21
-1.54529 -0.656258 -15.2039 144 135 80
51.2014 5.49451 -14.8191 156 157 114
26.5816 25.8028 4.88865 56 35 18
-32.5724 -15.1414 14.8625 55 39 17
6.26633 23.7467 4.16824 59 38 17
63.3164 20.9715 -10.5585 148 109 48
-52.9389 -7.84547 -7.53884 66 64 53
-61.0995 -32.9662 -4.36765 47 31 16
-30.7703 23.9874 3.89631 62 39 19
-37.9176 21.5446 9.17032 52 37 20
49.0964 21.4284 -10.949 85 54 25
-60.0016 -21.3391 -10.7343 121 81 37
63.2202 9.75988 -11.8144 135 138 88
67.1979 23.2794 -3.33698 32 24 16
-42.6973 -5.58719 10.948 44 37 23
49.6502 23.3711 -13.6278 61 39 20
20.7377 17.5821 12.2252 29 23 15
-54.6498 12.6309 2.1918 65 54 42
-50.9644 -6.44637 -8.11152 151 103 51
-12.5295 24.8926 -2.82597 90 59 30
57.7613 12.3504 -14.6431 50 49 34
-26.0097 24.9305 3.04211 62 40 19
-44.7096 -15.5533 -4.37672 64 60 32
-23.9991 23.7014 -3.82604 46 31 20
27.9664 -26.4621 7.18352 164 137 63
-83.5763 -20.7471 0.586899 51 46 24
41.7525 10.3161 -10.6654 94 88 55
57.9173 18.0168 -13.7955 81 71 40
-52.6908 -15.905 -9.60268 145 96 48
-57.7941 3.51848 0.534416 107 73 37
20.873 -6.36216 -15.158 122 122 76
38.8139 26.9705 -1.10822 52 34 18
34.2548 -6.64579 -5.31989 93 96 63
15.9464 -16.4492 11.4164 52 48 27
-5.00044 14.927 14.116 25 23 16
-25.0533 16.4615 -12.8693 43 42 36
43.8176 28.2819 -0.281437 53 35 17
48.6506 20.4066 -11.0691 96 63 28
16.1929 20.3553 9.5663 24 20 16
-21.5707 22.1278 10.8736 22 18 14
-1.66443 -7.56207 -13.827 141 112 55
-31.9392 18.7967 -10.9138 78 56 34
41.688 -1.57167 -4.19853 82 87 63
18.0914 17.9656 -9.31503 61 47 34
73.8203 14.5996 -5.68134 144 100 43
-34.8722 -18.2407 14.6008 54 37 18
-25.2412 12.0997 -13.4771 133 110 52
35.0852 21.8549 8.19154 66 45 24
-32.0072 -6.18434 -10.2762 91 96 64
63.8714 -0.875248 1.98224 64 64 42
17.9238 -21.939 -13.2088 54 50 27
49.6131 28.4361 10.5038 56 39 21
11.5502 -17.1132 -17.3231 152 103 49
1.52294 21.3648 9.77264 60 41 19
11.5167 19.0317 -9.28357 58 47 35
35.2757 -6.96647 -1.57962 79 84 56
56.3712 21.1942 -13.9253 59 50 33
25.4914 21.2722 12.2859 22 19 15
25.5211 23.5135 10.8105 29 22 17
-20.1811 19.4025 12.8498 57 38 20
-45.4797 5.65475 10.5489 50 36 19
-1.5311 20.7209 11.255 28 22 15
26.1286 22.7368 11.3775 44 33 20
35.4768 0.135372 9.59061 67 56 26
-30.9408 7.92364 -14.8977 40 40 33
28.0695 -8.13531 13.334 58 47 21
60.3256 14.5049 -13.4728 76 75 70
-29.4022 9.68581 -14.5964 130 105 51
-54.5147 -13.8755 -8.25711 143 94 42
23.0868 -4.60336 -15.3119 141 152 111
15.4162 1.82554 12.4293 48 43 23
69.6354 2.66697 0.834564 52 31 25
-35.1885 20.7779 -8.41443 99 68 31
-84.8569 -16.0918 -2.92111 129 87 41
-36.3173 16.8528 14.1855 59 40 18
66.6533 11.2377 -11.265 131 139 102
18.5031 4.03614 12.813 27 23 15
-13.164 25.761 2.28771 63 39 19
-25.2824 -5.12015 13.1377 62 49 25
26.5495 21.632 -11.8266 155 101 48
15.6895 -16.9454 11.0941 58 56 32
-49.994 1.71664 -1.47028 76 80 68
46.7524 18.1454 10.6092 64 39 19
-40.6107 19.5359 -6.32027 73 48 24
52.7878 25.7693 10.4302 66 44 19
3.64188 24.3599 2.49457 58 39 18
68.2314 22.0898 -2.68715 50 35 19
-47.1576 3.56203 7.39174 54 50 29
-27.5935 -30.1464 9.6945 98 70 32
8.08786 18.914 -10.1628 132 94 41
-36.3916 8.06997 -14.5225 114 89 47
50.65 29.3392 11.6471 52 34 17
-41.6546 10.7718 -11.9692 34 31 27
-54.2176 -9.3676 -7.29946 68 65 56
4.80678 24.8296 0.675079 57 37 16
-55.0512 -9.8882 -6.98531 67 67 56
23.623 0.234222 -15.8141 68 55 36
-41.9272 -11.3782 -3.7433 64 63 35
21.4249 24.0695 -5.90469 84 54 26
60.9134 12.1186 -13.4719 45 45 36
-12.5227 24.1479 -5.68925 52 37 18
70.4492 11.2647 -7.27158 129 135 99
41.4744 10.5625 10.0539 54 38 16
45.9586 29.1467 -1.46598 52 41 30
-66.7868 -33.0028 -7.01134 22 19 14
6.83005 4.12854 -13.6758 132 122 67
1.41117 7.6529 15.3635 19 18 15
-2.02689 -2.29685 -14.8264 140 125 71
-68.339 -14.8998 -4.88696 71 69 60
32.3088 -9.39865 -1.02846 78 82 53
69.3014 19.5747 -8.17252 103 101 66
13.23 -22.5929 -17.291 139 132 75
10.9208 -0.859215 12.7228 66 58 25
-24.9575 25.2272 2.38128 69 41 19
20.1791 2.29755 13.3683 43 34 22
22.7684 -25.3433 12.5966 55 43 19
42.7692 16.7707 -9.9676 134 97 42
18.4901 10.4214 -12.3994 104 77 46
64.1749 17.4269 11.9294 55 37 18
77.3006 12.481 0.299255 26 25 19
-37.74 -3.36461 13.7189 51 46 22
7.45882 -23.592 -14.6841 54 42 20
2.6066 24.6804 -2.30032 95 62 28
4.27662 -6.27378 12.2139 65 62 34
-30.1624 24.509 1.62036 67 41 18
-24.7442 15.3945 -13.1128 44 42 35
6.22493 -2.02576 -13.1599 144 136 75
55.7521 22.3638 -13.2177 139 107 53
-62.6456 -7.63396 -2.57539 70 57 41
0.185455 13.6788 -13.9192 117 92 47
-46.4862 11.6157 -2.31328 68 56 32
7.08679 0.757423 14.0499 56 50 27
-32.648 4.38836 -14.4507 59 60 43
-30.3277 -4.93235 -9.37216 106 110 74
-26.3673 23.1461 -4.90405 33 24 17
-29.5378 12.9971 -14.435 123 92 49
49.2767 29.8419 0.678207 59 38 18
67.41 4.2024 -4.48251 115 68 64
18.8798 0.502609 -14.7615 90 68 41
21.322 4.72743 13.6767 47 35 19
-10.8036 23.4856 -6.75102 59 44 27
58.3672 29.1891 -3.0146 43 34 24
-49.2273 3.54979 -6.48237 62 61 41
30.0797 3.1275 -13.7997 117 111 65
56.8814 13.9351 -14.8996 45 42 36
-40.1817 -1.93804 13.5581 60 52 29
7.31822 23.67 4.27834 60 39 19
11.8 -0.125607 12.8082 60 53 27
45.2809 19.7583 -9.46176 161 105 50
59.6933 16.8876 -13.4158 147 136 85
65.3973 24.1468 -7.62532 104 70 32
-46.3475 -6.01422 -9.74098 109 81 42
18.066 -4.80483 -15.1716 128 124 71
-6.08423 17.4168 -12.5099 142 99 39
-17.6621 23.3608 -6.5522 44 38 27
-47.4728 3.9763 -8.45509 117 74 34
41.4688 14.6989 -10.4691 100 75 43
-47.5983 4.80559 -8.02163 117 76 35
45.1614 8.01466 -11.1677 160 136 77
56.3295 23.1827 -12.6803 148 108 49
16.7675 -29.9241 -17.1591 55 51 43
48.1041 10.3523 -14.031 115 81 34
23.541 17.8935 13.0905 63 41 20
19.0665 -31.2553 -17.9198 57 37 19
21.5861 -17.1648 6.49814 170 162 90
23.7526 -4.51666 -15.2928 133 145 108
71.019 20.4275 1.71307 45 33 18
45.8661 28.7792 0.64362 68 44 20
71.0254 10.4723 -6.69714 156 155 109
36.2268 -5.65908 -3.38493 81 86 64
26.1951 7.6652 14.3809 56 42 18
-84.2113 -17.8968 -3.5032 141 96 42
-56.6674 8.99812 3.50262 54 35 17
25.412 -22.2612 6.92592 163 145 76
-20.1307 18.779 -11.8337 75 62 41
-40.9552 -12.5937 -4.51013 74 73 41
-3.00285 -5.61825 -14.0529 154 158 100
-31.8166 -4.93103 -11.089 134 141 97
-0.0710907 3.1313 -15.7309 69 67 53
13.2618 -21.9668 -10.9829 66 55 21
57.7363 20.0295 -13.6537 81 69 43
-31.8766 -19.5402 13.8249 65 56 25
23.3327 7.09099 14.1693 44 34 18
61.507 19.7426 -12.0111 138 100 42
-29.3285 -4.95496 -7.99615 88 89 60
-1.98392 17.5274 -12.0978 140 99 42
-10.4924 -2.22462 11.8869 61 51 22
9.5563 -13.266 -15.7449 147 110 47
-32.6103 -7.45205 -9.86765 72 73 49
11.9512 7.35881 -10.9544 150 134 69
10.56 -32.3968 -21.1968 141 95 47
-5.74284 16.4505 13.887 38 28 17
62.2809 15.8136 -12.8297 128 104 51
11.8858 24.2501 -2.14583 75 49 24
-64.2365 -20.3349 -8.22012 118 101 47
-8.6845 10.119 14.6449 42 34 19
7.47 -4.62846 12.3361 66 62 35
-6.78012 25.7328 1.77953 60 39 18
61.5939 12.145 -13.0553 95 93 64
-24.0631 18.9551 13.2065 48 33 18
-22.8267 8.37094 -12.6073 141 116 53
42.3662 23.7837 6.23746 24 19 15
32.7769 18.9486 10.5428 20 17 15
5.85045 16.7879 12.3798 42 28 16
25.822 3.02282 13.9348 30 27 16
12.3999 20.5973 9.46332 61 39 18
6.30965 -2.99026 13.2799 64 62 35
-10.7582 24.158 7.6685 61 39 18
63.5125 7.42539 -8.10846 76 76 57
2.4966 23.2474 6.70464 61 39 19
10.5419 3.10005 13.7363 61 51 28
69.5996 20.507 -1.81898 64 45 23
7.30243 3.1515 -13.4247 110 103 62
76.32 17.591 0.0106964 53 39 23
12.3713 -18.6476 -17.8434 137 102 46
36.4 24.5502 -5.48229 86 57 27
-28.9081 22.1154 10.5909 65 41 19
60.2013 15.2986 -13.3534 76 74 67
15.6207 -34.1585 -13.5731 49 34 17
-33.8431 21.2716 -8.13898 111 72 36
38.6534 23.4091 -7.37236 36 32 27
-59.2502 0.683777 -0.144932 88 63 40
9.04156 -22.513 -17.964 131 84 36
-31.0482 -4.92701 -10.2473 113 116 81
27.7412 -3.99872 14.0558 58 45 24
-58.7288 -13.8807 -0.163361 55 48 24
49.8308 29.823 -2.07985 69 46 25
53.7535 29.4669 8.99004 104 65 34
21.8668 8.84732 13.9749 50 38 15
-20.6577 -4.32626 10.2491 63 56 29
-13.6536 -3.7015 10.5618 59 46 22
-31.8621 23.769 4.11667 63 40 19
-39.9098 -1.53511 13.8554 61 55 30
0.980095 5.76573 15.4082 54 45 23
7.27495 20.2857 10.1906 62 40 19
-31.8067 4.45178 -14.362 63 60 42
-11.1309 12.5065 -14.7194 143 102 44
-29.031 17.1932 14.8952 18 17 15
-8.65199 14.6993 -13.9923 81 59 35
-47.3413 8.37234 -2.49277 47 40 23
-82.6465 -12.0347 -1.21472 105 79 37
57.3132 17.1929 -14.285 58 55 38
11.6815 -3.26818 11.7643 64 60 30
58.1182 22.8314 -12.3342 99 71 37
39.6935 -2.86126 -3.23766 79 85 59
69.909 -0.891953 2.86696 65 40 25
-3.77786 -5.18742 -14.0828 163 162 107
49.1415 3.1854 12.375 69 70 49
-47.7459 5.66762 -7.59864 111 74 35
4.53191 -5.40641 12.5081 65 62 33
19.656 16.5713 -10.6166 125 93 48
-31.08 -13.0332 15.1366 40 31 18
20.2928 24.4942 -3.82675 73 46 25
-45.9125 -8.44396 -2.8246 60 45 18
-66.2925 -34.7439 -6.56114 20 17 14
-59.1418 -15.0388 -8.21314 152 126 94
-36.4281 9.20044 -14.47 94 77 49
66.4666 10.3961 -10.9638 111 118 87
19.3561 3.57233 13.0438 51 39 20
-10.8004 24.0142 -5.82996 77 56 27
44.0596 15.8936 -10.401 145 98 41
18.9247 23.8015 3.72527 60 41 20
29.5689 -28.8038 7.6882 169 137 59
15.8376 6.62517 -12.6919 165 123 78
-35.2379 -0.435116 15.1498 25 23 16
-51.7934 -4.18506 -7.2244 69 73 59
-26.8555 -31.6306 14.5047 46 32 16
29.2579 25.5904 -0.66333 58 36 18
7.19669 -5.48825 12.0719 65 62 32
74.1303 13.4688 -6.06758 150 106 49
20.464 5.18974 13.4515 52 40 22
15.2029 24.1333 1.36894 59 38 18
34.4555 -28.9991 8.82266 125 101 44
66.781 -0.979603 5.48958 71 70 47
-34.3777 -5.05976 13.5416 53 48 25
-28.278 13.7467 15.5348 43 34 20
32.1231 25.1073 0.941929 74 48 25
-49.4072 -6.14912 -8.52193 168 118 54
22.5242 11.1732 13.6103 23 19 14
-10.0607 24.0071 -5.68409 59 42 25
58.7153 19.5847 12.2569 20 16 12
13.3153 -29.6838 -13.5315 62 47 19
65.3421 24.5238 -6.89272 76 50 25
52.4621 -1.02993 2.20961 67 69 45
36.1423 21.8903 -8.73718 126 86 40
22.0913 19.0969 12.296 26 20 15
41.0495 -34.065 6.34644 112 90 37
3.51892 -7.47023 11.9765 68 62 35
-11.091 2.02568 12.9509 49 40 21
21.5105 3.44133 -14.805 54 49 36
23.8659 -13.5493 5.42921 165 170 109
24.8602 14.2281 -13.7849 154 110 48
-10.3179 16.0791 13.7489 23 19 15
-33.2677 -25.1133 12.977 60 41 19
-37.0789 20.0612 -7.9141 34 28 23
52.087 30.08 -0.938831 50 35 17
22.5691 -0.297436 -16.145 67 59 39
15.0512 1.42123 12.2783 32 29 17
-46.0379 20.5423 0.549538 105 68 33
61.9598 11.7566 -12.8626 112 114 76
6.21542 -5.75055 12.1217 66 61 30
-0.922104 23.4343 7.69715 31 24 15
-5.1244 19.2366 -11.6759 61 47 38
62.8598 15.0552 -12.9017 145 105 48
5.74722 7.06057 -14.0489 165 136 71
-10.6699 9.9096 14.4234 54 41 18
65.3179 14.3926 -12.242 55 50 37
-31.8289 -31.5227 14.7621 55 34 17
-5.24608 -7.00608 -13.5773 148 127 65
-61.1571 -22.6606 -10.4093 132 90 42
25.2417 -23.3645 7.13823 154 141 75
-47.4286 8.00163 -1.97597 51 43 26
0.0819244 15.5432 13.6618 35 30 16
62.5659 10.55 -12.2937 134 135 96
11.4445 -31.9985 -14.0066 59 42 17
-31.7647 5.58204 -14.3685 96 85 49
3.27861 4.42311 -15.2354 114 97 51
68.5056 8.12108 -5.61754 118 80 62
35.9556 24.6927 -4.44573 64 44 25
20.7347 -10.8475 -14.3478 118 120 83
-4.4229 18.4345 -12.0699 130 90 43
45.2063 25.2369 5.12444 65 44 22
21.5971 7.60563 13.7646 56 39 18
29.2009 -10.5778 8.31146 145 146 93
14.9492 24.8648 -0.532032 46 33 18
-13.0116 12.9072 -14.585 73 59 36
-37.187 9.47372 -14.2991 133 106 51
37.1823 23.9799 5.52823 55 37 17
-8.2456 20.1233 12.2766 63 42 20
6.01865 15.6857 12.867 52 37 18
76.4065 10.3313 1.21509 61 54 31
-48.4474 4.22221 -7.25933 86 64 34
64.0788 7.96508 -8.90727 79 78 62
24.2386 25.6888 3.89253 78 51 29
-57.3707 -34.4649 -13.0014 144 107 62
22.4341 -20.2411 7.14577 163 150 79
6.05013 1.03511 -13.6618 148 135 75
18.0131 -16.1904 -14.4149 154 120 57
24.3286 25.5522 -4.34605 71 47 22
42.4626 1.33597 -9.23219 147 151 100
7.22418 -1.88567 13.2792 55 48 26
62.8365 11.8202 -12.7152 133 127 67
50.1358 28.714 9.61988 86 65 43
-20.2398 19.979 12.5773 50 35 18
-1.24879 14.2629 14.4111 49 34 19
67.6742 8.05251 -5.78896 109 76 64
4.31767 19.8231 -10.0339 119 78 35
12.0929 15.8647 12.1872 72 50 26
-7.33777 2.95381 -15.803 125 122 73
45.1098 28.7057 -0.053772 58 37 17
-49.3733 -2.0251 0.234268 44 38 25
-14.0133 24.1825 8.87831 27 21 14
3.46309 25.1987 -0.507664 65 43 22
-31.7446 -5.56071 -10.4572 108 114 78
-46.9001 7.651 -7.91042 106 68 33
22.9883 -16.4066 6.45134 173 173 100
62.5176 20.9447 -10.8016 125 93 44
7.806 2.34005 14.2987 61 49 22
35.8365 -30.033 11.7502 41 31 17
-85.3839 -16.9142 -2.58513 124 84 40
-44.5101 -9.81139 -2.66193 60 49 21
12.6527 19.0708 -8.99951 52 49 37
-44.1004 17.7607 8.05589 57 38 18
26.1433 25.2524 -7.67168 71 55 34
-38.039 -8.27182 12.0202 55 41 16
9.2237 -4.57628 11.8762 64 56 26
-42.1516 0.454807 13.3357 52 40 17
-5.07782 1.07965 -15.6356 142 119 63
-79.9564 -17.8251 -4.12959 78 58 38
29.2878 3.38785 13.4954 24 23 15
-53.7529 -5.24019 2.3773 55 52 32
41.7844 7.20929 -10.6187 93 90 66
27.458 -5.30427 13.8621 56 44 22
60.3702 19.7058 -12.4823 135 105 52
66.6339 17.9467 -10.2986 147 125 60
14.1636 23.5549 3.5509 63 42 22
64.3227 10.6869 -12.0165 140 145 100
50.1083 7.57247 15.1164 61 46 29
5.78042 -4.29419 12.717 64 56 28
3.83453 6.56678 15.1735 45 34 19
-7.76077 10.169 -15.3968 113 91 49
76.3178 16.1669 -2.71486 143 99 44
-45.1219 -3.11859 -9.96335 143 96 41
17.8049 -30.641 -17.4323 65 51 30
-20.5317 -0.673405 10.9491 63 54 25
19.9968 6.45161 13.3182 60 43 21
11.82 23.3176 -4.88264 105 70 31
-0.657761 20.9868 10.8392 57 40 21
69.1742 16.0213 -8.43643 138 111 49
58.2617 21.2453 -13.086 143 110 50
21.6495 22.2251 -9.019 104 70 36
-7.70932 -5.48224 11.6318 60 51 24
20.7283 8.87358 13.4997 57 37 17
59.2732 17.6785 -13.5608 151 127 68
-25.8601 23.9516 7.30289 29 22 15
23.9007 -11.0551 -12.7633 78 81 55
-37.7346 -7.49061 12.2873 55 44 19
10.7068 19.4834 -9.2081 143 103 50
68.2873 22.9912 -5.58203 55 38 19
67.0209 12.0603 -11.1561 134 142 93
-29.1254 24.5823 2.7786 62 40 17
22.7261 24.5015 -6.19695 76 51 25
-25.826 14.1376 15.1513 50 37 20
-63.4155 -17.9114 -1.10065 46 40 21
20.0458 5.62055 13.3124 51 39 18
32.0185 -9.30011 -2.11827 94 99 65
18.5651 -5.73302 -14.9718 127 114 54
-29.1388 -31.652 15.0411 43 28 15
-2.92226 -8.82001 -13.4724 158 140 79
-13.91 24.3859 8.23812 20 18 15
21.9676 23.7185 -7.31112 88 55 28
63.4661 10.6224 -12.1812 145 153 97
-21.2645 10.148 -13.061 96 79 42
-55.3677 -1.88807 4.17888 60 44 20
8.32835 23.3892 5.14067 57 38 17
67.0133 15.6107 -10.686 144 110 47
-32.0866 -1.77148 14.659 37 32 20
-63.3035 -27.7814 -4.00081 28 24 15
-16.5042 24.883 -2.9862 84 57 28
-31.1234 10.6911 -14.7135 128 96 45
-44.8834 2.79313 11.2599 46 35 17
19.6722 17.5857 11.6721 55 38 19
48.532 24.2291 -8.78012 142 93 43
13.9427 24.8704 0.334618 54 37 18
-27.8424 19.6073 13.1845 40 29 15
28.8842 20.282 12.5934 67 44 22
-45.3893 6.91121 10.4821 49 35 16
-61.5454 -23.2501 -3.74049 43 30 17
-54.0802 -19.2189 -10.3754 137 107 50
-12.5773 -3.3546 10.9616 59 49 23
15.7977 19.6603 10.1535 35 29 20
14.0158 1.15278 12.3673 17 16 16
19.5382 -32.2879 -19.6342 76 60 26
-47.0434 -17.2796 -4.73862 71 67 36
27.8689 0.160786 13.5656 46 35 20
16.7101 19.6081 10.2416 27 21 15
58.641 20.8511 -12.9048 120 94 49
4.45557 13.6685 13.9267 21 18 15
6.92821 -19.4182 -15.287 78 56 30
63.5402 15.8826 -12.5464 150 117 51
-28.0288 12.3545 15.7444 44 33 18
-41.6276 -14.3281 -5.18871 71 71 39
19.8142 -14.9423 -14.1151 128 119 69
37.4456 19.3206 -10.088 127 94 49
22.9967 25.3215 5.10347 60 38 20
57.8457 19.2283 -13.7533 101 94 68
-52.4176 -1.77052 3.58852 54 52 31
-56.7541 -32.6512 -11.3102 69 45 21
9.96745 12.1983 -11.8292 159 134 69
8.1693 16.6016 12.3783 48 36 20
1.8163 8.33255 -15.3024 83 71 41
