ply
format ascii 1.0
comment Created by Open3D
element vertex 1379
property double x
property double y
property double z
property uchar red
property uchar green
property uchar blue
end_header
31.8185 -29.9105 13.8708 60 38 17
-46.4465 -1.58819 5.95756 65 60 30
-6.65896 -0.187698 -15.3906 45 44 38
-81.9474 -22.9534 -0.447861 54 50 28
-5.04332 3.13255 -15.9386 137 109 47
-46.9584 13.8991 6.96643 60 42 18
30.1973 -3.2685 13.4288 29 25 16
12.6325 -0.0130157 12.5457 40 38 22
-36.0866 21.0583 -7.07411 40 33 26
-45.3114 -17.0247 -10.0357 143 137 75
9.19673 -1.67567 -11.5552 147 139 84
76.3475 17.4934 -0.708954 73 50 24
49.8751 5.32665 -14.5534 137 119 61
37.1757 -32.8756 15.0937 57 37 19
-31.0086 19.4337 -10.5451 128 87 40
-26.3596 -1.54891 14.2462 31 29 19
-72.6771 -17.6861 -2.25398 18 16 14
19.6805 -5.26241 13.2137 57 48 24
48.0334 29.6343 -1.80883 59 41 26
38.857 -31.0146 11.7789 55 37 19
77.0127 14.8214 3.92668 50 34 22
22.8154 25.1761 2.37864 62 40 19
-10.5967 20.6226 11.9751 33 24 15
-47.2323 -14.6769 -10.7956 133 93 43
32.7989 12.3123 13.5927 53 39 20
41.8827 1.49153 -9.43442 156 161 106
-48.0709 -14.6596 -10.6341 143 104 46
-30.841 2.55341 -13.5625 50 49 43
67.6631 18.8726 7.82664 54 48 27
21.4467 9.27315 13.8387 57 38 17
-47.7988 7.42543 6.7711 55 49 27
29.6158 -6.34899 13.4346 64 49 22
35.4094 16.8413 10.2261 54 38 22
34.1011 0.342148 -11.2693 40 41 37
-5.74553 20.7913 -10.3601 46 39 31
23.398 24.6834 -6.29486 58 43 25
-66.3576 -28.2777 -8.01854 59 56 45
2.53263 12.0343 -14.2235 136 117 75
-57.801 -35.1496 -3.11397 55 38 17
48.8314 14.6267 -13.68 126 90 36
29.3788 11.0525 -14.4138 133 112 49
-10.1523 8.17043 -15.566 65 55 41
-14.6269 20.8366 12.0195 61 43 20
32.136 -34.9207 13.212 57 39 20
-33.3489 -28.8472 14.1136 58 40 18
8.54552 9.90504 -12.4178 47 46 32
24.9761 20.1445 -12.2577 139 97 42
-40.578 12.1509 13.9052 34 26 16
25.2577 -21.2076 6.78845 171 158 84
53.3869 22.7143 12.6008 64 39 19
-66.1321 -13.1 -4.46321 66 56 42
7.57048 -5.26289 -12.1001 151 136 76
48.1076 5.80891 14.9117 49 39 25
-34.049 13.0449 16.0571 33 26 18
1.60965 -7.58705 -13.5108 145 131 80
-62.8289 -25.77 -3.74321 34 26 16
17.5921 -4.64976 12.6318 54 41 21
-15.3156 -1.34274 -12.0105 143 119 55
-27.1502 5.75864 -12.9846 124 123 74
51.6615 26.3121 11.1262 64 45 24
-25.4272 23.774 -2.85707 79 55 30
-2.93457 20.9348 11.1623 60 38 20
1.39571 13.9468 -13.7005 44 44 30
-12.3286 -1.48681 11.4991 57 46 20
71.8103 19.6489 1.3822 47 33 20
12.0135 -33.2822 -21.2187 122 82 41
55.4247 15.1094 -15.1826 106 87 50
-26.1018 4.55514 -12.0882 125 126 84
-40.0216 -15.2436 8.9119 95 91 67
-30.8856 -26.1061 10.3704 111 91 43
43.6138 16.8017 9.57684 61 39 17
-47.6656 -11.6218 -10.3335 129 89 42
-59.7526 -2.06837 3.13853 52 33 17
-31.2793 20.8614 -8.96687 77 53 29
21.8171 18.5919 12.4017 23 21 18
-13.2087 19.1303 12.9677 53 37 24
-59.7848 -25.7326 -10.5052 124 100 45
18.7231 -35.5801 -16.1712 69 57 25
-57.2438 1.34346 4.42973 51 36 16
29.8699 -10.3116 8.9584 93 89 50
40.986 10.7587 10.0605 59 42 21
7.89775 -26.3283 -14.7795 48 37 17
-64.0515 -19.7487 -2.19981 44 39 22
29.774 20.4954 12.2371 70 47 24
-34.6856 -5.27259 13.4521 57 50 25
15.0839 -3.29671 10.9807 61 54 26
24.2352 -7.67535 -13.4715 133 138 101
-60.9442 -11.4654 1.24619 52 38 17
55.3818 13.3422 -15.2257 133 109 51
-59.4777 -30.7146 -5.88055 54 39 17
-56.9008 -0.916275 -1.99512 155 103 46
-3.46454 8.66017 15.2129 41 32 19
26.829 15.6947 13.7705 49 33 17
-86.4287 -16.3729 -1.21019 68 55 26
-39.2824 -27.5422 14.2486 37 29 16
68.3678 10.8749 -9.72333 91 91 74
20.9249 -13.3779 13.1277 59 42 18
47.8905 5.61824 -11.9653 100 78 38
40.5708 27.3939 -1.97313 83 55 30
-66.0394 -33.3594 -8.94241 81 57 32
27.6671 -5.02777 -11.5462 108 114 84
-53.7909 -1.20996 4.21054 59 50 24
-10.7655 24.8465 -3.03378 97 67 32
23.7095 7.234 -14.7146 76 68 41
50.5851 28.9318 11.7595 55 34 17
25.1388 -7.14528 13.3984 16 17 15
-63.6479 -16.8013 -0.481903 50 43 21
-36.4337 -7.8242 -12.2101 146 140 85
-27.8322 17.0568 14.7128 54 39 19
-14.1992 23.8389 9.45258 46 32 18
-21.3716 23.4257 -5.78322 41 39 36
-57.1272 -13.8581 -8.10532 100 78 44
32.0364 2.93623 12.7885 63 55 28
-50.4386 -1.92653 -7.64072 75 62 43
-34.3022 -4.81828 13.5991 53 49 26
38.771 20.7663 -9.42937 142 98 45
-62.5273 -31.1903 -10.4545 132 93 48
26.6308 4.54356 -14.5925 132 116 59
-47.5299 7.91432 -1.09723 59 51 35
-81.3171 -17.1622 -3.88615 111 75 41
24.3181 20.1041 -12.1164 142 98 41
-40.3693 -20.7135 12.9277 57 37 17
-8.36104 25.8086 -0.519943 78 51 26
50.8564 4.29897 13.9616 58 44 22
15.461 -30.2805 -17.5027 113 91 43
42.7089 16.8346 9.33278 64 43 18
-72.9024 -20.6856 -0.904564 36 30 18
-3.9238 1.64423 14.3201 28 26 19
-44.5675 16.4511 8.20222 51 34 17
20.2781 11.6157 12.5909 57 37 17
-46.582 10.6811 -1.84512 70 56 28
60.4628 28.0185 0.809929 35 28 19
-26.4286 -0.413994 -10.7649 89 88 56
-22.9822 -34.5614 13.1106 66 46 20
-5.70589 25.868 0.815361 54 37 16
-47.5108 19.5973 0.652988 162 117 81
-65.2837 -23.211 -4.67795 31 30 24
12.7485 6.60229 -10.9199 147 110 47
53.3905 29.8995 9.4722 91 58 29
52.1558 22.0228 13.2133 64 37 18
17.9481 -26.5719 -14.9597 32 33 27
-1.93993 2.65073 14.9099 52 40 19
-26.0697 -13.7267 11.9 63 60 30
38.0567 -32.7791 3.94371 121 79 35
54.6994 13.4423 -15.1774 140 133 83
-6.57263 20.8575 -10.2969 116 79 41
76.1844 16.4242 -2.62791 138 91 39
47.737 22.1665 -9.56827 156 107 43
35.8243 -34.1361 14.79 46 30 17
17.4727 22.3569 7.70672 57 39 18
11.4992 2.93816 -11.4417 156 143 79
-85.2059 -13.2393 1.3641 15 15 13
20.2968 12.7211 -12.5316 131 86 39
-45.0376 9.42281 -9.8503 109 67 29
-15.3749 9.87421 13.4122 50 41 20
-57.157 -30.7326 -5.64519 47 32 18
3.61399 22.879 -6.31897 103 75 40
-40.6579 -22.3989 13.5897 50 33 18
-58.9614 -17.3372 -3.71696 45 33 17
-17.7973 21.1063 11.6866 55 38 20
42.7454 24.6595 4.98202 64 39 20
37.0098 22.8337 -7.85445 122 86 43
77.0524 11.9525 0.402203 37 36 26
37.9249 -33.137 3.63722 130 90 42
21.2623 0.579689 13.7127 20 18 16
31.6743 -3.05879 -10.7602 140 145 101
19.3857 23.8879 5.11686 46 32 21
-85.2655 -20.5879 -1.57339 69 58 30
32.2915 23.3745 6.94616 55 37 19
50.9638 13.7597 -16.1076 139 116 61
35.3227 20.7616 8.80823 63 39 18
34.973 25.4532 -0.436096 53 35 18
-57.0862 -11.9111 -6.89279 80 81 65
-8.4103 -5.86622 11.3158 62 54 28
1.72865 21.8412 9.15369 59 38 17
-48.0149 17.4935 -0.683685 126 79 40
30.8041 15.7263 -13.521 87 70 41
-30.3499 17.8399 14.3196 57 38 20
61.7516 23.6729 -9.27005 130 80 34
-50.8872 -19.089 -4.5544 65 54 27
-46.7139 -10.9401 -10.491 111 74 39
-18.3886 2.12364 -11.951 118 106 63
37.2559 3.59381 9.69005 40 37 20
-32.74 -19.0402 7.75652 135 126 65
66.2337 15.6766 11.309 19 19 14
-19.5369 -0.0837173 -10.9553 143 123 65
45.8856 11.6674 -11.4681 164 135 70
-1.56602 11.8135 -14.477 137 115 65
-14.6784 13.1463 -14.4681 98 73 41
30.9731 20.373 -10.9582 137 101 44
0.489838 10.7229 -14.8376 135 106 50
2.20448 -4.6405 -13.8081 140 134 82
-23.3757 24.2823 -2.50981 79 51 25
48.0923 21.052 -10.1798 150 97 45
-74.633 -19.0338 -1.2337 15 16 15
4.65925 8.80851 -14.2294 150 113 50
32.8382 -26.7092 12.4931 60 38 17
-61.4327 -6.02451 1.83089 47 32 16
-56.161 -14.151 -8.16145 149 97 47
74.6836 9.10372 -5.20839 124 134 96
-0.844833 17.0339 12.9761 43 29 18
64.4569 25.009 -4.1127 69 47 24
-41.7504 -11.692 10.3199 39 37 27
34.4835 21.0042 -9.38615 136 89 37
-31.119 -24.1587 11.7634 54 46 23
57.4102 10.3798 13.5366 62 46 21
36.3983 25.4632 -2.68505 84 55 26
70.0045 3.18656 2.1284 51 28 25
10.6707 20.086 -8.81775 141 98 45
20.8953 -22.0201 12.749 58 44 20
18.3477 19.0786 -8.9124 89 67 40
49.929 15.308 -15.0956 123 91 39
-4.07362 25.2271 -2.54732 86 57 27
7.95128 19.6694 10.705 56 39 17
66.1462 17.5285 9.57421 50 45 24
24.26 -7.50869 13.2859 29 25 16
-25.8757 23.5498 -3.26103 60 43 26
-31.077 -3.63036 14.2554 40 37 25
-44.0282 18.0705 7.88283 58 38 18
-45.2252 -8.24736 -10.8458 116 79 35
23.1803 -23.0582 7.69946 146 119 54
-64.9383 -35.0009 -5.1032 17 17 14
-51.7143 -4.39215 -2.59476 67 65 58
-67.5528 -14.2514 -2.96177 28 22 16
-8.38447 -4.81717 11.6879 61 50 24
23.8978 -11.338 -12.3899 59 62 41
42.8781 26.2185 -4.64105 108 70 33
23.9976 10.0409 -14.3699 49 44 32
36.9897 2.71842 -10.9332 144 147 101
40.1644 22.8745 -8.30234 129 86 37
21.2672 24.1772 7.1301 62 38 17
-63.4382 -9.42978 0.484634 40 30 16
26.0463 -4.40653 -13.6113 117 120 88
43.0172 17.3688 -9.8871 233 191 127
-35.1964 3.8054 16.3285 33 26 16
-50.0353 6.61143 5.86955 59 46 21
-55.716 -5.84021 3.0253 61 53 26
-82.6128 -15.1802 -3.25304 129 87 38
-41.5594 10.6237 -12.1693 38 35 26
-81.2406 -19.9735 1.57945 36 33 21
-50.7894 -12.274 -3.82452 57 39 16
-53.1892 -7.90541 -7.42389 69 68 55
21.2875 17.0898 -11.486 129 90 37
57.2051 25.7511 9.54732 66 39 19
4.48372 19.9848 10.6212 31 26 20
65.4286 9.05779 -9.66617 82 87 66
-54.8147 -33.9053 -11.9758 87 59 25
28.5426 3.46547 -14.2133 144 126 62
2.10974 12.5981 14.4795 63 43 19
-38.7801 20.8286 9.73499 36 28 18
16.3065 -29.8561 -13.9092 51 41 19
-36.6206 2.89639 16.1681 53 42 21
18.969 18.3411 -9.57566 74 68 45
20.0993 -9.28481 12.8646 62 49 23
-55.3393 -5.94411 2.88597 62 54 28
-50.7697 -17.5293 -10.1921 145 106 48
-36.8678 -18.9496 7.17772 138 100 43
-38.3064 -32.0192 14.0097 27 23 15
-41.5135 -1.51017 13.2621 52 43 20
30.5617 19.9624 12.0848 55 38 20
-30.3991 -27.263 12.5343 38 35 25
-56.0531 -24.2432 -9.11905 125 115 55
-8.09378 25.8839 -0.118591 71 48 25
-9.27336 -9.49008 8.10747 63 59 32
68.0054 5.99422 -4.54525 102 65 57
17.7622 -4.57199 -15.1694 114 109 65
9.21072 21.0665 -8.2137 129 86 41
67.9598 1.60387 -3.6767 124 113 73
67.4032 19.0218 8.18483 47 45 26
27.4348 -18.2365 14.2403 62 41 17
-59.2412 -33.665 -12.315 119 78 40
-12.4807 24.7395 5.36059 43 30 18
-38.8787 23.6492 -0.200386 95 61 32
13.976 -30.1682 -13.834 59 44 18
12.0082 -2.01923 11.9263 62 53 26
-8.34027 22.7366 10.1519 57 39 20
22.2026 18.5155 12.6299 36 26 18
27.4106 9.7383 14.3914 20 18 16
44.944 8.79441 11.0539 59 47 26
-41.7345 12.1923 -11.2793 31 33 32
27.6413 -23.9779 6.84352 163 146 77
18.2148 12.669 -11.1724 82 63 44
24.0082 21.6855 11.5802 59 39 21
-18.1507 24.4087 6.12262 22 20 14
38.0788 9.97304 -11.4129 143 134 70
28.986 20.795 -12.0208 123 89 43
4.5473 -5.80852 -13.0444 149 137 71
27.1415 -32.4361 11.8546 55 42 20
-28.5268 23.842 6.28678 61 40 19
30.9409 9.20926 -14.1074 131 107 52
-59.9659 -18.6626 -9.51149 151 106 44
-2.3618 3.75706 15.1019 59 51 27
-54.2341 12.8782 1.85319 79 60 38
59.5472 15.2452 13.1108 57 40 18
-43.916 -3.90393 10.4536 53 48 29
-49.8073 0.874557 -3.22746 39 40 33
66.3831 20.234 -9.79189 152 117 54
72.3781 18.5811 -2.64551 118 76 35
28.7621 25.8018 5.7354 24 21 16
56.0168 4.50163 -12.1708 106 118 85
-43.9543 3.77338 -10.855 148 103 44
11.3577 -3.99676 -12.9699 105 65 28
73.794 18.7972 -0.14172 54 40 25
15.0417 23.1148 5.03376 59 39 18
-52.0208 1.96281 -1.28357 144 112 57
65.2784 5.49502 -5.21075 127 101 82
-58.6631 -32.9247 -11.9146 106 69 35
-60.0677 -14.4516 -5.66097 135 106 51
-32.7409 -24.5444 12.7063 58 42 18
-47.464 5.05537 -8.08861 120 76 35
28.6763 -13.8902 8.70674 157 159 102
-65.5456 -17.7196 -0.730164 43 35 17
57.5262 26.241 -8.86421 124 81 36
-70.571 -17.9979 -1.20013 23 20 15
15.5997 -18.0488 -15.9794 151 137 73
67.4923 20.706 -9.01425 132 92 44
-33.4681 -6.12112 -11.6505 124 127 82
0.674217 -10.5125 11.0974 63 55 31
11.189 24.6691 0.324707 50 35 16
10.1391 -7.84297 -15.244 146 100 44
28.0007 -14.0234 13.0279 61 43 19
30.5776 24.8675 -3.6319 68 45 20
50.7785 16.0409 -15.6075 139 107 48
-28.5694 0.849243 -11.9321 42 47 38
-29.8076 4.5037 -13.6363 122 114 68
26.5007 -15.2463 13.8581 60 40 16
32.8577 12.4599 -12.8914 127 106 56
-23.3055 22.5365 -7.59856 50 39 27
-82.1817 -18.3462 1.7089 27 25 19
3.27092 10.3555 -14.4072 126 108 58
-29.4299 -3.15701 14.2915 34 30 18
74.843 13.4343 -5.73257 153 119 58
-29.6781 21.7791 -7.3929 31 26 19
58.5885 8.41866 -13.1995 130 138 97
-21.952 25.5845 0.642578 62 42 21
-50.1377 0.015584 -7.31154 55 60 41
14.5634 -35.8204 -14.5247 57 43 23
27.6554 12.0375 -14.4709 130 116 90
-43.8911 4.90294 12.1687 49 35 17
71.6146 14.0206 7.58137 61 40 18
59.7172 11.6397 -13.8598 129 114 63
50.0571 26.3634 -13.0308 60 37 17
-41.323 -15.6085 10.9265 32 30 23
5.06049 2.76399 -14.3825 135 116 56
-38.0383 5.34314 -13.9247 125 94 51
-29.5697 21.0704 12.0097 62 39 18
8.17275 -33.6965 -19.4561 90 63 30
27.8945 -28.2387 14.0443 55 42 18
-49.6876 7.12555 5.98418 59 44 20
2.02969 9.84439 15.0173 25 21 15
-62.8769 -29.9873 -10.1729 132 95 43
-47.468 21.2576 2.52298 125 110 95
20.4882 20.5698 10.3941 56 36 18
-4.92628 -5.73779 12.2107 63 56 28
62.5749 16.1647 13.053 31 24 18
-28.1644 10.2892 15.9388 22 19 16
20.6661 -10.2088 12.9286 59 43 18
13.6602 -9.79528 -14.78 53 50 39
33.798 -30.0406 13.292 61 39 17
28.1122 -24.8486 6.97478 160 147 76
53.0148 7.68668 -15.4242 146 143 88
11.2552 24.2194 -2.02156 78 52 26
61.7948 14.7369 -13.0956 133 107 58
60.7306 14.1207 -13.3289 71 66 62
35.0704 -32.3081 14.1916 57 35 16
52.7444 15.8463 -16.0252 54 53 48
41.096 -33.5548 14.2308 60 42 18
2.3155 -9.42419 -13.1716 133 115 55
-15.7292 3.93908 11.4384 32 28 18
34.8713 -27.2744 10.0748 90 66 29
30.8669 -18.9197 11.7391 54 41 22
70.2351 15.4206 -7.79523 131 96 40
-69.653 -19.5093 -6.53813 143 98 46
42.9741 28.0487 -0.836304 51 36 21
65.8016 8.7943 9.83063 64 61 45
-63.7133 -17.4946 -0.796646 48 41 19
-53.7356 14.8294 3.7989 56 37 18
22.2664 15.9589 -12.4399 136 94 44
31.5119 -2.35966 11.6848 68 53 22
-27.6264 14.6527 -13.8356 95 78 48
46.7904 21.7673 8.04683 65 41 18
25.9941 25.2864 -7.15517 43 31 22
-45.0611 -12.6012 -3.09639 69 62 35
61.2089 7.45075 -11.0274 133 142 105
51.1195 22.1076 12.9546 60 36 17
-49.6582 18.6725 1.21945 122 86 47
-23.4137 17.8733 13.4246 55 37 19
-55.2875 -3.92149 -2.92522 152 108 45
58.8961 2.43394 -6.13701 119 132 103
30.4681 17.0233 13.4526 61 40 20
59.1425 10.0371 -13.6053 123 126 92
-34.3505 15.2891 -13.3111 104 75 46
41.1631 -32.9366 7.73857 86 65 26
5.88923 12.7548 13.8802 28 22 15
-1.59572 23.955 -6.59563 45 36 25
-41.6696 23.5254 2.09465 65 43 18
-29.806 12.6471 -14.5267 135 99 47
68.4299 23.0124 3.84371 49 35 16
62.4212 1.43215 5.25162 66 65 41
-52.1258 -7.83033 -1.418 42 38 26
-0.678047 -11.0802 10.6282 65 64 38
-8.12817 8.61044 -15.7801 130 98 42
-32.6064 22.4009 -6.29268 105 71 32
33.5541 -30.1191 7.03696 138 114 49
-32.2917 -4.50224 14.0468 57 47 22
-34.1726 -24.8803 13.7332 61 42 20
-58.3041 -9.27113 2.06932 55 43 21
35.3122 0.845352 -10.9825 130 139 95
58.0784 13.7601 13.6013 25 20 14
-38.3951 11.364 -13.7186 148 102 46
-25.6446 25.3185 0.188164 70 48 26
20.4887 19.0261 -10.4832 202 158 109
25.9096 7.391 14.3724 59 44 19
-31.3273 21.0875 11.618 68 42 20
7.61487 -13.0789 -14.7564 128 88 40
57.6597 13.2817 -14.4037 147 137 92
-16.4908 16.402 -13.3293 140 95 45
-34.2601 -32.0595 15.7983 43 30 19
43.9156 5.99302 10.2831 62 48 25
-18.2943 20.8082 11.8724 61 40 20
65.589 17.8632 10.7677 42 33 17
1.33598 24.7085 2.28899 60 39 17
70.3496 6.2394 5.7222 56 38 34
62.7606 19.9755 11.0212 42 31 19
73.5083 18.2001 2.10992 57 37 20
-81.9441 -12.6922 0.0523224 39 32 16
26.411 11.3288 -14.5757 129 103 56
61.9309 4.5414 -5.80908 137 150 121
73.3781 15.5426 -4.9233 113 73 32
15.4368 24.8165 -0.41716 49 34 20
25.7762 24.896 -8.03322 72 51 29
-51.3672 -21.2152 -8.95708 130 121 57
-45.9433 8.2692 9.58794 50 35 18
-65.4401 -13.2148 -0.260971 38 27 15
14.8327 22.76 -4.98184 40 37 28
-24.1683 24.1858 -2.36377 87 59 29
10.8814 -30.1086 -19.8802 127 94 38
-14.2231 -1.97056 10.8422 58 46 18
42.6673 14.0894 9.82478 65 43 19
47.7774 27.0686 4.38362 67 40 19
-23.0751 17.1106 -12.4989 147 101 43
-12.8605 24.5778 6.60461 32 23 18
23.8144 18.4528 -12.5078 145 97 39
-82.0173 -19.0465 -4.26786 145 95 45
-29.6758 -15.4635 14.4517 66 58 28
33.4978 8.14603 -12.5675 140 128 65
-64.0667 -29.9238 -4.68129 27 22 16
38.2179 26.825 -1.18156 62 40 24
26.5989 -2.07095 -14.931 128 120 72
7.37219 -32.3746 -17.1885 50 34 20
4.99319 0.698021 -14.041 137 126 65
11.2329 17.4351 -10.128 67 54 35
4.05944 9.67736 -14.293 144 119 53
29.2831 -7.6878 13.1906 64 56 26
66.9068 7.45362 -5.59496 103 63 59
26.1684 -28.5147 13.2749 57 44 20
-55.1184 -33.97 -6.13805 58 41 18
6.94992 23.0048 6.95007 56 37 17
65.2172 25.5084 -1.57289 54 41 24
19.5373 -7.46636 12.8813 54 42 19
-8.38616 25.1159 -2.31583 91 58 27
55.5349 6.49302 12.4118 71 68 42
-30.5977 0.0490875 -12.6561 128 123 63
-11.095 15.5636 -13.6718 147 106 50
59.2825 18.7517 -13.3325 132 109 52
-22.148 25.2595 2.75385 63 39 19
42.0539 20.5402 8.09601 64 42 19
-3.05611 -4.63636 12.8216 63 57 29
49.6948 28.5338 11.5445 52 33 17
68.6463 22.559 -5.34454 50 37 19
-19.6738 23.9111 8.89425 20 19 16
19.063 10.887 12.4687 67 45 21
21.0428 -6.10929 -15.2321 96 98 63
-43.162 8.35667 -11.5694 80 63 37
24.3063 -8.77416 -13.0417 113 115 77
21.1298 -20.5837 13.3519 51 39 17
-9.25738 4.78269 14.2245 55 45 20
-45.7833 8.86836 9.62195 51 37 19
57.0256 22.5906 11.7643 66 41 20
14.4599 -25.194 -12.8399 64 53 20
59.9369 18.6993 -13.0978 147 119 56
-37.7938 -14.7942 12.7317 59 39 19
-41.2956 14.5735 13.0147 41 29 17
-25.3945 2.95556 -11.5802 85 81 57
40.3625 -31.4852 10.4359 69 44 19
16.8894 15.3858 11.5916 39 29 17
26.3365 25.5465 -6.27034 25 21 16
13.9606 3.28495 12.8314 38 33 19
-28.4515 5.0455 -13.4499 59 57 42
-86.4646 -15.7181 0.0458717 27 23 16
39.0069 12.7621 -11.0293 151 121 54
-2.82481 7.1501 15.3698 46 36 21
-42.4469 7.85461 12.9234 54 37 18
52.769 29.0927 2.91042 65 39 18
32.3667 -23.6504 12.0046 48 37 19
48.1726 14.2395 15.2151 45 32 18
8.04101 21.9046 8.17308 59 39 17
-39.379 -30.4544 12.4331 31 31 26
-44.25 16.6201 -4.55515 85 58 30
-46.0493 -5.38271 2.46835 69 58 25
65.5513 20.8039 -9.95419 154 115 54
75.9111 16.7126 -2.57769 131 87 39
-20.5326 20.675 -10.6051 87 69 39
48.5336 23.0583 9.54678 47 31 17
-9.22952 8.8117 14.6112 25 20 15
-8.01113 23.8914 -6.08188 43 35 22
62.6189 14.6992 13.3926 30 23 16
36.9296 13.7314 10.9566 19 17 13
13.7415 -14.1241 -15.9091 145 104 46
15.9422 1.73421 -13.6111 135 102 45
47.4208 19.2974 -10.2862 160 114 52
69.9779 21.0281 -0.105118 104 73 32
74.3091 12.3162 -6.25919 155 131 66
30.006 8.92089 -14.1822 132 115 56
62.1623 21.9059 -10.4024 153 105 45
22.6766 -23.3097 13.6488 55 44 19
-23.3353 -4.86713 11.7054 40 39 25
11.1888 23.3522 4.4573 58 36 19
33.4302 13.0844 -12.5513 71 62 35
-42.1184 -5.26776 -11.9361 39 37 32
20.4959 -12.8685 12.9882 62 44 18
31.5746 3.13177 12.9524 61 52 27
53.4037 7.67556 -15.2797 139 137 75
-42.2459 10.9855 -11.3149 57 48 41
14.3639 -18.148 -16.9214 136 122 60
-40.006 6.5466 -13.4304 58 52 37
-4.79482 24.5183 4.62421 38 24 16
18.3512 -30.1169 -15.7901 29 31 27
43.9193 11.9154 10.672 40 30 18
10.899 22.1067 -6.87302 117 77 37
-28.9603 6.06729 -13.7976 124 111 58
24.6036 -21.0509 14.917 52 38 18
53.0706 16.0304 15.1317 56 32 16
35.488 18.424 -10.3559 152 124 60
-12.1706 25.958 1.31642 68 51 25
-37.8784 13.9446 -12.8798 88 68 50
29.4326 -33.9855 12.4209 55 39 18
-28.0253 23.5295 -3.33209 75 50 26
44.5222 18.3045 9.54847 60 37 17
-18.045 21.1602 -10.4731 117 80 39
62.838 9.83733 -11.9092 133 138 95
-33.2655 -3.96991 13.9603 60 54 28
-29.8596 24.4879 0.277649 67 44 20
1.04396 -0.593147 -14.9562 114 103 60
-9.46968 11.676 14.5183 28 24 17
-84.8096 -14.4413 1.72415 19 19 13
7.88112 -20.9658 -16.5225 127 80 38
54.819 18.4846 14.3156 65 43 23
14.3126 -14.1088 11.3708 59 54 30
68.7448 15.1644 8.82772 55 39 19
-62.933 -6.86037 -0.605804 40 28 15
30.2281 7.82942 13.912 57 44 19
49.8715 29.6395 -2.79729 87 59 28
-52.2711 -16.3443 -9.83923 138 94 45
70.1565 21.0962 0.322979 99 68 30
40.322 -31.7916 13.0904 60 41 19
-41.6143 -21.6466 10.3195 71 51 29
27.0012 13.0813 13.9668 31 26 20
60.8207 26.0715 -6.93837 68 46 26
23.6517 -4.53246 13.6407 19 17 15
-28.6053 18.3753 -11.8577 130 86 40
-54.339 3.29194 -1.37234 152 97 41
-56.3868 -19.5038 -10.7528 140 94 46
-36.7718 17.3789 -11.4135 141 109 79
-39.0603 -4.74195 12.7426 53 47 21
-9.28484 4.46969 -15.744 55 54 44
60.1805 27.9045 -3.80822 78 55 29
76.211 15.7258 3.60025 58 40 21
46.2467 26.6233 4.33635 62 37 18
-0.0440903 19.2696 11.9237 65 41 18
37.8641 21.0847 -9.27649 98 72 41
61.2655 5.76433 -8.54769 87 96 73
21.0107 -15.8948 -11.9032 31 32 26
66.008 5.30161 -5.20881 127 91 78
30.6952 15.3438 13.9059 57 40 19
59.9641 9.55756 12.6923 48 42 25
54.1163 26.1934 -9.13921 118 77 37
-66.0939 -33.8121 -5.97787 19 17 15
-25.3014 -1.36028 -10.2982 159 150 92
-60.0216 -11.1876 -4.93968 158 109 49
-35.532 -16.4072 6.66696 161 137 62
10.3669 -11.3685 9.31029 66 65 41
11.2777 19.8478 10.1708 56 38 19
-9.25457 24.6583 -3.27823 90 59 28
44.9695 7.40983 -11.0818 159 143 91
77.2756 12.5993 -3.46209 91 81 40
70.2563 19.5183 3.43097 60 42 19
50.043 26.2643 7.48555 80 54 30
-46.3158 1.99107 9.19289 58 56 33
16.5692 5.08312 12.7288 55 43 19
7.84526 11.0363 14.0634 58 43 21
22.5692 0.810219 -15.5764 40 39 34
18.2643 11.7863 -11.5439 65 48 33
15.5921 23.3409 -3.81021 40 36 26
12.4272 9.67951 13.4111 34 26 15
-46.256 -6.85045 -9.75838 87 64 41
21.6266 -10.3267 13.026 58 41 18
13.1545 19.1002 10.5118 63 42 19
11.4404 21.9063 7.90697 59 37 17
33.7844 -29.0073 8.0988 148 123 50
5.38455 18.5295 -11.0551 53 47 34
12.3039 -2.04305 -11.7329 66 49 30
54.1224 15.8803 14.8532 56 40 19
-1.18886 25.6547 -1.20016 88 59 26
49.2039 27.133 10.2932 56 35 17
10.6751 23.1039 -5.50502 89 57 25
15.8179 -26.0067 -16.4742 141 114 52
-3.64479 24.7797 -3.43816 102 70 34
-46.4832 9.79602 8.67006 45 37 21
-35.3121 17.1791 -12.0347 126 84 42
-36.6822 0.134651 15.1336 18 17 16
10.1555 1.91411 13.6696 62 51 23
12.5494 -9.10641 10.1641 58 43 20
-4.14197 -1.03725 13.7894 56 47 22
8.81865 -27.6057 -14.2137 50 36 16
-55.7403 -15.2885 -4.60793 54 36 15
-22.8723 -0.618561 12.184 53 50 28
-51.8744 -8.22947 -1.4913 44 36 23
47.7743 29.2234 1.32013 63 42 18
-79.7549 -23.4852 -0.578384 55 51 27
31.6742 3.90267 13.1337 59 45 20
52.0562 17.8777 14.6606 64 45 20
-44.9606 8.7082 10.6102 51 35 16
-26.1688 19.4384 -11.2798 76 62 35
-36.0739 17.9226 13.4322 61 39 18
-38.4114 -4.63638 12.9545 40 37 21
15.5932 23.1329 4.94382 57 38 17
-66.6869 -22.117 -6.77543 122 106 57
26.4781 3.07187 -14.8979 82 79 55
-66.1756 -19.069 -6.75977 138 110 54
-14.0477 26.0687 0.856339 53 36 19
33.4578 0.836632 -11.7396 34 35 34
-32.7983 20.969 -8.61311 108 68 32
20.7485 24.9595 -1.97658 57 38 21
-30.2418 7.7189 -14.5617 91 82 49
-7.28377 9.60808 -15.6446 82 66 43
-50.5345 -19.3952 -9.8246 142 124 59
47.8887 19.2198 11.7427 61 38 19
18.0542 -15.9579 -14.364 142 105 46
-56.3531 -29.7744 -6.45205 37 33 21
-48.156 -11.8182 -10.0943 132 86 43
67.8874 2.69187 -4.04087 116 78 62
25.1298 22.3962 11.3849 22 19 14
53.9873 7.81276 13.5344 67 57 30
-46.6945 10.2977 -3.00581 55 39 20
-81.0438 -20.4462 1.39707 38 36 22
-31.7037 -1.83255 14.6474 38 34 20
-37.7154 -18.4377 13.9056 54 34 16
29.0925 -13.6514 8.87948 155 152 91
53.5247 11.4113 -15.9514 123 124 89
23.7342 -11.5718 -12.6975 73 78 50
-8.88361 16.4146 13.6769 61 41 20
-4.13074 -5.40474 12.3793 67 60 33
-60.8031 -23.0139 -3.74706 48 34 18
7.56718 21.5431 8.66266 60 40 18
-54.9029 -35.0924 -6.82862 67 52 24
12.3011 23.3925 4.31181 45 33 17
75.1496 8.73498 -0.677101 64 61 42
-20.1852 22.2491 10.9124 38 28 17
-34.3439 10.9608 -14.6216 135 101 47
55.2798 28.4815 3.6492 60 38 18
36.6722 -33.3283 3.56935 152 104 52
52.029 28.3036 -5.56985 92 61 29
-40.4424 -5.10455 -12.6998 129 93 41
-41.5147 19.9206 8.17744 57 38 18
19.9602 -18.4547 -13.7404 91 90 53
-43.2005 0.610626 12.5284 51 39 19
3.98396 9.2132 -14.4 142 112 51
-3.08995 4.70975 15.1547 57 43 23
-43.3586 13.6128 11.0434 59 39 18
50.2912 17.8864 14.7793 54 32 17
23.3269 25.4666 -4.05144 71 45 21
44.2431 23.3528 -7.91055 153 97 44
28.9048 18.3479 13.3505 40 27 17
-34.712 8.69076 16.4399 62 41 20
15.3723 -11.4144 11.9157 55 41 21
-84.6409 -20.9771 -0.181648 51 46 24
-53.9968 -9.3996 -7.42865 63 63 52
-68.7683 -17.2872 -5.92155 100 67 40
-55.8601 -14.9367 -8.42453 147 96 46
15.6542 -14.5393 -15.2059 156 123 52
-39.6676 -3.2885 13.1899 58 49 24
28.422 -15.6844 13.0881 66 46 20
29.2452 -3.35091 -11.9037 123 130 95
-61.2448 -32.7428 -11.3979 119 81 44
-1.54477 5.88603 15.4543 37 30 18
38.9107 10.1616 10.466 19 17 14
-30.2215 -14.8344 14.8379 61 51 25
8.03004 -27.1198 -18.341 132 85 40
12.289 14.4235 12.6285 65 42 20
20.3096 -19.8998 12.6922 55 41 18
-10.9308 -2.88381 11.5552 61 49 21
76.5633 12.61 -4.56592 129 115 60
58.7837 26.0126 7.19167 43 30 17
10.0988 18.281 11.5282 18 16 14
63.2556 20.6781 10.6154 51 35 20
25.8041 -2.58577 14.0058 57 44 22
-30.1107 3.10548 -13.3772 51 48 40
-59.9097 -32.507 -11.4857 116 74 35
-48.1401 20.9021 3.1272 63 41 19
14.4736 -28.1292 -16.9823 156 119 50
18.5375 21.8629 8.46568 62 40 18
-31.8548 2.88877 16.2188 57 46 23
-78.2905 -16.6702 -0.992126 31 33 29
-31.5873 -4.77897 -10.9242 134 138 96
-45.6227 -4.18118 -9.89787 138 93 41
-2.41721 25.0518 -2.56043 88 57 27
-38.8276 5.60978 -13.7814 69 51 33
33.4579 13.4831 -12.553 83 75 47
-49.395 -20.9719 -5.67867 61 56 29
-58.1169 -28.0658 -5.34282 54 40 20
70.3605 13.1343 -8.11196 134 133 88
72.7063 17.4015 -3.32187 159 114 50
7.70001 20.7986 -8.44971 89 66 35
14.4203 -13.8242 -15.5905 147 109 49
-15.9329 18.5035 13.0287 18 19 18
-48.8711 4.05193 -6.71266 66 59 36
-56.4118 2.08631 4.72293 51 36 17
-61.003 -30.091 -4.91893 47 34 18
-39.9744 23.9986 1.4791 61 40 20
9.94059 8.25492 14.1048 55 42 19
-25.3392 -1.54651 13.9137 57 48 22
8.12766 22.1837 -6.49719 30 25 19
25.1549 24.7472 -7.59184 57 41 25
5.12369 15.7549 12.8294 26 21 17
-8.79703 3.30354 -15.7629 40 40 37
8.57817 -13.3382 -15.4032 143 100 42
49.454 28.5522 3.14255 67 41 18
-51.0586 2.36131 4.78908 59 55 33
-44.528 13.0467 -7.80872 68 64 60
36.0022 5.3418 -12.0051 74 72 49
46.7235 14.7831 -11.4831 48 47 34
66.7102 9.5065 9.39152 60 59 40
41.885 18.8907 -9.47424 161 131 61
38.7489 0.0862732 -9.41608 155 164 118
-25.8969 -6.81512 13.5292 68 56 28
62.6207 11.6721 -12.6947 132 128 70
33.7256 5.21532 -12.3598 156 137 65
15.0633 -22.1516 -11.7242 68 60 24
-36.5818 -23.551 15.0385 59 41 19
4.09101 23.4525 -4.80232 51 40 25
68.7322 2.38708 5.33199 43 23 19
52.0377 10.776 -16.3822 140 107 51
-12.9466 22.8464 9.75238 67 45 20
-16.2538 22.9793 10.2644 18 18 17
-27.1674 18.6318 13.9191 63 41 20
21.9923 24.9661 3.2839 60 38 18
59.2872 27.271 4.42804 32 24 16
-57.4057 0.0490417 -1.43051 141 95 48
-6.06816 8.37383 15.0246 28 24 15
-32.0848 -32.7711 16.1633 43 30 18
23.8793 -7.13076 13.2371 36 31 20
43.9751 15.9553 9.88049 56 36 15
27.9955 -27.5985 7.50354 154 130 57
8.86265 17.261 -10.8914 153 109 48
-23.1071 4.98853 -11.7667 107 95 57
-51.4364 -11.8532 -4.09697 60 42 17
-64.7158 -17.5364 -6.66446 129 101 52
0.338211 20.0543 11.3721 63 40 19
-40.034 11.0174 14.7126 18 16 15
-4.53489 -7.99913 11.5943 61 52 24
34.4212 16.2012 -11.2245 113 99 57
-20.7433 7.54143 12.9089 60 52 27
-37.0236 17.5168 -11.1862 68 46 32
-0.0710907 3.1313 -15.7309 69 67 53
2.61507 25.0856 1.09009 61 39 19
27.5983 1.74669 -14.4207 129 114 53
50.9802 29.8905 0.579548 62 40 19
-40.3959 1.59838 14.5733 53 37 15
-37.9243 0.599213 -12.9669 131 98 44
64.0054 20.891 10.409 25 23 18
-32.444 -5.0729 13.9429 54 43 22
24.5939 9.05734 14.3526 59 40 19
28.328 -25.3418 7.05495 162 149 75
-0.79158 22.4023 9.29679 45 32 19
15.1442 -16.7622 10.7858 54 50 29
53.399 1.57322 -11.4688 132 138 102
50.4987 27.3786 11.9723 50 33 19
-54.0117 2.10571 -1.56669 158 108 43
25.7419 -27.8532 8.56731 119 90 36
-49.4014 -15.597 -10.4844 142 100 46
20.034 6.42682 -14.2395 139 108 50
77.3673 13.2184 -3.23071 91 88 57
17.5587 -33.8604 -13.1087 57 42 20
-26.2821 -30.9647 10.8828 45 31 20
-16.3241 25.9745 0.870602 56 37 19
-42.3985 23.3324 1.9527 78 55 34
14.2086 15.8491 -9.81847 154 118 55
-34.9053 -1.43842 -13.4682 84 76 45
14.5977 -23.9474 -16.3691 155 141 69
-38.6168 -16.6689 12.6456 54 37 17
1.20235 18.9798 11.7781 69 47 24
56.713 17.299 -14.5227 41 40 38
37.2788 21.8685 7.50147 64 40 20
50.7902 19.7072 14.2136 58 35 17
25.4439 13.0123 13.8829 57 41 20
34.1582 7.24565 -12.2181 146 132 71
60.7574 23.6584 -9.92343 125 79 33
-18.0231 23.1119 -7.35107 30 26 22
19.4818 -19.2565 12.0585 55 44 19
17.4253 -29.0625 -13.9452 38 36 29
-61.0567 -2.8765 1.28198 46 30 16
-3.74701 25.3474 -2.17668 86 57 28
23.4092 19.2931 -12.0352 139 98 43
63.3851 13.8894 -12.8885 147 126 62
58.0033 16.4439 13.3097 30 25 17
-61.5244 -9.04417 -3.89076 133 85 45
45.3226 21.7334 -8.91444 164 118 49
32.9342 13.3626 -12.8274 107 89 47
17.4865 6.45409 -13.6398 142 99 42
22.2915 23.2145 -8.43779 80 54 30
15.5586 -10.4177 -14.0141 123 110 59
-2.35187 20.0169 -10.681 140 100 45
-55.3391 -19.1212 -3.80407 60 42 20
5.24942 -1.0229 14.0761 54 42 22
29.4575 -26.3401 7.27788 163 144 74
20.9693 11.8224 12.8532 57 40 20
18.7886 -20.2299 -14.8659 100 94 55
39.7628 -33.5732 4.90562 117 87 41
31.0875 -28.8118 14.0289 56 37 17
62.4919 15.9302 13.1802 30 23 18
-63.7996 -15.9931 -6.21021 138 100 49
-65.6944 -30.4737 -8.77578 103 78 39
-45.1213 1.24273 10.6517 47 40 23
-18.3763 14.0245 -13.3931 77 57 34
-34.8776 12.8347 -14.2367 141 95 44
51.2394 24.6105 -10.0997 88 57 26
-9.90152 0.0898063 12.7477 50 44 23
22.477 10.9798 -13.964 133 101 46
58.291 9.22799 -13.6778 121 128 92
5.36726 -1.5576 -13.5629 137 127 68
25.8407 -3.03365 13.9909 57 41 19
52.5824 29.8149 0.676834 61 39 17
41.2255 -34.7442 10.3331 79 73 37
70.8732 18.832 -3.33641 120 87 38
-60.4709 -14.7684 -5.83472 139 110 49
-65.295 -11.9725 -1.22135 34 27 15
49.4657 19.008 14.1208 43 29 16
55.0643 27.7047 5.93745 68 43 20
40.3974 -32.2726 7.29153 96 65 28
-54.9351 -13.9629 -8.2279 147 97 48
-49.5183 -16.1026 -10.4234 141 101 47
-0.30682 23.0043 -7.13773 99 73 41
47.9711 20.6265 10.0916 65 42 20
17.1431 -6.64487 12.2333 58 39 18
-61.5127 -16.7139 -8.42618 125 110 54
-45.9861 6.48552 9.84103 48 38 22
35.5705 15.8403 10.6721 42 32 20
-15.7348 -4.16656 -10.7599 148 146 92
-32.5249 -23.611 12.5262 56 44 20
15.978 -31.5297 -19.5255 60 40 19
-29.268 3.06569 -13.0263 88 87 62
61.9608 22.4649 9.79695 21 19 15
19.1635 -32.3606 -14.6034 56 44 19
8.91354 10.6806 14.0947 59 42 19
34.2028 24.4609 4.51436 57 37 17
-42.3942 -5.9688 11.0709 42 35 20
-40.4842 19.7303 -6.12511 73 49 23
21.847 -14.1824 -13.0698 96 100 62
-64.3469 -23.5819 -8.81453 137 107 45
-13.1434 23.8366 -6.90353 100 66 31
-1.72693 8.11318 -15.5138 109 101 78
-50.2667 -1.03928 -7.56 74 59 43
-57.2338 -7.17928 2.72849 61 50 28
-11.9098 23.9249 8.25179 59 38 17
66.0773 19.6165 -10.1001 148 108 45
-20.5252 -3.01881 -9.83012 157 158 104
-48.0163 -8.2688 -3.3811 63 44 18
-0.804634 19.2916 12.0776 57 39 19
-75.4405 -18.0211 -3.69208 35 35 33
63.2468 19.9823 11.0266 35 26 18
-23.4967 25.2522 -0.141525 83 54 26
67.8605 17.4803 7.84896 46 44 21
-49.6584 -22.2032 -7.30754 115 111 59
58.1248 25.2922 -9.59949 116 73 34
32.7171 -25.334 12.1372 55 37 19
9.90994 -9.229 -15.5596 148 117 49
-14.0918 16.5169 13.6114 59 42 19
-17.7752 25.7058 0.359474 66 43 21
-37.1172 6.0269 16.2551 37 29 16
-41.443 13.9407 13.1287 49 33 18
-46.8224 13.745 -1.7827 147 109 49
7.16537 15.7488 -11.9369 81 74 47
75.9658 11.6006 -5.29901 131 118 51
28.8966 19.2224 13.0116 63 41 20
-60.5811 -13.0215 -5.36165 158 110 46
20.0306 -4.10429 13.5491 55 43 20
-16.1518 25.8903 0.427792 66 45 23
-29.4385 18.3682 -11.8339 134 89 42
28.1537 -0.515427 -14.3137 137 121 60
-34.295 12.591 16.1181 48 37 20
32.7984 12.8301 -12.9007 130 99 47
63.1436 0.472023 4.54604 65 65 42
32.2655 19.7993 10.4523 17 16 13
27.6943 14.4701 -14.1949 153 115 59
13.6777 3.92234 12.9475 45 40 23
-86.4658 -16.6685 -1.20108 72 53 27
65.8001 19.2546 -10.3219 145 107 46
-0.623318 25.3641 -1.67062 103 69 33
-81.7265 -20.0706 1.46039 40 38 26
25.8754 24.1548 -9.63948 106 68 32
47.4312 19.709 -10.1326 161 116 49
34.7405 -2.27399 -9.99335 136 141 94
21.2552 -15.6665 -12.2256 55 56 38
-27.4214 13.6389 15.4086 62 46 21
32.3574 -0.676825 11.2827 70 68 37
-7.67472 7.20416 14.7474 52 40 19
-24.0062 22.1356 10.7164 72 46 23
3.42199 18.002 -11.6206 131 85 39
27.0179 25.558 -6.77354 67 44 22
22.7466 19.3032 12.4655 53 36 18
-0.0173264 21.5068 10.0872 58 37 17
-28.5689 4.39085 -13.3519 43 45 38
-47.3579 4.96607 7.15916 52 48 25
24.2485 -0.134445 -15.8048 100 79 46
12.6165 -24.1645 -17.4806 138 130 73
-60.3459 -8.9493 -4.22357 153 100 47
21.7631 -20.4297 13.9538 50 37 17
-32.3574 23.3441 5.66424 54 36 19
-61.2214 -8.88486 -3.97762 137 88 45
37.2677 19.7963 -9.91904 97 71 41
-58.9525 -2.71557 -2.02942 127 79 37
47.5494 8.69217 -12.3945 115 87 33
22.3051 24.6671 7.31646 58 38 16
-29.7426 -4.8208 14.3432 54 43 23
-49.7441 2.69423 -3.4856 39 40 33
42.5452 25.4692 -5.46033 125 81 39
-49.0962 18.1737 0.550262 105 69 34
-54.3013 -21.3727 -4.27551 57 46 21
36.4275 -31.2295 5.33612 107 73 33
65.9055 14.5008 12.195 19 18 17
-28.7897 -17.4949 10.9975 76 71 43
-53.4275 12.6447 0.951363 124 81 38
47.485 27.7348 -4.52977 104 68 33
-58.2295 -3.41198 3.69327 55 42 21
-60.1157 -16.8278 -8.79526 152 104 45
-80.1245 -21.5935 -4.79982 148 117 55
32.5603 21.7957 -9.59047 142 100 43
-28.9886 2.43552 15.6652 57 49 26
24.6216 9.1851 -14.4989 126 102 49
-46.2417 1.50054 9.13181 60 57 36
-20.4058 16.4835 13.6468 32 26 17
72.5522 17.2028 -3.48303 155 110 47
-40.9279 3.75536 -12.3289 126 101 48
31.9705 15.7246 -12.7189 138 107 48
-81.1397 -19.7073 1.68539 32 29 19
35.0099 -29.7891 5.75922 130 95 37
17.9693 4.91984 12.8026 34 27 19
33.4868 18.0603 10.6062 54 37 19
11.7904 4.09499 -11.32 152 125 58
37.4357 5.47701 10.333 60 53 28
23.6324 8.3283 14.3407 58 39 20
18.9857 -31.9484 -14.5638 54 44 19
38.4589 8.60035 10.5454 27 23 17
0.463551 12.6238 -14.2414 125 101 61
-1.6899 1.64808 14.8055 58 50 27
47.1616 12.8631 14.0474 55 38 19
57.0462 0.332404 5.58994 67 60 29
-83.9164 -14.4321 -2.87893 144 98 43
-60.9494 -3.9126 -1.41274 71 61 49
55.0044 4.27822 -13.1039 126 132 100
22.2395 13.9656 13.121 21 16 13
-0.238243 15.1543 13.8247 34 28 20
-24.4735 22.7937 10.0804 63 40 19
-19.378 -3.35627 10.2071 65 57 31
28.8784 23.0904 -9.97217 121 73 34
-47.9169 6.02615 6.23433 56 50 28
17.4228 17.7579 -9.22014 138 103 45
30.1349 6.73479 -13.8979 50 47 38
-53.5727 -2.25487 3.85384 62 54 30
25.2609 6.74467 -14.7575 86 79 61
-79.1236 -17.9086 0.552628 18 16 15
-15.6334 23.1429 -8.474 106 68 31
65.5701 24.4286 -6.79919 74 49 24
5.31564 -2.44894 -13.3968 144 138 89
-25.7972 15.583 14.7396 51 38 19
-9.39145 6.37224 14.44 47 35 17
30.1608 -28.3053 14.1291 59 42 19
52.7433 29.4584 8.9165 111 69 34
-46.1463 -6.33913 -9.87102 119 84 42
-36.6932 18.1552 13.1639 62 40 20
9.9744 22.933 -5.79712 86 58 29
30.5789 24.5674 -5.69285 68 44 21
-77.359 -22.0874 -0.0724335 27 22 16
38.0241 0.181976 -9.74651 148 155 110
-49.5388 -21.9866 -7.41498 118 110 61
40.7504 9.86544 -10.7162 47 44 35
-9.0027 23.5424 -6.37193 42 33 26
-32.9966 3.98158 16.4034 52 39 18
19.3774 -33.3506 -20.3987 94 76 33
-53.3802 13.3438 1.18441 110 69 34
47.4104 12.7565 14.753 48 32 14
36.6816 21.6179 -8.87465 90 69 41
-42.4053 12.5883 12.6953 34 27 15
-12.8304 22.5652 -8.39742 60 44 29
-54.3181 10.965 1.03078 127 82 38
-27.6243 21.5947 -8.89491 114 77 36
13.0447 -29.9391 -18.0884 152 110 46
-18.4919 -2.09678 -10.703 142 121 64
35.5303 7.29426 11.2995 64 54 25
39.7442 9.91821 -11.0035 113 103 57
61.1877 1.72418 -3.95848 159 172 129
25.0126 -16.4045 14.5098 59 40 17
-27.5435 9.39098 15.7605 38 35 23
56.3121 0.78511 7.59112 66 56 25
-22.2707 25.339 -0.307846 81 53 27
29.1233 25.6115 -1.89685 49 33 18
15.7287 -32.5774 -13.3244 44 33 16
-38.6835 17.6309 12.6917 58 40 19
-35.6602 23.4044 -1.81553 97 67 35
-43.5681 13.205 -9.23787 94 65 32
5.21945 19.681 -10.0402 70 54 34
24.8885 2.94181 -15.1416 96 77 43
36.4396 16.182 -10.8918 154 109 48
16.8695 1.66463 12.4885 61 54 31
-77.3711 -19.3202 -4.82298 71 52 35
-27.0435 12.1714 15.5499 64 45 22
27.8719 -2.70719 -13.8795 117 118 79
-36.4905 -19.1364 14.4599 55 35 17
-80.8186 -20.2708 1.47739 36 34 22
50.3883 6.39957 -15.2435 135 130 81
-60.7572 -29.6818 -4.86333 48 34 17
-46.8938 -1.57292 4.87015 62 57 26
39.4402 -34.9702 4.41344 118 90 43
29.7762 24.8489 6.89302 56 37 18
10.1356 22.3938 7.2735 60 39 17
1.70008 25.4984 -0.55365 78 55 28
-25.1864 13.941 14.9946 31 26 19
-62.8706 -31.2922 -10.3625 133 94 50
-34.378 7.53565 16.5527 57 39 18
20.1604 -14.075 12.882 62 48 23
-51.1942 -0.668529 -5.47641 39 40 33
37.2111 -30.4726 11.6717 56 38 22
-34.0007 -25.8227 13.7482 62 42 19
73.9461 12.359 7.65634 61 38 18
-36.0829 -31.7353 15.5076 32 24 16
-61.4414 -16.2682 -7.96021 95 83 44
29.5112 -33.4499 8.71444 125 85 36
76.4047 10.0211 -2.02814 49 45 24
-30.6675 -19.6301 9.9433 112 105 56
29.951 -14.7367 9.43481 115 97 44
-43.4501 14.363 -8.31271 91 61 34
17.1261 16.7589 11.3332 57 38 20
26.4208 22.7287 -10.9947 138 85 42
23.7258 1.39124 13.975 54 43 23
-55.7362 -3.38946 3.82968 61 49 23
-23.8321 23.9706 -3.10956 73 49 27
-44.4387 -4.13573 -10.4133 132 98 42
-42.7447 15.9107 -8.19681 90 60 34
1.96326 -3.91207 13.2885 63 56 29
-19.8666 19.356 -11.4988 54 43 33
25.7711 -4.01748 13.909 54 41 19
-60.7091 -20.6335 -10.0254 142 101 44
-7.65999 15.7638 -13.4539 99 79 51
2.2147 16.1261 13.156 64 43 20
-43.4126 19.2972 7.26295 56 37 21
-55.5015 -19.2302 -10.5644 137 96 40
-50.1127 -18.4214 -4.44298 62 52 24
-13.0417 18.8991 -12.0668 142 104 50
-22.4616 -32.9742 10.786 76 54 21
11.148 -24.6125 -18.5364 126 108 54
-56.4218 -6.6252 -3.59708 157 117 53
24.9033 -30.0308 11.8576 55 41 21
24.1317 23.2082 10.414 60 39 17
-32.6321 -4.85652 13.9221 55 47 23
-30.3752 -34.4775 9.22656 141 98 47
-34.2253 -36.0925 11.5991 122 87 42
42.983 12.1759 10.0951 61 42 19
41.2913 2.83455 -10.0625 159 165 117
-29.3469 -2.08467 -11.1718 139 146 102
68.363 16.0169 -9.28639 135 92 37
15.0617 -1.02644 -13.8427 139 92 43
43.8194 28.1332 -1.98375 71 49 28
-36.9127 -17.9165 7.08167 137 100 44
65.555 16.7465 -11.3815 119 97 49
-17.6873 12.7131 13.6963 59 45 20
-24.3018 24.6863 -1.14045 92 61 30
21.2491 16.4901 -11.6822 135 94 39
-19.9401 7.87029 12.743 65 57 27
51.9493 14.4034 15.4404 55 38 18
-28.9457 -1.17525 14.5041 60 53 25
-51.4827 -16.9245 -3.80908 57 41 19
56.1426 17.5552 -14.7707 47 46 34
41.1257 6.89355 9.9248 25 24 15
57.2104 3.77016 -10.5473 124 132 98
12.8386 10.506 -10.7278 69 65 40
-75.6076 -21.1009 -0.358566 18 18 15
37.1627 -30.979 6.42719 90 67 30
69.2741 18.1122 4.56877 53 41 19
8.26521 8.94444 -12.8663 56 54 44
20.7979 17.9637 12.1185 20 19 14
-2.23105 -1.79843 13.9276 40 37 23
7.17171 -25.179 -15.9261 40 30 19
31.6893 18.3685 11.8882 53 37 19
21.053 17.3583 12.446 27 22 16
-23.5273 -31.6267 10.7592 76 50 23
-39.3885 -18.4132 12.5888 55 35 17
26.9524 25.8163 5.93172 41 31 19
-26.8525 20.7504 -9.97462 113 75 34
33.3874 24.1803 5.09773 61 40 18
-2.29146 7.6389 -15.6993 85 79 51
-72.6055 -22.9046 -6.60196 141 101 44
-3.72982 24.2377 -4.28389 95 68 36
-42.2763 -9.60944 10.2192 38 36 25
-14.4066 -3.11694 10.567 57 43 19
64.4853 21.767 -9.82887 140 99 42
24.3971 -27.6705 9.77242 135 106 48
-40.2062 4.7887 -12.6739 125 108 53
5.8076 19.3339 10.9938 58 40 22
0.890879 19.3418 -10.8728 34 32 29
29.0542 -9.53311 12.6877 66 57 25
22.3732 -25.624 12.1806 54 42 19
5.1105 10.0542 14.6461 19 18 14
41.3958 22.133 7.58604 30 22 16
14.4084 -10.9548 10.8424 69 61 37
-55.5795 6.34474 0.0825081 145 99 49
-32.1575 21.4516 -8.04752 102 66 31
8.1263 3.42707 -12.9744 54 50 43
14.5703 19.6796 -8.36588 124 85 40
-31.3933 -6.62312 14.1119 28 23 15
9.90575 22.7764 -6.16809 93 63 30
20.8287 24.6956 1.08915 61 42 20
-82.0105 -16.9631 -3.82953 126 88 40
-31.1679 -25.0333 10.8242 75 59 29
-41.5444 -17.7248 10.9974 38 33 22
-35.2242 -9.40929 -10.8411 125 131 89
21.8486 25.3595 -2.25027 52 36 18
-27.6714 0.166977 14.7837 63 59 33
-29.8958 -3.70155 -10.5936 125 131 93
-55.9631 -5.00574 -3.24495 155 107 46
27.1241 3.39376 13.9463 59 49 24
-63.1942 -32.1109 -4.52817 25 20 15
-3.30925 22.3164 -8.81741 108 72 34
-31.7148 -32.6032 15.9538 46 31 17
-17.472 22.583 10.2128 56 39 21
36.4849 15.712 10.2465 18 17 15
41.6714 16.4512 -10.0872 155 120 55
30.2127 -29.4877 7.72519 150 119 50
64.2723 25.9928 -2.05962 79 57 30
52.914 28.5781 8.03883 114 73 35
23.8465 20.4149 12.3507 60 40 18
73.294 7.56424 5.32141 51 29 24
-52.4668 16.3551 4.10015 56 37 18
6.03926 -9.30768 -12.2758 142 122 55
42.3898 5.657 9.81834 60 50 27
27.3134 24.4966 -8.92838 120 75 35
-20.1953 9.96362 -13.0289 148 113 53
29.988 -0.211494 -13.01 138 135 82
-58.1732 -10.3223 1.67757 59 49 24
8.68666 14.7108 -11.8295 151 115 52
-4.37703 -0.74421 13.8235 55 44 20
38.952 -31.3676 9.77102 75 48 24
-35.9053 -9.37927 -11.3285 128 134 86
-2.9602 16.8398 13.2915 62 42 21
-40.9584 -10.1813 10.9979 45 34 18
-46.087 13.7722 -3.13769 54 40 22
20.4678 18.4834 11.5942 19 17 14
27.9872 -27.1274 14.2806 55 39 17
52.4872 11.0631 15.1315 57 40 18
-31.3194 -9.03031 14.7548 55 39 18
-27.8986 24.2946 4.30499 62 40 19
6.82604 23.4905 -4.41769 82 54 27
7.04975 -9.94154 11.0554 57 41 18
74.8301 7.97843 3.24222 89 63 61
-42.8902 -13.5867 -3.96398 67 65 39
54.4643 2.42397 10.5523 72 67 39
-28.4005 16.5664 -12.9104 88 73 45
59.4157 6.46233 11.2739 69 58 27
-30.0781 -13.9792 7.03238 161 152 84
-61.9464 -4.93816 0.505604 44 30 17
-36.4259 -8.25773 -12.0787 143 143 90
30.0177 8.95926 14.0863 57 43 20
74.1685 18.6682 -0.216721 57 40 25
-60.2428 -21.8532 -10.7775 125 83 34
20.3439 -9.59426 -14.7293 89 79 48
22.0361 11.2562 -13.7978 138 97 45
23.7587 25.7363 -3.20831 69 45 23
-35.1855 19.6242 12.3864 40 29 18
-40.7063 21.4424 6.90617 64 40 18
-50.967 -5.61599 -7.96864 134 87 40
67.8599 1.29181 6.25754 54 35 17
-23.168 18.3409 13.3707 56 40 20
-34.5376 20.517 12.1062 31 23 17
-27.5866 -32.8215 8.61153 127 86 38
23.8501 2.39577 13.8739 54 39 18
9.14922 -22.1603 -17.9075 133 83 36
20.5472 13.7303 -12.2642 137 88 38
-66.5984 -29.2957 -8.03716 55 57 46
-56.5383 -0.896271 -2.07274 154 100 44
-12.4413 4.53251 13.0818 37 31 18
31.1189 17.3091 -12.4838 136 96 43
54.2338 9.23089 14.0454 64 48 21
37.2558 19.2983 9.03676 45 33 20
-33.6381 -30.7874 9.29214 149 114 48
-17.4497 21.7318 -9.93861 125 86 40
-4.75937 -2.51659 -14.7469 93 87 61
-56.4829 -8.93922 1.84531 62 54 27
57.691 27.5681 5.11531 46 35 18
48.2752 10.2949 15.6822 49 35 22
66.3006 24.7168 3.31097 55 37 20
17.6751 -13.7713 -14.1321 139 115 53
16.3719 11.3183 -10.7981 138 94 40
-48.2943 6.46667 -4.21373 46 39 20
59.0712 20.5017 -12.6623 67 54 33
17.4354 -7.48439 -14.605 50 51 42
-3.16478 10.1515 -15.2516 67 59 47
-59.4805 -18.2068 -3.72514 47 32 18
75.3952 16.3233 3.59002 56 37 17
-82.9759 -14.7308 1.46696 21 22 17
24.2817 3.02462 13.9588 51 40 19
6.40707 16.8775 12.3369 59 41 21
-52.8894 -6.78609 -0.80011 39 40 34
33.3268 -26.8599 8.34787 174 147 69
-56.5193 -3.57259 -2.87016 157 109 47
11.1307 20.1385 -8.67239 132 100 51
-46.2678 0.868645 8.61111 64 60 37
-47.7239 7.04932 -7.14917 99 66 29
8.58565 -9.12897 -15.0103 121 80 37
28.7761 -17.3644 8.04975 166 142 61
-0.313309 9.97356 15.2903 49 39 24
-39.2399 -0.831436 14.3863 54 45 23
48.9766 3.90184 13.6902 64 58 35
37.437 6.82335 -11.3299 128 122 72
-37.2639 20.0907 11.3411 60 38 18
12.6787 7.63992 -10.8418 145 125 59
28.6366 -22.1735 14.4174 63 43 20
-8.15694 23.2074 -7.75404 103 75 40
13.8646 -10.8658 -14.9532 79 70 45
-66.8054 -16.279 -0.622269 32 24 15
11.7205 3.41257 -11.395 144 123 57
-19.5814 18.8844 -11.7385 47 41 32
-37.3704 12.6321 15.5636 45 34 20
69.3014 19.5747 -8.17252 103 101 66
48.1206 13.4098 15.3572 46 32 17
-12.8172 4.5592 12.996 44 36 20
3.43668 6.83108 -15.1094 64 58 36
-20.4597 9.10741 13.1971 65 59 33
68.8822 14.6981 -9.56681 140 123 63
-3.53641 5.2616 15.1657 58 45 24
32.6166 21.2071 -9.86975 148 103 43
33.5434 0.602646 11.0609 66 61 28
-19.7214 21.3468 -9.8049 29 28 26
54.5045 28.6699 -5.75698 97 62 31
23.0732 7.35232 -14.628 130 110 56
-38.1873 1.86294 15.4325 27 22 16
12.1719 19.175 10.5457 60 39 16
36.1496 2.32825 9.90622 41 39 25
6.29199 23.461 5.14082 45 29 18
10.3532 -2.96727 12.261 64 57 30
-46.3682 12.1893 7.49167 57 37 16
-43.5376 4.41401 -11.1232 145 100 42
-26.0757 23.376 -3.63034 45 34 23
25.3217 5.86968 -14.8432 42 38 30
-59.7528 -27.7918 -4.49567 59 44 19
67.3865 16.947 -9.79571 164 143 87
19.0104 -34.2365 -20.1299 100 98 64
63.3273 18.7539 11.4156 30 21 15
22.0427 7.1469 13.8681 56 41 19
56.1067 13.7336 13.8414 63 45 21
-32.7459 24.2149 2.20746 65 42 20
-14.1714 24.4127 -4.02562 63 46 27
-40.3006 3.65146 14.8435 53 37 17
60.7368 19.7166 -12.3077 143 106 48
-16.6255 -3.51492 -10.7384 152 146 78
-49.4693 12.0935 6.32713 65 41 19
-47.7545 4.25475 -8.04858 109 69 31
25.3716 -6.76632 -13.1377 115 121 81
57.2799 27.7132 4.83146 29 23 14
-1.78015 -9.25053 11.5878 61 51 24
-17.5512 25.8345 1.28883 64 42 19
33.5252 24.6581 4.38898 60 39 19
-10.7981 -1.57365 -13.8239 154 139 79
-25.8668 -33.5941 14.4455 62 42 19
21.3334 22.6654 9.43088 60 39 18
-84.6692 -14.9107 -2.65764 117 76 37
28.9955 23.218 -9.73792 113 70 29
11.4351 -3.27857 11.835 65 58 27
20.8197 10.2024 13.0779 56 37 18
36.3513 23.0613 -7.65413 128 83 40
-25.4205 -11.599 12.8335 38 35 19
36.3491 -31.8953 14.2771 50 32 16
-18.6258 18.1638 13.2689 64 44 21
2.2427 11.0057 -14.4886 48 47 39
27.7003 25.486 -6.27432 62 42 21
68.1174 23.0462 -5.21494 45 32 18
-36.972 15.4337 14.8526 58 41 20
21.2048 6.80663 13.6798 55 39 19
59.3895 23.572 -10.9999 132 87 39
-34.6102 13.5909 15.7413 42 32 18
37.0984 8.29544 10.8673 60 49 23
-24.7184 22.6826 10.2744 65 41 19
43.3863 10.4564 10.4383 57 39 20
-42.8405 -15.6811 9.18976 48 47 39
-7.22263 14.4863 -13.7817 84 67 44
-65.5421 -33.0189 -5.36897 19 19 13
59.0008 5.81163 -11.1332 130 139 105
-48.5103 8.92709 6.44243 52 42 20
61.7245 15.5555 13.3098 25 21 16
18.5949 -1.13879 13.1912 55 38 17
-5.02509 22.1139 -8.74709 40 37 31
38.0867 21.7418 -8.66406 81 64 40
-10.1172 24.4448 7.25717 59 38 17
-34.4208 -33.5006 16.0775 30 24 15
-43.087 10.1191 -10.8581 45 38 31
17.5315 23.4106 -5.28894 92 62 29
53.1555 29.6635 9.0755 108 69 33
-38.9389 24.1896 2.07469 68 42 19
-39.4587 1.56167 14.9449 45 33 17
-40.4165 -9.21633 11.2859 50 36 17
-77.0048 -21.8045 -0.0991974 25 21 16
6.5927 6.71327 -13.786 119 103 50
-51.8189 -18.9316 -10.1043 140 116 53
4.74842 6.24612 -14.4809 139 108 48
-20.7991 17.4015 -12.4346 73 59 41
4.26199 -8.49294 11.6642 58 44 20
21.4671 24.675 5.66646 58 37 16
-66.6627 -21.2745 -2.05292 52 44 23
-13.5181 -6.00945 9.47115 70 67 41
7.85429 16.4352 12.4777 62 41 21
74.6329 10.3199 7.24451 70 50 22
-51.5243 -5.24147 -7.59314 79 63 45
-10.3678 5.20217 14.0201 44 35 17
-31.1876 4.37786 16.4985 59 45 23
48.1969 14.6536 15.1465 46 31 17
17.9555 18.2727 11.0057 64 42 19
7.63882 -7.75446 -12.4235 151 122 56
36.0804 -33.2379 14.8079 54 38 20
-48.1488 1.83303 -8.22519 122 80 36
31.2586 0.518692 -12.5198 129 121 69
-26.6709 24.3496 -1.1151 88 57 28
42.9822 23.9598 6.21957 49 36 22
-7.74278 22.8412 9.84657 39 28 17
47.1547 22.7191 7.63107 65 41 18
-31.491 12.805 -14.4393 132 99 44
-64.584 -34.139 -4.74635 18 18 14
70.2023 14.6065 7.33276 63 40 19
-36.0544 -9.55881 12.6037 54 40 19
37.1934 4.22781 -11.1537 119 123 96
-22.4783 0.554263 12.5816 65 64 37
19.8979 0.581039 -15.1239 136 93 44
-14.0968 20.6102 -10.993 49 41 31
-44.5614 -5.40014 7.33167 66 59 28
-21.9592 16.9215 -12.6268 149 106 48
-14.126 14.0428 -14.2174 67 56 38
14.2264 23.3652 4.2874 62 41 21
-75.5282 -20.3931 -0.423431 19 18 16
-28.8495 -1.67068 -11.0864 131 136 94
-44.4579 0.30336 -10.2072 139 107 50
7.26794 -6.91521 -12.21 148 128 65
33.0146 13.8638 -12.7276 82 68 37
2.82555 -1.34331 -14.4445 108 106 75
14.9045 -10.5233 -14.4404 49 48 38
-46.0379 20.5423 0.549538 105 68 33
76.2089 17.1775 -1.83814 108 71 36
24.8011 -15.2022 6.40427 178 176 104
53.1799 24.8174 10.2355 67 46 20
15.2995 19.0138 10.5135 19 17 15
-79.9299 -21.0005 -4.92807 153 109 51
48.8072 25.6673 9.35342 57 35 18
59.9019 16.7105 -13.3111 113 107 59
-54.2965 -21.5218 -10.1064 137 126 62
-11.5926 9.10247 -15.3604 148 111 55
12.5601 23.3635 -4.56223 96 65 29
-83.7593 -16.2766 1.60103 21 19 15
-29.4345 20.0435 -10.4177 122 81 36
-44.7068 -3.04221 9.77414 59 56 34
-5.99576 -8.01929 11.3005 64 56 30
21.356 -9.62731 -14.5695 138 129 75
18.243 -10.3224 12.7576 52 35 16
-62.1548 -6.09998 1.15439 47 31 17
-81.3324 -14.701 -2.10695 93 73 33
1.06726 21.3186 -8.74173 34 33 28
-61.2205 -5.969 -2.58081 112 78 43
1.9877 -4.69743 13.0189 68 66 40
-17.0626 25.4414 -1.2108 78 49 24
30.3116 -0.67415 -12.6761 137 145 93
-37.8593 -8.70957 12.0847 54 40 17
34.6854 -29.5497 8.21223 93 74 28
-21.1633 24.4158 6.32037 57 39 20
