ply
format ascii 1.0
comment Created by Open3D
element vertex 1403
property double x
property double y
property double z
property uchar red
property uchar green
property uchar blue
end_header
22.6801 71.7597 -10.0489 72 73 83
28.9409 25.4321 -35.431 62 65 77
37.9953 -24.3244 -60.9849 30 39 18
38.7771 -24.2643 -47.832 29 38 17
29.6417 -25.8494 35.3983 48 62 15
20.8478 55.2387 10.1282 59 64 75
47.8085 -25.1306 -52.0196 82 82 73
25.8824 30.3364 16.7318 61 50 49
-51.8206 -15.5768 -44.0409 72 50 9
-9.10987 -24.7204 -56.4088 24 28 9
-48.0917 -26.0634 19.3987 16 12 1
-65.9035 50.1771 -1.36867 81 81 83
-24.2803 71.4331 38.7401 80 81 81
40.3404 68.9826 -16.4143 51 54 64
-15.2111 48.8013 1.20413 63 64 79
-39.9698 46.5939 0.433899 0 0 0
17.5042 -25.4426 45.1103 33 40 5
62.7545 52.457 -2.53856 57 60 74
42.6768 49.0697 0.169449 56 60 72
8.97891 -0.77533 -34.2748 34 23 4
43.7574 -6.2701 0.0146561 66 65 69
43.5022 13.8068 -12.1886 42 50 6
-63.1725 27.34 8.92534 80 80 76
58.3985 64.4239 -7.70798 59 62 73
-31.3691 74.0924 -33.4089 71 72 70
-2.04944 49.2564 0.716125 56 58 73
13.7904 -26.2375 12.6933 55 64 30
29.4451 38.7565 4.54765 60 63 76
-8.4669 28.9108 -34.3281 38 46 65
64.2883 -24.3625 -56.5262 30 43 2
25.2871 25.9869 9.87964 61 64 78
25.1127 48.1088 17.2922 60 62 59
75.6681 -25.8952 32.3442 34 56 20
-41.8493 -14.7195 -53.0532 66 42 0
-99.597 -26.3541 -29.1084 26 45 2
22.3893 37.5686 16.4047 74 74 73
55.2824 -25.5896 35.1445 29 45 6
66.3861 -25.4804 38.3889 31 37 27
-77.9594 -24.6028 68.0036 23 40 10
-12.1356 -15.7803 -53.3144 41 17 1
-36.2493 60.1301 14.1925 55 56 73
47.2721 50.8162 -0.576617 37 42 57
-36.5086 -1.23174 30.8805 54 39 21
7.37305 -21.3918 -43.8474 33 27 12
-34.2839 64.4108 34.4321 50 54 71
8.33185 -15.3811 19.4715 57 52 49
-9.25204 -26.0916 28.6382 13 10 1
-45.1412 41.9173 -27.2347 43 49 65
86.9486 -27.1187 -66.1288 30 38 30
59.0985 38.0744 -13.7857 131 103 61
81.8577 46.0356 -30.1116 72 75 88
-73.2015 -26.4827 -26.9588 59 61 23
-64.5029 26.8241 6.757 47 55 23
71.2316 32.8878 -34.9016 61 63 77
42.7328 40.104 3.10345 74 74 71
-14.2178 48.21 30.8573 52 54 71
43.359 -4.4285 -6.24142 74 75 76
-52.8998 21.1612 -55.5882 65 68 80
-20.9869 59.982 -5.09459 44 46 58
1.24766 71.2628 -12.8107 87 87 84
51.0882 68.2443 -8.4491 62 66 78
-16.2377 -27.2501 -63.6796 31 21 22
-32.4318 62.1406 35.4476 106 112 125
75.5758 -26.1536 19.528 42 52 18
-3.01422 32.74 -30.7785 53 57 70
0.192455 -25.6355 29.0186 53 68 39
9.50216 35.8799 -30.7205 24 24 28
50.5245 -26.0637 -13.0759 45 46 72
69.535 -24.9901 -44.8625 59 68 48
-64.2614 25.3343 -15.3575 62 51 30
20.4266 -26.2239 12.3334 47 60 22
-69.0866 -26.6649 -48.8688 62 64 70
13.6285 16.8012 9.5686 49 53 45
34.8482 32.3425 -32.6962 59 62 76
-53.3186 38.3683 -6.7807 50 52 62
-30.3826 -25.2068 52.3279 84 69 32
-89.5606 -26.042 -49.2215 28 43 3
-22.9032 69.1226 29.6963 57 61 75
-17.0647 50.2002 24.6753 5 10 8
-15.0372 -26.3851 30.545 20 19 13
-12.0301 34.1979 -61.5695 74 73 70
-62.7704 -27.96 -60.7625 6 1 1
40.8391 33.1717 6.89392 49 49 64
66.7659 21.8453 -39.2615 69 74 85
16.4771 -2.8984 9.04411 41 26 13
-11.2065 71.1595 -11.8517 81 84 79
68.9544 -26.1229 12.5796 32 52 7
27.9217 35.2062 -30.9449 61 63 78
-50.3066 22.6914 -52.2531 39 31 28
58.6481 -25.384 -37.1638 40 51 16
-62.8391 -1.17855 9.09258 44 28 22
-47.7671 -26.1335 31.4346 28 37 0
51.0619 71.0407 -15.1368 87 88 86
-14.4752 42.0652 33.2574 44 50 66
27.9083 61.6001 -5.2484 60 64 75
63.1417 59.7379 -5.87046 58 61 74
42.1577 25.717 10.0619 59 61 74
0.979408 44.7779 -25.487 47 49 62
-42.7888 45.2631 -22.2873 0 0 0
-18.8568 15.5001 -53.0607 35 36 1
25.6206 -24.2738 -35.1612 37 31 16
52.4046 -25.343 43.5183 25 44 4
-20.0605 -24.6657 29.6534 31 17 5
-10.4288 38.1006 21.6723 45 51 65
-49.4971 -14.7684 15.2511 66 64 60
-37.8444 60.3523 -29.0355 44 47 66
43.1024 -1.35183 -16.8469 50 57 72
-36.4709 59.7984 11.3162 46 46 66
-58.8901 50.3527 -11.9957 26 23 31
-84.436 -26.4458 21.9284 35 41 0
42.0384 27.1281 -35.4164 51 54 69
52.8499 -24.3226 -62.5081 5 2 0
10.4102 -22.5871 -34.8012 46 35 13
-26.1095 -5.00195 -53.0828 62 64 62
-31.872 33.7033 -52.5751 75 54 9
88.8821 -26.2799 -5.17442 35 47 18
-6.0991 63.4785 -17.01 62 65 78
63.1196 29.8374 -35.6593 58 61 74
-23.0853 -25.3277 50.2965 86 57 28
80.3508 -27.0674 52.8665 58 62 59
36.5655 2.36185 -35.3032 38 27 9
63.9513 -24.8612 -47.5168 29 45 2
67.4167 -26.2318 2.44408 34 48 22
1.35629 -25.1116 54.3059 36 31 17
-42.5311 45.7919 -2.31911 63 65 81
-84.3703 -26.3352 26.4301 31 44 7
-22.3634 49.7428 -58.4409 69 72 87
16.7729 55.9425 -34.3627 63 63 61
-49.2527 -6.90553 25.5412 68 66 69
-46.8772 -25.2207 -53.2106 57 46 34
91.0462 -27.224 -29.2766 73 73 69
42.751 -14.6822 -29.9106 69 69 70
37.8661 -19.5876 9.1331 47 17 9
76.8976 -27.091 -54.6631 26 17 11
-44.9104 45.1316 -46.8623 60 62 78
-16.5918 51.8341 17.0784 60 62 79
-21.6405 58.5035 -54.8184 47 55 68
43.0657 -16.9454 -10.5605 61 45 4
-36.3231 62.7017 -17.3262 50 53 71
65.5664 -25.0714 65.3284 47 50 52
58.4466 -26.1626 16.3024 39 43 15
-11.6294 -18.2361 -53.3236 40 16 1
38.1653 46.8294 1.12558 57 57 72
-30.2198 74.3041 -57.5366 24 24 24
-23.3394 63.472 -30.2896 43 49 61
-75.3143 -25.7518 53.1495 55 54 37
-82.477 -26.3561 -35.7847 26 48 2
-20.1216 58.1835 -1.33158 33 38 56
58.8299 -24.6483 59.6469 24 47 5
74.3861 38.4239 -32.7158 69 72 85
-23.7984 68.6202 12.1148 51 56 70
62.7907 -25.2807 44.3817 63 42 3
11.952 17.7709 12.9293 62 59 58
-70.3956 -25.2224 52.7145 25 39 0
35.9826 42.8517 -28.0396 57 60 74
-3.23659 -22.7517 -52.3014 7 11 5
-49.0364 -12.8597 26.2455 72 72 74
39.2493 21.104 12.01 54 55 70
17.5526 -26.2214 14.8264 81 80 38
55.2121 -24.4635 -55.6475 38 37 21
51.6862 -26.2977 2.40893 51 55 85
42.825 -13.4279 -25.3489 56 55 62
84.3074 -26.2721 10.3853 38 56 13
42.7949 -12.2108 -26.5863 56 56 60
-68.4268 -25.6342 42.7236 28 43 4
20.6716 28.0977 -39.0224 66 67 74
-61.7516 -9.52359 9.81122 67 64 58
58.5481 47.8362 -27.2099 57 61 72
-16.572 52.123 22.4124 56 57 72
57.2601 -26.294 10.6818 47 53 20
49.2392 17.64 -38.4757 25 23 23
79.8925 -26.1253 -22.5137 35 47 21
20.4139 54.7244 -21.8492 46 49 60
9.44655 -20.5198 -51.9563 15 12 6
58.894 -25.5559 37.1192 28 41 9
-49.6479 -0.353825 16.5085 64 61 62
-10.2593 -25.3114 49.529 33 45 16
-5.12463 26.9484 30.6704 60 62 79
38.0482 -26.173 39.188 32 34 32
31.1556 -22.8223 9.07536 38 21 10
-49.4543 -8.62451 18.5233 68 66 65
-41.2964 -2.69748 31.0835 47 38 12
61.9083 -25.5846 35.4324 28 34 13
64.1708 -23.7204 -67.561 37 53 11
67.1953 51.2669 -14.9006 42 38 54
-63.0688 -4.05009 5.86666 57 57 55
33.118 -13.69 -35.4129 73 73 75
-56.1445 -6.83083 -31.648 73 76 80
29.6658 -25.3065 19.7855 27 28 21
-64.0068 20.7253 -15.8316 69 69 72
21.5804 54.2726 14.6353 42 39 46
-63.0763 -3.17093 -25.1823 62 61 65
76.3487 -25.8117 33.8243 31 35 20
72.1252 -25.465 -34.2474 26 35 10
89.0859 -25.3578 -38.4663 13 22 0
-23.9499 64.1751 -43.0652 46 54 68
43.0113 -3.94992 -18.2494 47 55 72
-62.4601 -19.1284 5.93176 71 54 29
31.8931 60.0663 -4.62106 58 63 75
-46.9958 -23.9756 30.0048 67 67 61
50.8607 66.1098 -18.235 36 39 51
-52.8749 37.1894 -5.92308 35 9 10
-49.7646 14.0924 24.2887 66 64 68
64.4054 45.1455 -15.889 75 79 88
15.1804 -17.7396 9.08275 64 42 4
73.7287 38.2345 0.406265 97 99 110
-90.2529 -26.5306 20.6893 23 34 8
67.7059 46.5012 -13.2323 78 79 85
-26.1855 -19.6568 29.9706 60 49 40
-51.6244 -13.3088 -39.1055 72 70 70
-34.2 64.6745 32.9215 68 73 88
50.2444 53.6514 -1.84641 36 38 54
-87.9845 -25.5892 48.554 22 39 0
23.1723 56.7287 17.0079 72 73 70
-80.4197 -26.6529 -10.4917 38 50 2
11.183 29.1712 -33.6705 28 29 32
43.2013 16.9991 -25.2505 72 73 74
-25.884 34.3588 -52.735 77 51 6
-62.6593 -10.4508 -14.0812 49 56 70
-19.572 55.6804 37.1933 64 67 75
-51.6355 -1.56026 -35.69 74 69 70
-39.9241 -26.8664 62.4473 70 79 66
-60.1124 -9.34851 -30.9496 80 82 84
-42.6646 -25.0621 55.2805 18 34 5
-48.956 -3.78866 28.709 56 37 10
75.1778 -25.3928 42.7342 33 46 13
36.7124 -7.73667 9.1019 59 48 58
49.9554 -23.922 -68.8843 25 42 13
-98.9268 -27.8758 -44.3912 77 80 73
53.5734 -25.8843 55.4214 3 0 0
-31.8197 21.0239 30.8468 60 60 59
22.074 0.529755 -34.6956 61 60 60
-34.2928 36.3351 31.1275 80 79 82
-74.3064 -25.6268 43.3445 48 64 25
94.35 -26.3249 22.7891 39 53 20
-6.68163 47.2606 1.70697 63 65 80
-31.1982 -25.8846 33.9305 40 50 29
54.9682 64.7987 -19.1846 50 54 67
-27.0702 74.0169 14.2883 80 80 77
78.1638 59.042 -23.9436 55 58 72
-33.4352 22.6731 -52.7078 72 71 77
-43.8289 46.6032 -38.0563 43 50 67
56.5993 -25.8437 -24.2571 101 112 139
86.5341 70.1071 -11.7173 60 63 75
43.5164 25.2922 -19.8886 68 44 8
48.0055 -24.2881 -60.739 13 27 0
92.8617 -25.8228 36.2907 46 61 18
-92.5563 -26.234 -45.8144 64 60 0
-35.1647 -22.8125 -53.1775 40 16 3
-47.7264 32.1206 20.3652 47 49 64
-40.103 -16.1967 30.8461 74 54 11
-0.347565 -20.52 23.9873 31 48 7
-65.1588 41.1974 -16.9735 71 71 71
6.60454 29.5507 -32.5736 49 51 61
28.2598 -23.328 9.04788 41 20 4
-25.601 51.0974 -52.5718 77 77 81
-44.9141 43.4845 -34.2141 59 63 78
56.3396 -26.0517 21.3642 57 51 28
-64.1617 28.5156 8.5522 79 77 75
34.0722 60.0179 -20.1782 54 57 69
87.4323 -24.429 -65.5691 11 11 8
40.1561 -10.4839 -35.2719 53 50 36
-20.8821 25.1802 -52.94 78 80 85
-48.8754 2.83499 -52.742 41 39 19
-11.3707 16.7497 -53.1831 53 27 7
2.92307 19.4634 -36.8693 65 67 81
-12.8158 38.1429 36.2302 62 66 76
-16.3579 47.7803 13.4566 8 9 19
14.8903 -21.4996 -34.8871 39 27 18
71.5063 58.4924 -5.70084 57 60 74
62.5454 61.3782 -21.3849 57 60 73
35.7347 0.0954704 9.14314 71 70 73
50.5042 59.4158 -21.3081 55 56 68
-89.4813 -26.4452 -35.8903 51 41 2
-11.0218 34.1188 -52.9873 44 45 63
-14.7487 47.1161 15.5797 63 68 84
84.6431 60.5351 -7.25813 57 59 73
4.42844 7.57219 9.22675 71 70 72
-28.2486 73.1554 35.8893 77 68 66
-41.202 47.7191 22.3426 62 67 81
-19.1664 52.5288 -59.5392 51 56 70
26.552 26.3193 -34.9058 60 64 78
44.103 -24.1298 -64.017 29 34 12
-55.3529 -8.68861 10.2704 77 78 81
-58.8818 -10.5899 9.79221 48 27 22
-47.6234 32.53 15.9107 59 63 77
-44.9594 42.0716 -25.6252 58 60 78
-63.5201 7.80205 -2.86761 72 70 71
56.3938 19.4837 -39.4186 63 65 79
79.8323 -25.3893 49.2819 18 33 13
-60.3207 49.9746 -4.20779 40 39 44
63.1974 -26.125 16.545 45 46 24
-56.036 -25.7843 38.9543 29 44 2
23.7018 -19.4071 34.8497 48 54 67
-68.5771 -27.9116 -61.668 10 3 2
-0.933506 -25.3823 47.2806 56 65 43
-15.0925 -23.3978 -60.5724 80 72 65
20.7963 55.8382 -0.736628 87 89 88
-24.0949 28.2596 30.6112 64 63 62
-40.4014 36.7929 -52.3438 77 57 9
-27.8456 21.7037 -52.8316 73 73 78
80.7294 -28.3845 7.30948 58 63 63
14.5663 58.2488 -3.6059 61 65 79
89.7351 -25.9195 -24.651 32 35 9
25.8757 -20.611 34.5118 43 47 57
83.9284 -25.3449 -67.6783 30 35 37
61.6816 56.2335 -23.7215 57 61 74
29.2818 -24.5583 33.9998 41 48 61
74.8765 57.5379 -12.8898 38 35 52
-1.77251 -18.9323 11.5592 67 39 12
-55.9296 -25.2977 51.1267 34 44 3
-52.2997 -0.877823 -49.396 42 19 8
-6.75243 35.7323 -29.2375 69 74 89
-51.802 -18.236 -44.7485 40 21 10
77.7518 -23.8147 -65.8724 26 41 10
89.858 -26.3629 0.451553 30 44 12
-71.0512 -26.4559 14.882 44 56 10
-13.0892 38.7305 -57.0604 51 57 71
-14.9703 43.1678 31.5663 67 68 73
-47.9278 38.0967 -48.4847 62 66 83
-21.4764 58.2041 -49.0274 49 50 66
26.4655 2.59554 -34.8095 68 70 73
32.0632 14.8453 -34.9671 65 64 66
73.6784 -25.6234 -29.4513 30 38 7
43.8524 1.34006 0.0431824 69 71 72
-27.6165 72.4875 -54.2493 22 29 46
65.2614 -25.93 -20.322 48 53 77
-21.1707 60.7867 -0.473103 47 45 65
12.7871 -16.7033 23.5458 26 8 5
43.5979 12.0111 -10.0226 38 47 21
16.0696 22.587 -36.1228 58 62 73
64.3483 -25.7782 29.2866 37 46 22
15.586 -11.9727 35.2948 70 69 69
14.142 -24.3729 -61.4458 11 11 14
32.5221 -25.7004 38.1978 28 43 25
-50.5563 8.47715 10.5823 49 38 22
-90.0799 -25.6742 46.6514 15 25 1
9.3537 -16.632 18.7627 67 75 49
23.4197 23.261 11.1074 57 60 73
47.6214 44.9419 1.91754 48 50 65
-33.9422 43.935 -52.3741 69 48 29
-22.7697 13.31 30.4373 33 40 8
-7.64555 -5.21457 -46.5305 72 72 75
-40.2637 58.2866 -53.5433 49 57 75
-49.7167 33.8179 -47.444 62 67 82
24.7139 -16.5982 22.0251 103 100 88
-57.9459 27.5921 -25.0158 19 5 7
49.407 -23.9228 -66.0764 33 48 9
58.3889 23.935 -37.7594 50 53 67
4.53762 57.6606 -19.9244 33 32 44
-31.8653 72.5803 -0.470108 50 51 68
12.8909 -20.3363 23.47 0 0 0
86.9666 -26.0121 26.5948 56 67 9
43.688 17.3345 -8.76382 65 43 8
-45.8275 36.3985 29.1431 52 52 69
83.292 64.4179 -8.9264 58 62 74
82.9241 45.2163 -0.190408 44 45 56
-51.9162 -11.44 -44.553 80 78 79
43.1047 4.69263 -20.655 63 63 68
-33.3356 69.5157 -9.29866 59 63 76
-56.1298 -25.5852 -52.3792 32 26 4
42.3184 67.6767 -8.02874 59 62 75
62.0808 54.6004 -24.4865 58 62 75
43.8334 -24.6327 3.19224 18 2 1
-8.91394 29.0754 -59.9638 55 62 73
-45.9887 -8.45575 31.1564 50 30 15
32.6742 30.5561 7.98449 61 61 75
-7.75449 -26.6808 -64.1735 46 51 47
37.2236 -25.9018 30.0201 29 46 18
-19.9388 54.462 -58.3494 47 49 62
29.5385 -24.6402 60.7462 8 38 16
64.1082 -25.8889 26.8321 69 61 12
31.9754 -25.2819 47.6714 47 52 23
-63.9921 19.2625 -12.9103 53 32 9
-21.323 -24.7271 -56.6842 33 25 19
32.2463 -1.08733 -35.1292 76 75 77
-21.8468 63.6117 10.5446 36 43 58
-42.2353 50.1922 -34.3393 32 36 53
73.6667 59.1698 -6.10237 55 59 70
-7.47278 -15.3739 -44.0056 65 43 5
90.0811 -25.549 -35.4011 26 41 6
70.9782 -26.1627 10.4932 42 58 4
-84.7441 -27.1949 -1.92803 47 46 48
-64.0883 -25.9387 -45.8825 70 57 14
-69.9469 -25.537 45.5476 20 35 0
61.8737 63.6335 -20.2816 57 62 74
23.3066 -25.0253 54.6526 15 27 11
-15.5878 33.7292 -53.0047 69 68 75
12.653 37.9696 7.33265 58 63 82
45.8175 -26.2528 11.8101 34 45 26
-27.6949 74.2892 -18.9923 46 47 57
-62.1307 -10.4366 -3.30052 34 34 39
16.5989 -20.4359 -51.6006 9 7 10
72.0072 -26.212 56.7001 56 58 64
43.22 -4.57026 -11.652 53 59 69
21.2001 51.4866 14.7332 63 65 70
-36.1803 60.0121 20.5965 62 66 80
-39.2272 14.0955 -52.7773 69 45 3
-75.0314 -26.4954 -27.1147 39 31 22
38.9058 -26.1005 -34.3978 19 27 14
40.7018 -25.4563 57.8486 5 6 3
34.9775 -27.9049 63.9178 9 20 13
78.0683 36.2778 -32.7866 45 44 42
-26.0333 70.0815 -27.8572 43 47 62
54.2868 60.1244 -21.2861 54 57 70
-62.352 -13.6743 -29.3461 48 28 21
42.1536 -25.515 40.8175 33 35 7
99.2645 -29.7317 21.7986 14 37 22
62.9245 57.2352 -23.3504 52 54 71
-59.8033 -18.2935 8.3638 60 53 53
42.5073 50.0668 -25.22 52 56 70
64.6581 -24.9085 53.5356 25 43 5
22.1155 40.4693 -39.6004 76 76 79
-4.56053 -23.535 -40.8785 29 21 10
-63.6522 56.2652 -12.3284 42 41 47
88.5341 -25.7324 37.277 26 42 16
-92.4369 -25.4702 50.9743 35 50 0
-51.6289 17.4684 -50.0607 69 68 65
-27.6183 1.20895 -53.0408 44 24 0
-28.8538 -25.5504 46.1132 94 69 37
15.8531 53.9647 17.382 64 64 61
45.0586 24.8505 1.29498 37 23 11
14.9295 -24.093 -39.9673 18 20 7
11.324 48.8141 -25.1188 26 28 32
31.3418 -24.0089 -41.6358 24 34 14
92.5451 -26.1188 26.7043 36 58 18
43.1759 0.650261 -15.0918 50 57 71
-88.3407 -25.3469 53.5036 23 38 2
22.4334 53.4268 -37.6453 58 61 71
1.33885 -15.3397 -34.4484 71 72 74
9.68954 43.0728 -34.2365 20 21 24
43.7785 11.5998 -2.44804 31 29 9
19.5484 44.3038 -39.4231 76 77 79
76.07 -26.3192 -0.635124 32 38 15
28.3076 -27.1678 35.1022 9 12 8
-43.3754 42.6394 17.1726 48 50 67
-39.739 -2.04643 -52.9341 47 50 48
-16.1262 -16.6139 -53.3257 45 23 8
2.00369 -25.6578 40.6253 31 32 13
-78.0378 -25.7565 -51.6936 65 42 7
50.4597 50.086 -25.4967 49 51 64
-39.4549 51.7591 29.8689 62 67 81
-29.483 15.5304 -52.8769 38 28 2
-62.5615 -16.7573 3.90565 68 68 71
48.7422 53.9274 -23.8184 50 53 65
-12.0401 65.5731 -15.9214 69 72 86
-21.655 64.4586 19.5899 48 53 67
63.7603 71.4926 -12.5148 81 83 80
-8.6161 29.0044 -40.194 34 41 61
-62.3541 -18.541 -6.59955 67 57 37
-19.7413 -27.9257 -63.4528 0 0 0
-91.8794 -26.6314 -3.99927 18 20 4
14.3277 54.5492 15.4498 63 66 79
28.4165 40.9214 7.43802 69 67 80
-31.4884 29.0992 30.9065 80 80 83
-37.0198 61.1721 -19.2616 55 61 77
-62.8455 -25.7272 40.2657 40 51 1
79.6882 65.3738 -21.1856 63 66 79
-23.0782 64.3296 37.6409 54 54 66
-20.8636 58.1541 33.8161 55 58 68
-3.45589 -2.50734 -34.0831 61 61 65
-59.5048 36.4168 3.48047 44 33 35
-31.6738 74.4247 -22.097 62 64 72
-44.7372 34.305 39.3687 72 73 80
-19.5472 -25.6558 43.0895 28 54 9
43.7629 9.66473 -4.72983 68 48 10
30.2251 -26.1409 24.3314 44 60 0
-21.404 58.9647 -29.5096 39 39 58
42.8727 -1.03352 -30.3708 33 14 5
-39.9011 52.3852 -2.46278 62 64 80
-28.3892 73.3661 27.4126 77 76 66
22.8015 55.0947 4.63146 71 70 84
26.6484 -21.4187 9.06613 36 27 5
5.92151 58.4015 -3.47018 50 52 67
-68.7913 -26.5389 -18.2657 46 60 0
31.623 -24.4799 -35.3767 31 27 13
-2.17957 33.9348 7.02689 64 65 80
63.274 -23.8351 -66.1586 41 57 0
-39.9562 -4.76508 30.9907 74 73 71
42.5913 -8.46568 -20.3868 37 42 53
-65.3933 -26.5326 -16.7113 33 47 21
61.656 46.2129 0.203613 44 41 59
-19.1356 17.5228 30.3096 73 72 72
-19.0124 -14.7713 29.9806 74 75 76
-55.9803 0.582962 -31.3114 75 76 82
-53.4368 18.3861 31.6466 54 58 71
-49.5657 -18.3413 12.96 48 25 3
43.0853 -12.1299 -14.5979 46 53 67
-27.6991 -25.7794 38.5422 31 52 18
-34.9974 64.1108 1.14236 63 66 80
30.4823 46.2431 1.414 64 66 81
17.808 29.1017 -39.4614 73 71 78
33.3207 -22.3555 -47.8979 28 37 21
33.1035 -24.9239 54.4724 27 37 3
37.4152 -19.2648 40.0426 33 37 48
-16.0117 45.1831 -59.5284 40 51 68
-50.3097 28.9652 -20.3353 41 42 53
-6.58839 9.05022 27.4596 72 72 67
79.1023 51.6151 -5.84026 56 45 61
24.944 63.4888 -18.1689 54 56 68
-45.4763 -11.7164 -52.9894 72 74 80
-51.4262 6.44064 10.5998 76 53 42
43.8815 23.4572 -7.11665 70 69 75
-75.2763 -25.6795 -52.6935 33 46 4
-35.6076 60.943 36.3871 67 74 89
78.7461 59.8182 -12.3362 38 36 53
67.75 43.6391 -11.7355 50 43 41
-51.5563 -25.0059 -44.5379 60 36 13
-52.3726 32.4431 -2.79633 44 36 42
-63.3635 6.53457 -25.7979 69 65 69
28.4714 -13.5989 9.02251 67 66 65
38.8518 -26.2332 8.96295 27 26 6
-11.2287 64.261 -5.32818 53 55 68
-51.0396 24.1902 29.7203 57 58 74
-10.7567 33.2892 -59.2296 34 43 55
-50.7252 28.899 -28.3996 42 42 60
4.3597 2.97626 9.19469 69 67 69
76.5739 -26.1685 -10.9353 33 45 15
31.5318 -25.8086 -37.6158 16 23 7
25.0343 56.02 -21.5242 56 59 72
-10.1225 35.9176 9.85963 55 62 76
30.3516 6.67329 -34.9193 71 71 75
-23.0923 70.7302 37.1186 50 53 67
43.3063 -4.16267 -8.92651 67 67 72
-50.8503 29.7578 -37.7736 40 41 58
42.9655 -3.50919 -22.3533 38 40 59
-33.3907 -10.7693 30.6342 76 76 78
76.4482 53.3339 -7.70137 59 58 72
22.2041 -25.8866 31.8976 22 14 10
-18.2089 31.4363 30.3822 73 73 76
-16.8768 47.7521 -42.5415 46 51 67
77.0947 45.4171 -3.10204 56 55 66
51.4246 -25.9376 27.0221 23 42 14
19.3648 18.9971 -37.6099 62 65 79
77.362 -25.763 -57.2753 51 49 51
58.2396 23.9583 7.42262 61 48 63
36.7821 54.9909 -22.6228 55 58 69
-2.74346 -24.9764 56.0489 39 52 15
-6.88733 67.1788 -6.76434 53 53 69
-33.944 -4.3126 30.7305 81 82 84
43.1878 -11.9688 -11.6915 45 52 66
60.1478 41.6808 -26.8381 1 1 1
-22.937 -25.4194 48.171 85 56 21
68.8408 -26.0542 -15.5656 99 80 52
-53.6878 24.2185 -45.1518 60 67 78
64.6381 20.9481 8.49313 85 85 93
-63.4912 29.5308 -26.1102 82 80 77
53.5473 -26.0215 25.3759 30 37 20
43.9925 -22.6708 5.92218 36 20 17
-57.3563 40.8125 -18.8683 35 35 42
-63.2171 -0.160553 1.98636 65 68 71
-48.29 -25.561 44.1469 70 36 40
77.9712 45.3738 -30.1092 48 46 62
53.3994 67.7239 -9.0571 59 63 75
-23.6232 67.6078 7.41872 36 39 56
-15.4422 -25.3314 49.8749 32 58 12
13.1852 47.1073 10.2338 83 89 104
26.2974 38.3446 -39.8345 89 89 110
-71.5147 -26.5801 -19.8595 63 62 21
-31.5415 73.0767 2.89137 64 66 84
-18.1157 -25.593 44.5042 34 50 6
-85.5159 -26.3659 -36.2604 22 41 5
12.2822 -17.3297 9.10048 62 41 2
29.5413 -21.0439 9.04383 44 23 19
85.7986 -25.8213 32.4048 29 39 21
-54.5046 7.43497 -31.3949 45 30 23
82.5309 -25.3941 45.7499 38 51 5
54.3148 -25.2115 -41.7679 37 47 27
-63.3564 5.1559 -23.2365 71 69 71
-16.0657 45.5343 -51.2665 58 58 55
-42.0249 37.8218 -52.2565 70 73 82
66.6183 -24.3349 -56.4231 24 43 4
0.104309 -22.261 -41.7171 25 21 7
13.5295 53.1512 -22.3139 31 32 38
-10.8727 40.663 29.4303 68 67 64
70.0426 31.0596 6.65463 63 66 78
11.9372 42.6958 -41.0842 59 58 63
-7.5627 8.57744 -39.5947 69 70 72
-30.3455 74.2137 -4.74386 73 73 69
-2.07845 22.0209 -35.5068 61 67 79
-51.0234 25.0603 7.6656 41 43 57
-3.07796 -12.9478 -34.2963 71 71 72
-19.5495 -25.2402 52.1675 28 50 8
-65.9171 -26.2925 -31.914 39 49 3
-53.3596 19.5941 11.8227 72 73 71
51.1979 -26.0233 24.5077 28 44 17
26.2336 -14.2732 36.0835 44 50 62
-3.43239 -10.4916 -34.2171 87 88 92
-76.2951 -25.8628 -48.2684 25 43 0
-63.8024 13.5986 -4.18597 53 60 38
6.05357 -17.4034 23.7886 70 49 3
43.2069 6.11926 -13.4706 74 76 79
68.4585 -25.8867 25.8426 24 50 17
-52.4797 8.72784 -47.6086 46 23 9
-5.24847 21.2495 -38.0962 58 60 79
-36.6485 62.2633 -20.2809 48 52 70
38.8954 -25.9639 25.9511 29 36 20
96.4761 -26.3702 19.439 49 47 20
-25.5864 39.1524 -52.6615 77 53 2
-36.5446 30.2853 -52.527 58 67 39
21.2114 20.519 12.2906 41 42 58
-16.3909 63.7801 -4.97864 34 35 45
-49.3502 -7.66862 22.7165 59 56 60
46.3196 52.1787 -24.5041 44 48 62
-30.9642 -24.2354 30.1184 48 31 18
30.0068 51.6295 -23.7239 56 59 72
97.9818 -29.7109 9.75371 24 35 29
-83.8908 -26.3616 -34.5828 34 45 5
-14.1094 -5.03347 29.925 71 73 72
77.1974 -25.412 -36.3715 28 46 7
73.6061 -25.6183 36.3282 35 42 20
82.2803 43.2448 -31.1923 82 86 93
-51.7172 -16.469 -42.2648 56 28 3
-4.90762 -26.0357 28.0549 109 109 103
-5.28785 6.67828 27.545 64 53 45
-23.3517 13.3294 -53.0051 68 44 0
-51.0917 30.4912 -2.10925 43 44 52
43.4361 21.1787 -19.0654 71 73 79
5.79217 -18.8652 53.545 90 74 39
-7.61938 32.922 31.8006 59 58 75
36.9185 -21.8137 9.13082 45 24 4
-84.5968 -25.5623 46.6269 27 41 2
-71.1357 -26.0746 -44.8678 33 42 25
57.0791 -25.8833 -21.2148 53 56 79
16.304 54.2745 -0.71376 79 84 102
22.3932 47.4642 15.1213 73 75 82
-7.48787 25.5459 32.5274 35 39 55
60.3235 -24.611 59.3827 29 51 5
-48.5929 -7.222 -52.8573 60 62 42
-54.7044 -10.9351 -32.043 46 29 30
-22.8169 62.924 -20.753 44 43 63
-37.1024 61.6311 -24.2895 52 55 70
79.0455 -27.5726 2.25004 56 53 55
-36.0246 69.7477 -55.7382 55 61 76
-87.0879 -26.6291 12.1916 23 33 8
-51.2994 -19.169 -34.5208 52 25 8
6.88229 -24.8761 59.6821 28 41 18
42.4431 -26.1095 -6.1433 14 33 1
46.0093 -24.6457 -54.1685 42 57 15
-5.45407 -25.1989 51.8149 40 59 17
43.632 19.3594 -1.12721 58 57 61
1.52234 54.3212 -21.2614 54 56 67
67.7695 -25.3305 42.2878 39 47 48
88.5069 -25.833 32.7757 31 43 11
-37.0422 59.4105 -55.4159 66 67 81
-66.2752 56.5924 -12.0811 86 82 87
26.2487 -17.0625 30.27 52 62 76
-46.8667 37.2295 -25.6931 70 69 85
-30.1723 31.8008 -52.6151 74 75 78
-27.5994 73.4543 37.2085 88 81 80
25.5948 39.9833 -41.03 92 90 107
-7.56798 13.2534 -34.0188 46 29 1
-10.4092 50.4592 0.462151 49 51 66
21.2726 23.3939 11.0622 56 58 72
-39.9228 53.272 -13.5675 59 62 77
-12.0025 46.4225 -23.9426 63 67 81
-7.58067 -9.40411 -48.3824 72 72 75
-14.1767 -25.8849 37.6128 37 47 24
67.9334 -26.0972 21.294 27 39 22
-45.0467 37.627 3.9662 61 63 63
-42.0469 4.34946 31.18 76 73 72
23.149 60.8551 -4.8922 62 65 78
-15.2128 55.9241 -2.53714 57 56 70
53.4301 25.3847 -36.7278 61 64 77
-4.748 52.8208 -0.742203 62 63 78
17.3088 -25.9261 33.2652 10 23 7
-17.4051 49.6591 -24.9821 36 41 56
-63.1204 29.9714 7.75279 83 85 84
-51.601 -25.9031 35.2518 50 71 23
-73.0167 -26.606 -11.7285 59 61 34
68.7499 19.7511 11.5478 68 72 84
72.7918 54.5804 -12.7724 38 33 50
49.1457 -25.9203 -15.0662 52 60 86
24.3418 47.2072 -25.1079 52 55 68
-13.772 33.0049 -59.9924 68 70 82
44.0127 -25.1625 56.8892 48 58 35
-58.8248 41.0284 1.60757 53 48 53
55.8816 -25.426 -36.1622 49 54 83
4.92367 45.5266 2.0583 43 44 58
-42.6042 46.8958 -15.9356 57 62 78
-52.6714 15.2436 -48.7611 44 28 20
41.144 -26.1804 15.953 33 34 12
-51.6986 24.4354 -58.5801 78 78 85
-54.6702 28.7237 1.13895 41 36 42
-26.9476 -7.17216 -53.0639 46 38 5
-33.7785 68.5792 -11.6029 61 60 78
83.0062 62.3924 -7.94861 56 60 73
20.5201 11.5862 9.20755 68 62 33
-29.5437 10.8239 30.6598 71 56 45
-49.555 -20.7749 13.5236 46 27 18
-49.3148 -20.6173 24.014 43 19 8
14.1011 46.6237 1.08151 61 64 79
68.708 28.0395 8.01976 63 66 79
-45.3843 -25.4079 47.7563 38 45 7
53.9859 53.9822 -24.1006 54 58 70
-7.62502 20.0645 -55.2771 57 60 70
41.8181 -14.186 -33.2706 77 75 72
68.5513 -24.6975 58.0189 27 54 4
-46.5311 27.9652 32.6734 96 94 108
22.4719 -9.8932 8.95656 34 23 13
-62.7472 -2.0705 -13.0651 54 60 72
77.2736 -24.0773 -61.0055 27 40 13
47.5331 39.4075 -30.3126 56 59 72
10.2407 -23.9627 22.8932 0 1 0
-21.7798 59.5128 33.1245 56 53 64
-33.3294 68.359 3.22975 65 66 80
-28.2735 73.9037 -7.94677 72 72 70
-48.9081 -6.96146 28.433 40 23 14
94.2632 -26.1978 26.4069 42 52 24
-44.3124 48.451 -55.3615 60 65 79
34.4497 36.6302 -30.7116 44 47 61
19.8908 -18.3303 9.04306 58 42 5
-18.3456 52.3851 -21.0526 32 35 46
-37.5853 64.1466 -46.9172 56 61 75
-43.4016 13.9246 -52.7279 68 43 0
62.6132 -25.7618 31.6825 23 30 17
-26.7792 71.5115 -32.6118 30 35 52
7.86926 -0.081646 9.14035 60 55 60
4.64063 -17.7689 9.32097 23 2 0
72.6551 -25.9816 -18.7045 38 46 22
57.8448 -26.1636 18.7849 50 50 22
37.2005 11.8067 -35.256 42 25 15
-52.033 -8.35326 -45.6436 77 77 76
63.2019 32.5757 -3.14586 67 67 73
61.2595 -25.3495 -37.1564 27 38 17
-39.4132 55.7311 -23.8001 56 62 76
-35.1336 63.3886 7.21379 60 64 82
-68.9387 -26.607 1.79128 33 44 16
69.4552 -25.7731 -26.2693 39 46 5
-21.6617 -25.6316 45.4476 58 30 2
-93.6657 -26.0644 -53.1299 22 36 1
29.4029 -12.7456 36.4519 45 51 62
-21.4214 35.9683 -52.8332 74 75 77
-63.5092 7.60543 -5.28345 64 67 68
-55.8912 -25.6516 42.5382 28 47 16
-59.6284 1.42679 10.7736 50 37 35
45.5533 64.4968 -18.7924 53 56 65
29.4956 -26.0762 25.6873 31 36 20
-57.806 16.1873 -30.7442 80 81 81
-64.7781 31.299 0.810181 71 69 73
-0.213307 -19.7672 13.475 73 46 31
69.0101 36.7532 4.18332 59 63 76
-13.9925 50.8706 0.209358 61 63 78
28.9647 70.8161 -12.6275 94 91 82
41.2872 -10.0511 -33.2116 78 80 74
-63.6944 18.4364 -25.8869 46 30 32
-65.6164 64.2664 -5.78816 87 87 87
-40.3568 57.8431 -52.1096 43 39 55
-38.1352 59.4338 -27.8828 58 63 79
-64.0824 18.743 -2.04631 66 64 67
52.2197 37.9243 4.25204 64 64 70
11.5007 -7.27728 9.06183 44 24 5
-11.8206 40.8969 18.4397 55 62 76
-56.5902 40.8575 -17.4824 36 37 46
-79.0801 -25.8662 -49.0038 43 44 43
-0.524974 -25.2458 50.1579 39 54 19
-63.6776 16.2654 -24.041 68 68 69
-42.9871 44.0568 8.06447 60 65 78
-15.235 9.52866 30.1335 72 74 76
61.5584 37.5425 2.18911 70 72 70
-15.0621 43.8316 -36.3223 44 49 66
-7.61911 -1.91925 -34.7999 64 64 63
13.1563 -21.8201 -34.8457 39 22 16
-39.2202 9.05524 -52.8278 74 75 77
36.4496 64.8175 -6.70966 58 62 74
-38.8131 61.68 -50.95 55 62 77
5.77958 23.8624 11.1349 57 61 73
68.1573 55.2068 -24.6836 60 64 76
71.9122 -24.1993 -59.7953 25 45 10
59.8906 -26.2197 -1.89493 54 62 91
-41.9267 20.6367 -52.6183 74 51 8
32.8909 70.8773 -9.49563 58 62 77
75.7238 -25.1376 -42.158 45 55 8
69.676 -24.9516 53.5421 22 41 8
-6.959 8.29838 -33.7374 52 38 28
51.5069 60.0169 -4.86197 66 68 79
-6.51249 28.8503 19.7814 62 67 83
-63.6886 14.8591 -20.4111 67 70 69
-42.3481 -25.8175 36.4958 20 44 0
-28.0276 -1.11234 -53.0591 58 39 43
40.0213 -3.98039 -35.326 35 23 17
-45.218 -24.8285 62.4686 26 39 10
-21.369 18.6798 30.4139 43 28 9
43.355 14.5785 -17.7636 55 49 0
-62.5583 -12.9303 -10.3676 52 59 72
-9.33977 45.2085 -24.8733 52 55 69
70.0561 -26.154 21.6886 35 53 17
-62.5491 -23.131 -27.1042 45 26 17
-65.3197 41.7759 -12.61 63 60 62
-8.70455 35.3881 31.5183 63 67 81
-48.6734 30.1231 14.7898 59 62 78
-42.525 -17.6879 30.9069 55 33 8
-49.2151 21.9515 38.7492 96 98 110
-21.5565 58.4575 -45.6547 31 33 50
38.2248 -26.1285 23.3373 37 37 3
83.1418 43.9895 -30.0902 81 81 79
14.1745 -25.2561 51.736 33 43 2
-34.4456 33.7828 -52.5157 78 54 5
15.7769 -20.8059 23.365 24 25 7
-51.911 -4.95415 -41.4646 72 71 74
53.0657 -25.4879 39.2957 22 42 14
-79.6424 -25.8894 37.2439 19 33 5
-38.4983 -3.63612 30.9379 50 35 26
11.9074 17.89 -36.3869 84 85 85
-38.784 58.4555 -32.1174 37 43 60
1.18676 18.7016 13.3384 62 65 78
69.8043 36.6926 -0.692642 64 65 72
17.2361 19.0757 12.9217 55 57 70
-20.9972 61.1266 6.7275 52 56 72
-32.9671 39.7313 -52.4472 75 54 2
-10.3554 32.5188 -56.1901 40 48 64
20.8048 22.0817 -36.5191 62 66 77
29.8575 -25.9055 30.801 44 56 11
-26.0623 14.4195 -52.9471 68 46 2
-65.3866 41.3394 -6.40779 69 49 21
53.6541 -26.1937 -6.01009 51 59 85
43.3063 21.9562 -26.1275 71 56 20
-30.2333 74.1259 36.276 76 80 95
-26.3037 -20.0611 -53.2241 30 7 0
56.7479 -24.5307 -69.6701 56 62 51
-63.1417 3.09887 -3.46313 68 68 71
-23.1391 63.904 -18.3752 37 45 58
12.4431 -22.5634 37.2718 54 61 76
-26.8638 70.9276 -47.178 32 40 56
23.8271 49.9279 -40.3162 48 54 65
-30.6729 73.5572 30.677 73 79 91
-10.3553 54.3107 -1.20132 51 52 66
-38.1417 54.8349 33.6714 63 69 83
40.9112 46.6487 1.19554 47 48 64
-54.246 -25.4839 -53.5501 39 44 10
19.9746 65.0959 -17.2226 48 48 62
43.0675 7.74597 -25.3054 70 70 71
-62.7243 -3.74538 -12.9874 51 58 71
-26.4495 -25.5238 46.658 89 67 25
49.9144 -25.549 -34.8619 44 52 78
19.7458 13.5013 9.24535 66 66 68
-37.0905 59.857 -9.28371 58 64 75
-42.7844 -9.24967 31.0628 80 79 79
-15.9396 45.306 -47.7856 26 38 55
-64.7532 -26.4205 -24.8023 33 45 3
79.1914 49.0234 -4.71871 67 67 79
-64.8148 55.9545 -2.61512 83 81 80
-74.8543 -25.8345 -63.1041 38 43 28
33.6755 -24.6209 22.9012 19 31 3
-10.5541 33.522 -37.0128 50 55 73
14.7047 48.8331 0.920792 76 81 97
39.4306 35.3598 -31.579 58 61 75
-5.26014 20.7064 -50.1142 50 53 72
43.0824 11.7487 -27.9693 30 37 3
-87.2965 -25.9377 -51.0334 35 47 6
69.0977 70.909 -16.3484 85 87 82
85.6746 -25.5766 -31.5432 27 35 5
-3.08697 44.9417 2.56146 54 56 68
-17.7259 -26.0194 38.5352 35 55 12
-5.93358 22.8273 -42.4878 52 59 74
-64.2029 20.4694 5.55234 67 48 21
64.5512 30.9858 1.43583 43 44 55
-54.5386 38.3988 -15.1234 48 24 13
-0.276593 49.9992 0.337288 59 61 72
5.66998 -25.3568 47.4397 37 38 20
-30.2944 29.6861 -52.6625 43 54 6
-36.7397 65.0402 -39.7968 57 62 77
-70.5526 -26.6197 -11.381 58 66 5
-63.4799 11.5128 -25.2917 62 46 34
62.6008 -24.8797 55.2198 29 37 5
-18.9812 41.8903 -52.8814 81 82 86
43.0058 1.51008 -24.4789 68 70 72
-6.35499 23.5058 33.2513 68 71 80
-80.2392 -26.6565 -0.181747 32 43 9
16.9373 49.7812 -39.1843 74 71 74
-52.9184 19.4688 38.6756 56 58 77
-33.5713 64.1656 39.1086 78 78 73
-9.53143 28.6919 29.8154 74 77 86
86.8845 -26.0071 -18.931 21 45 12
27.3193 20.4007 -37.5083 44 47 62
19.3919 68.7941 -8.26909 63 66 78
-44.2977 41.4818 -1.15243 63 66 81
-25.1731 68.5499 -20.4524 44 45 62
79.6034 -26.2474 16.299 95 97 91
79.0642 54.5964 -7.19475 84 85 97
74.569 -25.3433 44.1499 23 48 13
-40.9921 50.5904 -13.0469 59 63 78
73.6911 -24.5445 -53.7567 29 46 1
-23.9146 70.4152 22.5013 43 45 61
10.3026 35.9447 -33.9817 25 26 29
-45.7984 -26.9333 63.5111 71 78 66
43.9242 30.8334 -9.34825 71 51 24
36.0209 45.1036 1.88058 50 52 66
43.3887 12.3801 -15.6221 28 39 0
43.0815 -18.3081 -11.473 60 38 7
-37.7463 63.1602 -43.9414 41 49 65
-53.8856 24.7318 -52.2915 43 47 62
42.3237 -16.7452 -33.357 70 55 35
-25.9644 1.53766 30.4467 50 56 74
5.50494 16.0407 -33.9652 63 58 51
-88.4218 -25.9271 40.4229 18 23 9
-51.9623 -17.5646 -48.0365 62 32 3
-49.399 -23.684 23.3845 34 16 13
-82.139 -26.7732 -64.2179 4 4 4
-45.0388 4.76794 -52.8326 72 76 79
13.6625 52.9243 -35.2563 63 65 76
23.4986 30.936 -39.5049 61 60 63
-7.30875 -9.03573 -37.1478 61 60 64
-93.7467 -26.1132 -29.3242 16 31 5
-63.2161 -25.6088 43.3729 19 32 3
-49.5522 28.0738 14.8131 50 52 67
63.781 35.4909 -6.9361 66 65 72
-86.3245 -26.1927 -42.4634 33 43 5
-16.4994 56.1984 -3.50645 56 58 72
25.1774 33.3485 16.4811 58 58 50
-48.1347 35.9274 -6.11967 66 72 81
76.3744 -25.2686 -39.4187 42 46 17
-22.4777 61.7941 -25.5798 36 42 59
74.6381 -25.5538 37.7795 37 52 14
-25.3629 7.38066 30.1871 37 31 35
30.9198 -25.034 63.2063 34 41 28
-81.538 -26.6932 -4.46296 29 37 9
-39.2047 2.0001 -52.9192 43 24 1
-14.5459 42.307 -42.153 45 52 66
80.4023 65.9031 -9.47209 58 62 74
94.923 -25.9742 31.5329 41 52 20
-51.6411 -22.4138 -42.9797 50 31 20
43.5365 9.08815 -9.30899 62 49 58
71.3518 -25.9299 25.6701 34 46 19
35.6482 -24.9154 55.8802 24 42 0
-48.0018 -25.4326 46.9789 74 24 25
15.0968 -18.5802 35.1594 38 45 58
-1.58871 15.8262 -34.4225 77 79 81
23.1559 20.6415 -37.2115 64 67 79
47.2462 -25.8408 -26.4212 62 66 91
-49.579 8.22192 24.6202 69 69 70
23.9442 48.4417 -27.4205 38 41 54
24.1234 41.5024 -39.1925 54 53 67
9.98162 45.7677 -39.4601 99 99 99
-63.245 17.872 10.4682 57 37 29
7.98432 -6.00546 9.11425 53 57 39
-54.0339 -25.2451 65.005 44 50 36
-33.1249 -10.86 -53.0492 66 64 53
62.4136 41.2539 -30.4021 51 53 65
29.2288 43.1226 -27.5407 54 57 71
-2.49614 48.8583 -23.4878 55 57 69
-7.65073 15.3164 -39.7126 72 73 75
-31.7682 71.0408 27.3695 64 71 87
-12.2708 0.221642 29.9105 63 63 68
-30.3226 74.0056 -14.0897 72 73 69
43.7825 32.5593 -33.0979 39 40 56
-22.9336 65.0858 -13.6367 41 41 55
-70.9697 -27.1208 30.9172 47 48 45
7.45251 -28.1816 60.919 21 24 24
38.2631 17.5481 -37.4916 38 29 35
-51.7701 3.4729 -50.4275 71 68 62
17.6794 7.30956 -34.43 68 67 68
1.90606 47.0437 -24.5057 54 56 68
20.2091 1.83713 -34.5926 69 69 74
-63.5031 10.6919 -23.8162 68 34 20
-1.77772 -14.6905 -34.3618 70 72 76
43.7067 6.54485 -4.21737 69 69 70
-35.1056 53.3254 -52.2566 82 86 90
-13.997 -25.7692 59.351 62 63 59
44.2672 43.9604 1.47531 65 62 60
29.7878 -26.1352 17.8963 43 41 35
-45.0502 39.0321 -56.104 64 67 81
86.2059 68.3361 -20.4041 67 71 82
-37.5029 56.3888 35.4242 67 70 85
9.3232 18.4718 -37.1069 56 59 69
-5.46005 19.1471 -55.4111 57 58 55
-41.3613 14.0768 -52.7478 68 46 1
23.208 50.9323 -0.317802 47 49 59
36.1944 -23.7612 -53.4752 30 43 18
18.2413 -20.6168 -46.9216 30 51 19
-74.8406 -26.2484 26.3411 36 54 1
-51.3376 -12.788 -33.1746 69 68 70
-9.79943 36.9576 23.8507 58 64 78
-26.3373 60.0494 -57.2864 72 77 91
7.25489 -11.6689 9.1396 63 60 63
29.7375 40.5657 17.0192 77 79 96
-39.5784 51.9182 17.8496 60 64 79
-30.5938 -25.0091 55.9436 80 63 29
-24.3932 66.2093 -26.4807 30 36 53
66.2545 29.8422 4.4393 66 64 77
-5.02694 -17.9768 -34.4093 70 49 9
43.066 3.81071 -23.1575 70 69 72
87.1649 -25.8315 -25.0336 24 28 9
92.1016 -26.3794 -7.41745 38 38 23
-94.1308 -28.2283 22.8631 117 115 112
-65.8297 49.801 -12.7531 71 71 76
-12.8863 53.0423 -0.626495 61 62 74
79.72 -24.8863 -47.6288 25 30 3
12.0809 -22.3766 33.248 66 76 95
1.19176 -23.1105 52.3202 44 38 9
25.9033 24.2726 10.655 49 52 65
-34.8038 65.9643 -11.436 59 58 76
-94.5677 -25.2036 -23.7352 16 33 0
-65.8241 65.9973 -9.34218 89 92 90
-10.9951 -24.8687 -55.3531 42 46 14
-62.6593 -14.1285 -18.7872 69 70 71
59.0377 -25.6791 -28.2871 89 97 119
-16.4692 46.3323 -55.2837 48 53 68
5.06353 20.4786 -36.5525 49 51 65
42.9604 -24.0429 -66.0911 39 54 6
32.2111 17.3003 9.88162 11 11 9
-52.696 24.8403 -33.266 52 52 67
1.28606 27.3266 9.67795 57 60 74
72.9162 63.8761 -8.21922 56 59 72
54.0626 39.9412 3.44949 55 61 73
-50.5443 28.7488 -22.5859 43 42 53
-59.3742 24.1069 8.75114 55 51 56
-27.6133 6.56443 30.0422 0 0 0
-64.232 51.3219 -16.0999 96 96 95
9.71117 -13.3394 38.7827 59 61 64
11.0139 -23.8898 52.1849 49 44 20
39.1065 57.8565 -3.6774 43 46 58
48.5279 26.1488 -36.1974 42 46 61
-25.0341 21.1945 -52.8839 79 79 83
51.3955 64.1076 -6.68564 63 66 77
17.4673 -24.8527 57.816 25 37 19
17.8035 -13.7518 31.4622 14 15 11
-53.7235 33.4883 -16.5091 59 34 25
-48.407 -25.9372 34.3162 27 39 2
43.9543 -16.2426 5.69912 50 30 2
28.8633 -8.40127 9.02692 45 30 7
-88.1306 -25.817 41.9054 18 31 5
32.6994 -23.2193 -44.1073 74 72 65
46.8967 -25.1356 -44.8921 21 33 19
68.4467 42.4373 -10.2887 36 27 11
29.9643 -24.4654 -59.3696 38 36 23
-55.6549 -13.5674 9.79785 81 81 84
-62.5683 -11.1033 -15.5659 53 59 72
-18.3161 52.5353 24.4216 1 4 2
-53.566 -24.9452 8.69627 44 26 18
23.8519 -21.1627 -52.2263 6 6 5
5.17628 10.3724 -34.0363 64 41 13
93.9616 -28.5229 50.5329 26 35 31
18.0774 54.2354 -40.1756 115 114 120
46.2198 -24.863 55.4091 30 45 11
-12.2615 21.7444 30.0749 76 75 78
43.0635 62.6015 -5.7741 58 60 73
62.1312 30.7752 -0.668571 74 72 81
28.5177 -18.8813 -35.3322 49 33 14
-48.1898 -25.731 39.3162 65 39 0
6.99771 46.5656 -24.9276 39 41 51
-18.333 52.2448 13.3644 4 2 2
67.9583 19.5779 9.08487 74 74 81
60.6854 39.088 0.930603 0 1 1
-3.36206 23.3147 36.5053 61 65 82
-19.549 55.0392 -22.9433 48 53 67
3.00204 -16.379 23.9046 39 50 12
66.6642 -25.8447 29.9505 38 42 5
-5.2447 64.577 -16.551 55 56 70
57.5011 -25.6821 33.4639 29 46 13
-53.8686 31.7262 -17.5162 62 60 76
2.176 44.1277 2.71135 63 65 78
24.3451 47.796 -39.769 36 32 28
63.6666 69.0947 -10.203 62 67 77
-15.2929 69.6329 -7.49612 59 63 76
-48.1577 -21.1281 28.5964 67 67 59
94.2341 -25.8417 36.9318 31 45 18
33.4493 50.1455 -24.5531 54 57 71
6.35291 -17.3768 53.2143 82 77 51
-57.3502 31.9833 1.84123 49 42 45
49.5036 30.9544 -34.1187 57 61 74
-13.5232 10.7022 -53.1947 30 15 0
27.559 39.0018 16.8459 47 48 59
-18.632 55.2782 5.45846 54 59 74
11.6488 -20.4851 33.7596 69 81 101
-18.5878 55.6884 12.6824 64 68 83
42.7957 -15.3763 -26.6247 63 59 58
67.8634 -25.9465 -21.0207 111 87 64
44.5221 -26.3773 -9.15421 42 54 14
32.655 37.4192 5.09097 50 50 67
53.283 -25.0261 51.6871 35 50 4
0.791929 66.5947 -6.80338 51 54 67
0.655609 -21.3906 -50.9568 24 16 7
-18.1387 -12.8302 -53.2713 68 66 66
79.1214 -25.5014 40.7324 35 43 20
41.2897 -11.609 -33.2115 80 79 75
14.1266 31.3924 15.2603 65 65 64
20.7791 13.7766 -34.4553 59 59 61
-89.1555 -26.7586 -4.9193 22 31 7
1.31727 7.46429 -33.9866 72 72 73
78.0763 47.9408 -28.9209 60 62 74
23.4199 45.1513 -40.7256 112 110 132
55.8682 65.8714 -18.7531 42 44 59
10.4403 66.0211 -6.84589 61 64 77
-49.1503 -21.323 26.9558 46 25 9
-17.1933 47.7873 -52.9319 36 44 63
27.7254 64.3197 -17.9276 54 57 69
-28.7364 -25.4285 47.9705 109 88 46
-50.5561 1.10037 -50.4461 80 76 66
-13.0655 44.3561 27.7858 46 46 49
42.9786 0.664062 -18.7758 45 54 70
72.8965 61.2158 -7.00497 56 57 72
-53.3138 -27.1695 65.1718 47 49 38
-9.84763 34.9476 6.94514 55 58 74
-100.842 -26.6573 -22.9818 30 43 4
37.8274 -20.853 40.018 40 48 61
63.0125 -25.9186 24.271 71 55 34
-6.47569 23.5509 -54.0819 52 58 74
2.94824 38.8436 -28.2579 56 59 73
-14.7926 47.5344 25.5047 49 46 48
-21.9968 -25.0436 58.1221 47 24 6
41.2358 -27.2628 -68.3468 19 46 20
60.1614 62.8148 -7.0846 59 62 73
-30.7443 -24.5806 -57.9678 17 29 14
-83.6586 -26.0346 -45.9243 55 52 81
28.7118 30.1696 7.98279 57 58 71
74.9072 -25.9283 -69.3775 8 13 18
22.7362 -26.194 16.101 68 71 27
-58.1579 -20.8417 -31.7718 51 31 28
25.77 44.5157 16.4846 57 50 61
-42.6997 44.1789 19.2185 58 64 78
16.3678 55.7602 -24.8162 58 60 71
-88.2325 -26.0583 -60.517 12 19 10
-37.0994 27.7552 -52.5621 42 42 4
75.384 -26.3349 3.73332 27 35 15
65.6089 -25.281 43.675 33 41 23
-63.3267 2.37867 2.44727 65 64 67
-50.6184 33.0159 -3.95642 66 66 74
-65.1468 42.6482 -21.7437 81 78 82
44.9035 -25.8371 29.121 36 32 15
-13.2169 -25.5043 45.7484 40 48 36
51.7761 -25.7557 -27.3394 54 60 86
42.9277 -23.3601 -17.738 39 16 22
-68.7345 -26.6295 -9.22316 33 41 24
-23.3793 53.3394 -52.5198 69 70 78
-23.3556 62.9355 -40.1262 23 26 44
-35.5067 -26.2799 30.7103 22 29 7
-60.6312 45.8202 -18.8547 13 13 14
-16.6656 32.7237 -53.0014 69 67 74
-9.03439 50.9544 0.200413 61 64 78
-46.2626 36.3887 -52.4677 65 69 82
-52.0088 1.92 -40.8938 71 69 68
-52.2698 24.9295 -59.8413 70 70 72
-37.9634 -22.6495 30.4846 46 31 19
5.21924 -26.1643 25.4005 46 49 25
-79.6864 -26.5162 -27.1396 31 45 2
13.9608 35.4191 14.373 65 66 63
-30.1519 -22.5 -53.2398 37 13 6
98.5394 -26.5509 17.8019 56 70 15
-41.2456 51.9216 -29.0783 45 49 64
-5.02097 24.6609 13.301 48 51 68
-50.1567 27.4038 3.33272 68 70 82
-56.0557 -25.9856 -41.8996 34 50 3
-15.2973 45.9036 13.2405 67 67 65
-22.5338 61.2384 -36.3724 45 52 65
-14.3143 41.9147 -38.3105 42 44 62
12.9049 61.7287 -18.4725 48 50 59
69.5482 -26.2244 -3.62656 46 56 6
35.5026 49.3665 0.0510406 56 58 71
4.67493 47.754 -24.2917 50 52 62
55.2144 -24.9832 -46.0135 69 27 3
80.0013 -24.852 -51.8377 38 57 16
64.1246 -25.7475 31.8508 21 36 17
11.269 70.0506 -14.6519 45 47 60
19.9103 -10.6387 35.1277 66 65 62
-26.1609 74.0708 32.0368 78 79 73
-86.3824 -27.5926 68.2134 17 19 19
-39.9857 -18.6177 30.7382 38 23 8
-51.0011 -26.6046 14.5475 47 69 1
-85.9369 -26.7136 6.04686 32 44 2
67.1327 -25.5174 36.8628 32 40 16
17.9764 -15.7098 19.7523 44 69 41
40.7526 -25.1016 51.2896 30 55 0
84.0749 -26.3008 -2.3356 41 50 9
13.9845 -26.6364 36.7764 33 36 16
91.6249 -26.3408 -9.22188 37 41 13
58.9816 54.5643 -3.29228 43 46 60
-29.6139 51.3845 -52.4466 74 77 80
-4.32476 67.2031 -6.87769 61 64 76
-8.63295 27.9715 32.5141 55 59 70
-77.2375 -25.3309 -62.4361 16 30 1
-14.3742 42.5159 -30.7083 48 54 70
75.2371 -24.6645 61.9235 29 55 5
-8.8104 29.2414 -46.1414 32 37 55
-18.3839 52.7143 36.8363 63 66 74
69.9873 -25.3998 41.1078 27 35 13
-21.6078 29.4604 30.5323 73 60 60
-63.9087 22.4301 -24.9271 66 44 21
69.9327 52.1246 -26.2666 60 63 76
-73.7948 -26.3618 -3.27655 34 28 13
31.1714 53.1895 -1.61463 47 46 62
-50.1677 5.94209 -52.2765 61 52 40
-18.5899 59.7166 37.0382 56 59 74
-49.6002 -2.09206 14.557 62 58 61
8.54786 -15.4605 23.6717 75 45 1
26.2553 -10.9785 33.428 62 69 75
17.1233 0.145 9.09738 41 40 11
57.9824 -25.7261 31.9973 29 44 18
64.901 -25.475 38.3462 38 47 71
-16.861 50.4963 22.9558 65 65 63
-42.7446 -6.40187 31.1026 78 80 80
2.42216 55.357 -20.8436 51 54 66
37.5002 -26.3978 63.985 51 56 52
-91.1843 -26.4048 -30.1191 27 43 1
-62.3469 -2.52009 -4.76266 55 62 75
65.5085 23.2409 7.41815 65 65 73
-22.9205 -15.1318 -53.221 50 30 0
59.1334 -25.978 24.8301 38 40 17
-60.4316 -14.0056 -31.0487 80 81 80
78.4667 44.7763 0.215311 57 62 75
10.4707 -26.6297 61.1464 66 72 66
-64.8573 32.4348 -0.164864 70 56 42
-76.2036 -26.5867 -22.2849 40 45 1
60.3941 -25.957 -20.4233 57 65 91
-62.6347 -18.8032 -20.7092 68 53 25
-51.8766 -21.1578 -47.5327 54 32 19
22.2789 53.4808 -34.7627 57 60 71
29.7876 -13.8407 33.0239 59 64 71
5.40484 38.1621 5.13049 62 65 78
96.6516 -28.5206 5.10895 88 91 85
66.1586 -23.7096 -68.2827 39 51 20
-31.5255 59.4616 -52.3731 50 34 23
48.7771 69.9763 -16.4141 45 48 58
-5.20068 -26.0898 -64.4411 49 48 49
19.8691 -5.97505 -34.7256 54 55 32
-32.8566 19.8154 -52.7594 77 75 77
50.577 -25.9917 -17.664 48 54 76
38.7121 -24.9454 21.1322 20 23 11
5.58049 4.85857 -34.1227 59 58 58
-49.5796 6.56633 23.3138 63 61 64
96.509 -25.9877 35.3219 52 66 11
10.9398 -20.3604 35.024 68 79 96
69.9401 -26.2446 3.7821 26 30 13
-93.5428 -26.8345 -7.70145 26 36 0
5.14063 -24.1097 -34.5901 25 12 1
29.0552 -20.1037 22.8427 19 16 6
43.7545 1.57191 6.627 73 67 63
-14.2508 42.068 -33.5983 35 38 56
-37.9064 58.6851 -17.4277 52 50 70
-61.0338 -26.0707 19.2619 50 61 9
2.41448 -19.3401 23.9317 77 65 2
-49.8016 12.777 21.6651 63 43 6
-47.45 37.9056 -11.2776 45 44 59
5.96923 -26.2068 60.5014 65 67 67
-100.853 -29.7405 -20.6308 75 73 64
-18.205 -25.3871 49.4488 27 53 35
-53.4217 22.6253 -29.7179 55 60 72
-24.9111 69.2806 -6.03413 45 47 63
-16.6856 24.3628 -53.0612 76 52 4
-15.4968 52.1546 37.1144 61 65 80
47.2184 -23.9701 -67.789 25 38 7
41.2214 58.4585 -21.3275 53 57 68
46.3607 21.7133 11.7946 57 59 74
-31.2818 71.7722 37.3874 69 72 90
-42.2078 -25.1823 52.4764 23 38 2
-90.8449 -26.3318 31.2368 33 44 0
-89.4226 -26.1304 -46.3328 68 55 2
41.0009 35.0062 6.10391 62 65 78
-13.3721 -25.7095 43.0861 61 51 34
13.6258 -21.2208 -44.9672 13 14 12
5.29863 -25.8108 35.2836 35 47 25
-32.6775 -26.8748 -62.0708 29 27 28
-45.4524 40.2412 -18.0747 52 52 63
2.43757 -25.8468 35.4332 36 45 17
37.7312 -21.9122 22.8011 27 40 2
-34.4649 15.14 -52.813 35 38 1
50.4482 50.8044 -0.610321 48 50 64
-63.163 0.201241 -19.4071 62 61 64
43.8311 -16.5946 2.44472 49 23 15
-43.7365 39.8014 2.71651 49 49 50
14.163 43.1467 13.6962 16 16 29
30.5198 29.5643 8.35141 59 60 73
76.8832 42.6648 -1.72837 70 73 85
-84.9246 -26.499 -29.7182 73 73 57
20.4054 -25.0562 62.2194 24 31 18
87.5658 -26.1197 22.2141 37 52 13
-52.4864 -25.8617 -45.4333 58 71 42
73.1929 53.3136 -12.0002 39 37 53
-32.0896 70.3513 24.4832 67 71 86
-63.1356 -0.751862 -0.956223 68 67 70
-30.9867 46.1929 31.2964 48 35 38
-2.90947 20.5085 19.5332 61 62 75
-32.7375 46.3959 -52.3765 74 52 2
-35.964 64.2653 -21.5233 59 62 78
-21.8628 65.8639 25.5607 46 52 69
-47.5397 31.7893 38.4702 52 55 70
-32.2653 70.444 12.8514 64 69 82
-18.2935 20.7207 -53.0302 75 74 73
-62.9671 9.37579 -28.3456 51 27 13
24.2636 28.047 -34.7227 49 46 54
-58.4875 47.248 -15.1609 26 22 31
-21.9627 59.7582 -38.8123 45 52 65
43.9745 11.7624 0.158127 46 44 33
-65.2192 45.8778 -18.2269 87 86 88
1.62286 -25.3539 47.8583 31 46 21
9.96736 13.3296 -34.1211 67 64 63
-36.5881 61.8287 -57.9529 70 74 89
38.6975 -25.0165 54.5327 29 44 0
-63.5509 14.073 -25.5889 69 64 68
34.6365 58.9844 -4.16342 55 57 72
74.1109 57.2385 -5.21532 56 60 71
-33.3113 41.3612 -52.4162 78 56 4
21.0177 -25.9491 33.6411 11 15 7
48.4926 47.0375 1.03215 57 61 72
43.0405 8.5658 -28.0139 60 59 61
34.163 -22.1285 22.9268 17 27 4
-54.5974 16.9694 -31.3882 39 28 17
-11.4599 -25.0927 55.4651 43 56 17
-49.5673 -3.68151 16.0987 65 60 59
90.9139 -25.8425 34.158 39 61 14
68.4396 24.6786 -38.1906 57 60 75
61.5523 38.7979 -22.1617 32 28 40
-50.344 19.084 -51.9841 49 39 29
-18.9534 60.5141 35.7326 61 65 79
-63.734 53.6106 -2.88235 70 67 69
-10.331 39.1191 31.7543 61 64 79
-11.0236 -23.2375 -60.5624 25 21 12
81.0334 -24.6759 -52.8415 32 46 8
43.3302 11.3022 -17.1767 50 38 4
-79.7952 -25.4866 51.7771 28 46 10
43.0113 -6.64085 -7.20032 57 58 59
14.4517 30.0866 16.406 62 62 58
68.8655 -25.4458 39.5818 33 52 25
-17.9247 8.52364 30.2207 69 67 70
-36.8393 64.5327 -38.4627 57 62 77
70.1239 -26.2479 65.414 48 47 52
25.991 -16.6194 21.1429 90 86 80
3.66609 -16.7574 18.9007 60 55 49
18.993 -21.9623 -43.3757 39 42 38
47.643 52.6946 -24.3337 48 51 63
91.9833 -26.1907 24.3254 46 51 18
-55.423 -16.406 9.54912 81 82 82
45.6506 -25.8848 -26.9086 52 54 78
-39.992 52.7027 -8.44638 61 61 78
44.2812 62.3176 -19.7212 51 54 65
-19.0849 59.7513 28.9276 56 61 75
-4.2009 -24.0891 -54.7532 14 16 12
14.3493 52.37 -27.102 22 24 27
78.147 71.2588 -18.1239 49 49 59
14.7662 54.2447 10.9508 64 68 81
18.2646 -25.7811 37.5102 30 50 26
-12.2606 42.5042 3.91536 61 64 79
-49.7859 31.0391 -2.62653 52 47 60
39.0632 60.3886 -4.78194 58 61 73
-7.72299 5.22328 -43.4566 71 71 74
-88.6056 -26.4911 20.2395 16 37 14
-61.5031 -16.3362 -30.6238 63 35 25
-55.1528 -6.83628 10.4556 77 79 81
-48.5725 -18.4869 28.4033 56 37 24
-48.8714 13.0997 -52.649 70 47 0
36.4804 20.1871 12.3678 46 48 63
-35.8266 61.769 5.20181 41 44 59
-30.4598 -1.00488 30.6134 54 61 75
-57.2692 -16.0292 -31.7693 70 70 74
-60.3889 -0.0148087 9.77454 60 62 55
-2.9618 -4.78716 9.07596 48 31 15
-7.30772 -11.5797 -35.0518 49 48 51
-40.1291 17.374 -52.6859 56 50 2
77.3022 -26.1044 22.2817 36 58 14
-22.4805 -25.2682 51.5904 48 26 3
-19.3241 44.2192 -56.1536 78 82 99
-94.0303 -28.3066 26.213 115 114 110
31.5688 -14.8744 33.7292 70 79 91
62.8183 46.943 -19.3103 39 38 50
-51.6779 26.7021 -28.4478 56 58 73
-0.0209961 -25.7931 -64.9957 56 58 57
6.96944 35.946 6.03811 57 59 74
9.80137 -20.1724 9.67857 40 9 4
48.7319 -25.3019 46.0207 21 28 9
45.503 -26.2323 14.5648 55 65 8
58.8989 -26.257 6.95699 48 57 11
-13.777 59.7075 -3.35245 41 42 52
54.2656 42.8735 -29.1302 56 60 73
-27.5236 73.4105 -30.4388 44 47 63
92.0426 -27.9545 -51.7403 26 52 30
-33.2291 -26.2331 37.8765 32 42 24
63.6801 24.7033 6.81403 102 104 114
-95.5195 -26.1122 62.4909 73 76 72
28.2815 -16.0414 35.7922 42 48 61
72.4609 -24.3994 -61.9393 27 40 5
-7.38141 31.6532 26.1561 61 66 80
-7.6386 -6.92763 -48.7592 72 71 74
-49.8985 -6.03152 -51.3267 78 77 71
-36.3619 42.4364 -52.3434 66 55 21
39.2069 66.8891 -7.68927 41 43 57
84.0705 -26.1241 22.2976 37 49 17
-24.482 67.9641 -8.48403 44 48 63
-35.1171 -25.714 -53.2328 37 21 3
-34.7794 64.1793 9.29311 63 67 81
27.6982 44.5818 2.02206 67 69 86
-45.8406 36.1169 35.6351 61 67 81
-41.5157 48.3192 -2.94176 55 57 73
-16.6476 1.87747 30.0878 65 66 69
95.0217 -26.8811 -0.487793 67 67 57
-13.5927 44.0574 11.7952 58 64 80
-22.5668 -18.6296 -53.2562 40 16 8
-63.7745 40.4746 6.42521 81 81 80
-80.3983 -26.4226 19.387 26 42 8
60.4145 -26.0764 20.0773 54 50 11
43.0038 -1.08286 -18.5246 46 54 71
42.737 -22.4495 -30.4584 30 13 20
82.1948 -26.241 20.1551 42 60 12
-25.8651 -24.6838 -57.117 29 23 15
-54.1798 -26.4125 18.307 31 42 19
-51.7276 -24.2817 -47.3754 59 34 13
-83.4244 -26.1725 31.8888 50 53 32
-22.0249 -24.0844 -60.6547 17 17 8
-54.4797 -26.3272 21.2469 36 52 13
4.01703 34.5149 6.68274 46 49 65
4.12844 -0.758011 -34.1932 50 47 46
-69.5619 -25.7717 40.8922 19 35 1
14.6624 -22.8249 52.8294 47 47 31
52.4447 31.0542 -34.1458 60 62 75
