ply
format ascii 1.0
comment Created by Open3D
element vertex 1403
property double x
property double y
property double z
property uchar red
property uchar green
property uchar blue
end_header
61.1559 70.7084 -13.7738 92 93 87
-22.8066 67.6332 22.2242 35 40 54
2.66698 -2.26147 -34.1889 67 67 70
-7.71483 -1.69376 -46.7691 72 74 75
-51.599 26.4053 -23.6442 50 50 59
43.7462 24.4954 -11.8894 66 43 12
38.3763 -23.5906 -52.6791 36 34 17
-26.4584 30.5745 30.7178 80 83 81
69.8534 23.5934 7.15523 65 62 70
27.1872 68.621 -8.35986 62 66 78
97.6877 -26.3774 25.2704 49 58 17
-10.2839 32.6011 -45.8154 48 56 69
23.0796 54.1634 -22.2443 50 54 68
89.9551 -26.2709 13.9805 51 43 15
-6.59119 -15.6845 -33.7894 55 47 46
-27.0557 74.2867 -1.70329 49 53 56
13.0639 -19.0586 23.5228 1 0 0
61.181 66.5325 -8.82928 47 47 63
40.4541 11.1909 -34.834 76 71 56
-64.9241 34.3109 -6.31625 72 50 26
11.615 -19.5158 33.8139 64 78 98
57.2567 26.0418 -30.4004 42 41 45
65.0058 -26.1796 9.41188 34 32 13
-62.244 47.7767 -17.8601 16 15 18
-56.9877 25.6454 5.32838 43 42 47
9.92267 -25.8182 23.0452 28 20 5
-35.8724 46.3353 31.463 75 75 80
69.9291 41.3701 -28.0236 56 53 68
69.9735 34.2971 -31.2087 80 72 83
91.8409 -26.0326 27.4049 55 74 15
26.483 22.6412 -36.5132 64 66 79
20.6124 55.7939 -29.4406 50 53 57
-16.2724 57.8882 -18.5014 81 86 101
-85.2441 -26.4693 20.6267 36 44 8
-28.6377 73.8408 31.1058 81 81 81
15.8806 -25.1895 51.3501 25 32 16
-51.3716 -20.7971 9.08206 62 42 28
31.4706 69.9167 -15.5552 43 45 55
-37.3708 -17.584 30.6976 53 31 19
27.3955 -26.226 23.5702 44 64 24
26.5289 8.81887 9.14151 66 64 67
-57.0977 33.9323 1.00598 58 35 23
8.10772 12.2119 -34.0855 63 63 65
-41.9397 19.81 -52.6303 70 53 3
-8.11006 32.5676 19.9939 42 48 67
48.1186 -26.4117 9.66878 52 65 13
28.6477 13.3028 -34.8 66 65 63
64.8169 32.5889 -1.55105 67 67 76
-65.9448 -26.5853 -6.60999 38 50 21
83.2911 44.2916 -29.8252 80 81 79
-55.408 -24.9359 -33.0142 16 6 5
-17.4102 50.0949 22.8993 71 72 69
43.1702 -25.5372 -41.1193 27 30 8
-26.1673 74.2609 22.8234 76 78 79
52.6821 17.7862 11.7089 48 51 47
-4.2218 -25.9785 29.8794 53 75 30
21.1465 -13.4069 36.1627 42 47 60
-40.8897 53.5393 -60.218 74 74 70
58.0102 49.2857 -0.814987 57 60 73
-62.6195 -22.2181 -26.1159 41 25 22
-34.2475 8.96983 30.8459 74 73 75
34.1382 -25.4096 19.5264 21 44 23
67.5377 47.5177 -13.7199 77 77 84
-82.9006 -25.105 57.2717 22 48 1
45.0428 -24.1685 -63.9913 26 48 7
64.4671 -23.9272 -63.9768 27 45 7
-17.6451 56.1356 28.84 56 60 76
-75.4162 -26.452 15.607 37 50 6
73.9802 -27.5933 64.6098 32 38 39
-41.9476 47.5252 -5.47121 64 63 78
-21.6768 71.1129 -7.93382 56 58 72
43.1815 -17.9418 -9.24953 62 45 7
83.8219 42.2288 -1.23706 58 56 59
67.633 -26.8446 30.7176 5 8 6
16.2883 29.1377 -39.3637 69 66 73
-56.5079 18.0568 -53.2412 65 67 78
-49.3199 -17.3635 22.2082 48 24 2
0.948761 22.1885 -35.6989 56 62 75
-70.2054 -28.4881 31.0995 15 16 14
15.2747 34.3634 17.4567 78 64 68
-25.1712 58.0359 -60.0033 72 76 89
-38.0756 54.898 36.0121 51 59 72
-8.25894 3.03142 -51.6847 73 72 71
37.8156 31.0161 -33.4664 57 61 75
57.2286 -24.0965 -61.775 24 43 1
30.1634 41.4375 -28.3626 57 60 75
-44.7939 36.2896 39.5228 73 72 74
-17.2163 15.3773 -53.0954 43 37 1
48.4227 20.0216 -38.8978 37 39 55
61.6713 30.0093 4.44255 21 19 24
50.8076 -25.9845 55.216 18 20 18
-50.3773 -20.916 8.84305 60 37 22
26.1167 -21.6603 -52.6721 2 5 3
-63.8423 12.8991 4.32267 58 57 54
67.034 58.8134 -22.9759 58 60 74
54.9045 -24.2916 -58.979 32 34 7
-15.9629 45.3958 -47.0179 18 29 49
-52.9719 -22.2228 9.0165 63 41 28
18.0563 17.6282 -35.6277 54 54 53
10.7038 -12.5553 22.3656 93 90 92
42.1152 -24.7844 58.9856 17 30 0
-84.3782 -26.354 25.6695 37 49 0
44.0195 51.913 -24.5061 52 55 69
-18.7953 52.7653 -32.5385 38 42 61
-29.7814 74.4644 30.5206 69 69 72
-62.886 -8.911 4.01472 23 36 18
-46.1833 38.7337 -11.6612 55 57 76
75.2566 -26.307 -0.669449 52 65 13
84.5557 -25.2395 -39.419 16 36 1
-52.2367 24.9037 -23.3555 35 37 48
45.7807 28.5311 -35.0069 48 52 65
-4.95571 24.3192 12.314 58 64 79
-65.9931 54.4713 -2.15244 95 91 93
49.2976 25.2059 -36.5969 58 61 75
76.8421 -26.3827 0.968018 42 45 5
-31.2057 38.8334 31.091 55 37 38
12.6293 -26.2931 23.3814 3 7 4
-39.7899 -25.9696 33.6878 45 61 3
-26.2514 70.5915 -27.8997 38 44 60
70.7654 -26.2148 -6.521 35 40 20
-7.56274 -5.60193 -42.3418 62 61 64
-80.6194 -26.6015 9.08475 22 40 15
-62.7686 -10.876 6.91335 65 63 65
-4.17953 22.3663 -34.5967 61 65 80
81.3456 -27.7437 4.20442 88 90 90
15.9365 -12.8847 36.1369 51 56 65
16.1211 55.337 -23.8465 47 48 57
-35.0002 67.6354 -27.6378 47 55 72
30.294 -22.0759 -46.748 42 58 11
-40.1928 0.575619 -52.9059 42 33 2
63.1132 56.4465 -20.4405 37 30 49
21.5896 13.8324 9.23853 62 61 64
20.1024 -17.3573 35.39 41 49 60
-31.5723 51.1626 31.4518 80 79 86
39.486 -25.2108 -46.4928 59 63 41
-10.1458 31.9047 -59.5007 51 61 69
85.4155 -25.7945 -25.9582 39 46 7
-28.3548 73.896 -10.3777 74 75 72
59.1282 42.2424 -26.7136 1 1 1
-28.8659 60.9734 31.6935 65 55 28
59.2233 -25.9532 27.3969 19 45 13
71.2761 42.8731 -27.4853 56 52 66
-63.8874 14.1034 0.868263 59 67 53
75.6426 -26.1366 -11.7 42 52 9
32.1302 56.5335 -21.6783 40 42 57
67.9899 33.0698 5.88226 45 44 60
73.7105 57.7424 -5.43678 35 37 50
97.2686 -28.5787 40.7236 47 54 45
61.2373 -24.1729 -59.8917 22 39 6
-12.7108 31.321 -54.3653 73 76 94
90.8758 -26.3125 11.1986 34 38 20
-77.2914 -26.5808 5.35896 32 35 9
1.04476 32.8203 7.40938 47 47 63
-15.764 45.7551 -31.9227 42 49 64
-81.8264 -25.3956 -60.6423 27 49 3
-49.6445 -17.3008 -51.6644 78 77 74
42.6949 -2.10736 -20.0124 58 66 81
-8.62212 68.4833 -14.7218 64 67 82
38.4238 70.4202 -9.30422 54 54 69
42.89 -4.0097 -29.0305 68 70 72
-5.74155 6.37903 -33.8195 69 70 72
1.06902 -16.5889 23.9506 73 50 1
-11.4993 71.0623 -10.716 84 83 73
-8.25311 34.0064 28.8676 63 65 80
-52.9861 -7.47104 9.90321 98 103 107
-66.7809 65.5096 -6.16046 89 91 92
38.9727 -14.6821 41.0656 66 61 62
58.5178 42.7465 -28.3044 69 69 64
-19.805 27.7729 30.4294 48 35 12
40.4822 -26.3855 64.3335 54 56 52
79.7307 41.4714 -29.0887 59 58 72
-6.54428 30.7735 36.8198 64 68 84
-43.4693 50.3392 -53.887 54 62 82
76.5033 56.0745 -25.1147 61 65 78
-76.1626 -26.5893 7.89795 37 52 4
15.5258 25.7256 -34.7024 56 59 69
-23.4309 -24.703 -56.8861 26 28 16
91.7469 -25.3637 -61.2709 41 41 40
-7.81635 9.11561 -47.1746 76 76 78
28.4268 -25.1316 20.6644 49 51 47
1.58745 16.3475 9.50659 64 63 64
-0.0276642 -23.5335 -58.8371 42 20 0
-62.6749 2.79959 -9.25941 48 54 68
88.7351 -25.5771 -33.9184 25 39 6
5.75117 30.3946 -32.1646 50 53 63
9.34745 70.8493 -12.1525 93 92 86
-64.3644 26.5152 -13.635 70 68 54
-24.553 67.5292 -15.1659 32 34 52
-27.9176 73.5541 -42.2016 45 52 66
-21.8061 -8.10913 30.1695 54 60 75
20.2006 25.9348 -34.7926 62 64 75
-69.5673 -26.4335 -48.3761 64 65 73
83.3679 -26.1135 22.4687 42 59 13
24.761 -15.4792 30.3668 16 14 9
-4.37295 -24.829 23.6073 8 6 9
-56.9 28.2203 3.59357 49 50 54
-65.5259 42.8236 -0.156677 77 77 81
47.1693 -25.4911 39.6654 25 37 13
14.7799 -23.7917 8.38988 31 1 0
74.3254 -26.1828 16.8218 94 95 99
-47.128 -7.43024 29.3703 72 70 66
-58.436 40.3183 -20.9149 31 31 37
-84.0734 -25.5143 -58.5005 23 41 2
29.027 -12.225 -35.1931 64 65 71
58.5221 -24.7927 57.0728 36 46 4
32.4621 -4.39488 9.09186 61 57 59
79.6164 66.2046 -9.58618 55 58 70
-12.5952 11.5993 -53.1997 49 27 12
52.8061 59.3696 -5.35712 52 55 68
-5.04207 16.8884 25.1442 48 32 25
-44.5849 42.0029 -59.7926 79 81 85
-62.9815 42.5556 5.75188 66 66 63
34.805 42.6141 -28.0772 53 56 70
-77.6501 -26.3411 21.3503 45 56 19
-26.2901 72.6644 -6.1402 24 25 43
-20.1721 56.5786 -21.285 45 51 67
53.5805 -25.5705 -32.5422 46 55 81
11.2589 -24.5346 34.5902 69 77 92
-26.1939 68.501 -60.2466 54 59 73
70.3865 67.4069 -19.3537 62 64 77
57.726 27.1397 4.7412 29 23 33
-21.4044 61.1174 -15.5644 39 41 57
-21.1777 7.88757 -53.0867 74 74 76
64.3885 30.4975 -32.4555 100 91 102
-47.6126 31.8949 35.0046 62 65 81
52.9219 -26.4684 56.0852 1 0 0
-42.7588 46.4081 -59.1692 75 77 87
30.5014 -26.1582 15.2176 77 70 29
38.5089 49.4813 0.00997353 49 51 66
-12.2388 -23.9959 -62.993 11 18 2
-49.6749 33.8591 -47.1145 61 66 81
77.1418 61.7827 -7.42485 47 50 64
54.4754 -23.8624 -66.2679 41 53 13
-57.2451 -25.3079 -58.6172 27 37 5
13.4277 11.6217 -34.2566 63 58 36
20.1612 31.1931 -39.6621 65 65 51
-30.4774 -12.8575 30.4849 57 59 75
62.5659 43.8752 -19.54 41 39 53
23.7051 -20.7483 -49.7995 24 40 14
-34.4126 4.09912 30.7964 70 69 72
-24.7191 72.5166 23.3236 45 49 66
-35.1091 63.8958 0.243927 63 64 80
3.47876 -24.7093 17.2011 53 43 17
10.806 -26.2228 61.2044 63 69 64
-27.8579 6.2709 29.9267 0 0 0
-1.84467 -25.3941 47.7394 44 49 25
-40.0399 50.515 25.0912 43 47 65
-63.0726 23.8125 10.4098 79 81 77
45.0888 -26.0797 3.84995 40 51 1
-40.0089 41.0974 35.3689 96 101 121
-50.5031 33.5536 -59.0965 64 68 83
-49.9311 9.18087 13.3453 58 56 59
13.8058 -13.135 33.129 17 7 1
-48.293 -25.2467 51.6895 14 27 0
-46.523 29.8557 -52.359 63 76 61
56.3854 -24.9613 53.6709 24 39 10
52.093 21.2025 -32.7711 59 50 65
-42.7394 34.6343 31.2054 56 54 61
50.5075 -25.4343 40.6011 30 49 12
-21.0984 57.3035 -48.665 43 52 65
-26.6502 74.2437 12.5455 75 77 75
88.3017 -25.1133 -43.4068 29 42 1
57.9716 21.6536 8.46367 69 67 79
-52.4094 15.905 -41.4708 53 53 54
-45.7675 40.8756 -30.1884 39 45 60
35.855 24.9981 -36.0132 60 63 76
34.4577 -26.0465 -68.2175 66 72 63
-38.0436 45.1442 -52.2511 73 75 80
-15.8323 17.6308 -53.1014 59 63 32
44.8383 -25.8786 -30.9978 77 72 42
54.7901 59.9764 -21.4132 53 56 69
-25.3041 73.6728 23.03 60 62 77
-62.6795 -14.1049 4.64195 69 69 70
-52.0497 22.7839 6.73891 62 65 77
-7.25952 -14.4313 -34.2826 54 33 0
-32.0267 8.4763 -52.9069 56 52 65
10.0986 37.6869 17.2843 81 87 90
-42.9268 49.9356 -44.4128 58 64 80
5.94713 -21.0939 23.7846 8 33 7
15.1781 19.1771 12.9062 51 54 67
73.4858 -25.1542 48.8735 31 45 5
-25.6079 69.1606 37.0231 38 41 50
36.2913 1.02626 -35.2826 54 42 24
-62.8009 -26.2837 -60.7337 45 47 44
5.13401 -25.1486 60.1273 32 41 6
82.4643 44.6999 0.0681763 51 54 66
80.5739 43.236 -28.3877 60 57 72
-4.93231 43.5003 -25.8041 62 64 78
-62.2543 -21.8254 7.84727 52 33 29
-65.3934 -26.3757 -28.2751 24 38 13
-7.38853 -9.44947 -36.4227 58 57 59
-18.6145 50.373 -61.097 61 64 74
-18.2779 51.9087 -22.8868 45 49 64
26.9634 -26.1877 11.4665 37 36 22
-60.505 4.935 10.5176 52 45 41
-36.1252 64.202 -24.2624 59 62 78
-36.6147 58.6226 34.446 51 57 74
30.4837 -3.33236 -35.0832 65 65 68
-23.7685 61.8702 -60.8671 77 79 79
69.5875 32.4948 6.06851 64 66 78
43.1317 10.0708 -23.6382 66 44 6
-49.2149 34.3845 -43.2027 49 54 70
-24.0891 71.6287 27.3089 60 63 79
-64.0289 45.0914 -19.1852 77 78 77
-69.1656 -26.4998 68.1291 57 62 56
13.1776 -25.8136 21.6646 2 3 0
94.8651 -27.3853 47.1916 83 81 80
42.8692 -6.32197 -19.2649 47 56 71
32.9317 70.6484 -13.0943 90 89 85
-82.6169 -26.6767 -13.8475 26 37 1
46.518 -25.3234 44.0591 44 45 32
59.9077 -26.0735 -12.8625 43 47 72
0.182907 43.3259 -26.1069 55 58 72
82.0806 42.9152 -1.9653 74 72 85
-5.18751 -23.6866 -43.8401 16 11 8
-49.394 0.243843 -52.7248 52 24 2
-94.733 -25.5862 51.7624 30 52 7
53.6337 36.1317 -32.062 48 49 63
-48.9396 28.4096 38.7255 48 50 66
-34.7048 -25.2288 -55.6719 20 29 17
37.5474 70.9509 -15.2867 45 42 55
-23.3057 -4.34597 -53.1366 37 23 25
-34.0549 45.215 31.3739 74 72 80
-38.9137 53.1091 29.6267 62 68 82
14.5971 54.5589 -41.3275 72 73 74
5.24847 15.2627 -33.9787 67 62 64
-20.3068 56.403 -29.7531 31 37 53
-15.8549 49.3197 14.8639 60 66 86
-62.9473 -7.12088 4.45182 37 47 23
-32.701 70.7846 -4.5466 63 66 80
14.8501 53.8873 17.2167 69 69 68
51.9329 18.7311 10.2717 35 35 49
-49.4777 -16.569 16.5991 64 41 0
-13.0004 37.2368 -61.4874 60 60 66
69.0979 54.5472 -21.9719 48 46 61
42.8312 -12.0049 -24.5325 58 58 61
49.6711 -24.4632 64.3386 19 34 13
-0.149582 47.3416 -24.2739 50 52 64
35.2888 56.7349 -21.7643 37 39 54
16.1461 19.8459 -37.248 54 57 70
-97.0558 -25.8059 46.939 38 59 1
-17.213 55.8663 33.4507 53 57 72
18.9117 -19.3808 23.3443 52 16 30
-43.8931 -26.3172 31.9029 28 43 18
-51.218 -8.30426 -32.2948 56 54 52
25.2771 -23.7039 34.1167 46 53 66
-60.4449 3.86629 10.4258 53 45 40
-33.1128 -25.6116 43.6098 92 67 30
-37.3295 58.1712 3.85214 63 66 79
-33.2638 7.3502 -52.8969 76 75 75
44.9367 -24.0627 -65.2742 24 36 12
43.3155 17.6182 -20.7224 68 66 49
-92.689 -26.7268 12.2136 26 45 0
62.9606 23.5474 10.2494 63 65 79
43.2023 14.2066 -23.097 74 72 72
-16.166 70.1427 -7.67822 48 50 63
77.242 -26.0273 27.7299 33 56 23
-7.39437 43.1858 -25.8628 62 65 78
-49.9412 -27.8726 -60.3125 15 5 5
45.4521 -24.3873 -58.3248 26 30 20
-44.1038 43.4495 -19.6511 60 63 78
13.6956 -7.97804 9.03664 60 59 60
38.0868 -15.0628 37.7251 56 59 70
-25.4791 67.4768 -50.0617 32 36 54
-44.3715 39.9613 24.814 62 66 82
-47.6145 31.4403 39.0463 62 65 80
-48.1061 29.7603 39.5671 69 71 82
-61.6181 -21.1887 -30.5545 66 50 38
44.9462 -24.0632 -66.6476 20 27 10
55.0326 -25.6742 33.1207 26 42 12
8.79918 70.1416 -14.4869 49 53 63
53.0141 -26.2883 1.75964 51 57 87
19.5706 -16.4046 23.336 29 35 5
57.8884 -26.2292 13.8645 42 52 8
-54.5401 -25.8971 -44.8186 38 41 5
-5.17893 7.0557 22.2724 88 85 88
-26.3253 13.6774 30.5777 57 62 45
-51.7225 -21.7002 -44.1076 43 23 4
67.3026 59.6071 -19.0562 42 37 56
62.3192 -24.8529 55.704 28 35 12
43.1201 15.1202 -29.9717 75 75 75
30.6414 -24.1058 -65.8999 41 57 27
79.1779 66.7893 -20.4652 60 61 75
29.8274 5.65948 -34.9055 74 73 75
50.5886 46.4787 1.23914 48 50 65
73.6703 29.4613 4.84482 81 79 82
76.9327 67.3353 -10.0044 60 63 74
-29.021 3.32149 30.5454 67 65 70
89.0147 70.2471 -12.0969 47 49 55
-14.7093 44.4267 -24.4577 47 48 68
-49.4725 -2.21692 21.9345 69 66 69
-63.9715 42.2498 -23.7383 90 86 83
-7.85497 16.6499 -46.8161 71 72 75
4.25046 44.8788 2.34901 46 48 60
-16.7882 48.2942 -28.1238 49 54 70
-44.3887 41.4834 -21.5408 66 66 65
-63.6725 9.53762 5.3558 53 24 6
-40.0605 38.4838 -52.305 77 55 15
-21.9927 59.5439 -45.551 46 51 65
43.3302 20.331 -21.6674 68 68 71
43.1191 5.26544 -15.9038 53 58 72
-21.2934 64.6305 38.6965 78 80 76
-62.4873 -19.2448 -13.8563 66 50 25
54.1935 20.1217 12.0785 52 54 71
61.9112 -25.7022 32.031 19 36 16
-63.8849 13.6387 5.50143 67 71 71
-60.6104 20.914 10.4709 52 52 53
81.7616 38.3968 0.198166 77 78 90
61.6843 -25.064 65.568 48 51 52
20.6234 44.6123 15.7079 73 74 77
42.8561 5.51557 6.67358 74 75 70
6.1892 20.3176 -36.6514 62 65 77
21.2194 8.02956 9.12457 70 69 72
62.8342 24.8096 9.71797 58 60 72
72.785 61.9064 -18.9491 47 47 64
-51.269 -23.0997 -34.1998 55 27 8
-37.547 58.8431 -55.9032 67 69 84
71.4776 63.5403 -18.0178 47 46 64
-37.3391 -25.5911 -55.002 20 26 14
81.4588 -25.5039 -34.1213 26 44 2
-51.9139 4.05234 10.8257 51 42 37
-64.8464 37.5159 -21.2682 76 77 78
66.9758 -25.5014 37.0156 35 48 19
20.2183 -20.0838 34.8251 44 49 63
-21.9414 59.3133 -50.3759 47 52 66
74.6728 44.4345 -30.2092 63 66 79
-41.773 -27.938 63.445 23 32 22
-1.16029 -25.0079 55.4036 24 32 12
-72.2257 -25.5399 -55.1295 18 27 7
24.7336 -24.8515 57.0242 37 52 3
-52.8498 23.6022 -24.7854 54 55 68
69.7432 58.4933 -23.3442 56 60 74
-51.8038 25.9939 -24.3124 54 55 65
82.2991 -26.2901 12.1053 36 59 18
-40.9201 -25.0547 -57.0718 10 23 9
-27.0675 -0.721619 30.489 54 62 75
-27.9501 -26.1509 -54.0387 30 5 4
14.4253 -26.1733 61.7899 60 68 58
-48.5722 38.0197 -56.1733 42 48 64
-49.5316 1.33066 21.8882 63 61 61
29.1598 -25.3855 44.9674 76 85 74
87.3763 -26.2402 -9.18557 46 54 8
-42.631 26.3987 31.3876 85 85 87
-8.4173 34.0313 26.4088 60 65 81
51.6772 31.417 7.49457 67 70 83
61.2321 19.1305 -37.1777 67 58 74
2.68321 -26.0723 24.7096 55 62 21
37.2489 -21.6253 22.8321 38 49 3
-49.699 2.41789 16.2578 68 67 69
0.749596 30.9461 -31.7486 56 61 74
67.0741 26.0239 6.12952 76 78 85
52.9487 51.7802 -1.8744 51 54 66
35.8842 51.9441 -23.9041 53 56 69
31.0954 -25.9199 28.9741 27 40 21
-10.7486 33.6932 -46.99 48 51 69
52.1365 -25.6296 34.2087 34 52 10
13.7802 51.6875 -29.9234 54 59 73
-64.8519 -24.7671 63.5226 27 35 12
61.6845 -23.8315 -65.8959 32 49 5
-63.4942 5.75854 5.22968 62 66 70
-5.17016 51.8917 -22.0622 61 62 75
-62.9892 -25.2493 50.9985 24 44 0
-6.9798 -11.1426 -38.6313 62 66 67
83.5926 -24.1099 -60.7797 26 31 12
-49.7387 27.0737 31.8753 55 58 74
41.5316 -14.7751 -33.2079 78 77 73
-62.0592 -25.0628 -28.3845 44 27 20
-90.241 -26.3481 66.1729 56 59 56
-13.2554 42.9995 10.3129 51 54 69
68.611 -26.0407 -16.0529 86 71 44
58.2417 -25.6364 -30.3497 62 65 83
-63.8811 13.602 4.73355 60 66 51
-26.0818 63.4464 31.6953 79 58 25
11.7823 47.7992 -29.6144 22 22 25
43.0204 -19.8674 -14.5773 46 28 7
7.16824 49.8946 -23.4377 45 47 54
13.0242 -16.4219 34.9928 35 41 54
56.0455 27.9041 -27.7768 53 52 67
55.771 -25.5721 -32.3601 54 66 90
-11.0698 41.5795 36.2749 50 54 72
-28.1729 -16.5856 29.8734 44 30 15
62.7247 -26.0837 -11.5719 47 57 82
36.6662 68.569 -16.4517 52 55 66
30.9792 40.2939 -28.9197 48 50 67
57.8529 -24.4034 -56.4391 71 26 7
-48.4162 33.8356 -23.9367 55 59 75
52.8746 46.4827 0.457611 38 38 53
-4.65493 25.3356 26.256 62 65 82
-5.0471 60.6242 -4.02301 60 62 76
-20.4898 46.9413 -60.2223 63 68 82
52.9553 54.6426 -3.19354 47 47 62
-51.7229 23.9502 3.62521 61 63 75
-16.043 -6.49628 -53.2444 69 73 75
79.7847 -24.9879 -44.9508 24 28 1
6.38268 71.1099 -12.7958 91 91 90
-27.04 -0.53669 -53.0498 49 43 5
-33.4294 -18.8652 -53.1354 26 5 0
11.1673 -21.1159 40.2317 64 65 71
-62.6745 -16.0132 -27.7743 46 24 19
-25.3999 26.2595 -52.8131 74 52 0
-78.8359 -26.6669 -6.4575 30 34 12
0.177422 -25.3831 46.6733 31 36 17
-49.7501 -24.9206 61.7874 23 45 6
80.8004 -25.1123 -42.4675 22 32 0
27.0492 -25.3795 46.0269 77 82 75
-49.755 -17.9251 -51.1668 78 77 70
-63.0105 -4.29404 -24.1322 49 54 40
-56.3432 -26.2522 25.3509 80 94 55
-34.9494 50.803 -52.2907 82 84 87
74.1662 -24.6231 62.2892 40 40 11
24.18 50.8341 3.02245 47 48 65
-7.46758 -22.9998 -48.7318 47 22 5
65.8659 19.5765 -40.0653 62 64 79
-49.889 30.5049 -25.1732 55 59 73
-16.7412 54.4167 31.3837 58 61 77
56.8394 24.5732 -37.3755 48 51 65
-3.91242 -24.3461 -57.9524 44 19 9
-61.771 -25.5061 -20.5536 27 17 13
1.9022 43.0498 3.18571 63 66 79
-25.0527 68.3059 -20.2125 43 48 64
21.9943 56.4336 6.33945 83 84 90
-64.2773 61.4989 -6.70272 55 49 59
99.3146 -26.3338 30.9093 60 67 63
12.5324 -26.0056 27.2379 38 45 24
8.11064 -25.305 51.339 49 36 11
68.0215 -26.1503 10.964 36 46 9
-22.0563 65.8552 22.5556 51 53 71
4.77235 -1.91678 -34.233 37 25 10
-48.0423 -8.52399 28.8774 70 70 66
-72.5574 -26.408 17.8552 37 49 7
-39.3943 49.8435 39.3811 71 70 73
-11.0495 34.221 -51.945 50 54 70
37.0259 -15.4782 35.4244 59 62 72
-51.7574 -22.2793 -45.6222 48 27 10
-46.0469 35.3033 -51.9798 82 82 92
47.5966 54.7116 -2.30083 53 56 69
1.67273 53.1357 -1.08389 54 54 69
57.5533 -25.6899 -27.6367 44 45 70
46.4332 58.4005 -3.94849 42 44 59
73.9618 66.1936 -20.2794 53 55 70
-21.3693 -11.9432 -53.1973 60 60 64
-19.1694 -28.2614 60.2943 22 24 23
-7.40305 3.09531 -39.0861 68 67 69
8.50847 -9.41031 9.13275 59 58 62
-36.9297 65.1165 -43.0159 57 60 76
-17.5909 49.3525 -42.5703 45 50 66
49.8781 -24.9896 -47.6002 40 41 23
-54.7489 21.7498 -45.6184 61 65 76
-93.0353 -26.4995 29.1226 23 28 7
99.4228 -28.6653 26.7536 80 83 65
-62.9905 -5.38366 -26.8824 47 24 17
13.2434 48.8278 -41.2199 74 74 74
42.6574 -14.4549 -32.5378 66 66 69
57.737 18.5998 -39.7637 84 85 93
-38.4926 6.88549 -52.8574 59 58 61
67.8635 44.8655 -12.3382 37 38 14
-19.3819 -6.2452 -53.2005 70 70 70
-43.9551 44.5613 -25.1978 58 61 77
48.6612 56.1183 -22.8353 51 55 68
-40.6053 -26.2901 31.1365 35 45 4
-9.3418 -24.7027 29.3771 49 28 16
37.3635 53.387 -1.71193 46 47 63
-5.62764 11.2514 14.6937 84 60 42
15.2462 -26.2926 34.818 23 35 17
-3.75494 35.8475 -29.3262 57 59 73
78.7688 45.0557 -30.3143 64 68 80
-10.2874 52.6755 -21.5487 53 55 68
73.2326 -26.2812 2.08696 33 45 6
-63.9141 50.1629 -0.371063 78 76 74
4.46098 41.477 3.76578 53 53 70
30.8975 -20.974 19.821 12 13 9
58.6254 27.4729 -29.878 44 44 51
71.2113 59.1501 -5.98694 56 61 72
-30.8076 11.1995 30.7308 72 48 12
18.6902 -16.9043 -34.9306 62 43 3
-62.8999 -6.4086 -27.9671 43 24 20
-31.1754 73.628 -58.8478 54 52 49
83.1263 43.4232 0.546265 46 47 54
37.673 -24.9581 57.5277 33 43 26
-29.2307 -24.5136 -58.0645 21 29 17
29.3026 -26.0591 34.497 14 25 9
-15.733 49.7035 16.8403 57 62 78
-93.9834 -26.7975 25.493 38 46 29
-3.9741 0.850727 -34.0429 70 70 73
-79.8932 -26.4889 14.3238 26 32 14
-52.4315 24.5572 -24.5962 51 54 69
94.2033 -26.4353 4.3309 46 53 14
78.0493 40.6063 -32.194 53 55 70
35.8072 -26.0846 -34.53 40 51 24
35.6587 39.5718 -29.4908 59 61 75
-63.6241 10.18 -3.60218 63 43 11
61.4122 28.9051 5.07463 77 76 91
61.6155 20.3915 -39.4616 51 53 66
72.5537 -26.1494 16.3179 33 54 16
-60.3114 18.9807 12.1826 58 42 38
-61.8821 53.1733 -14.6621 25 23 26
-22.0872 -12.6178 30.1223 50 58 73
-66.5061 -26.5652 -13.6897 39 43 19
-10.3227 -24.9787 57.7099 50 62 21
32.0371 -24.719 19.6202 21 21 15
51.4955 70.668 -14.443 89 90 88
-56.1456 19.5311 -53.4922 69 72 89
-63.8147 18.827 -21.9691 66 43 20
-62.8402 -26.8726 -10.8163 57 51 26
78.3293 57.0392 -10.2784 54 41 64
41.3837 -26.2609 -35.1204 49 49 28
-18.783 66.639 -14.9113 59 62 77
16.3233 55.3572 -22.3475 35 37 46
33.9033 28.4851 8.86285 55 57 68
-30.696 23.0963 30.799 56 56 40
-78.0457 -26.6533 -10.1937 51 59 8
47.3645 -25.611 36.4801 28 32 9
14.5741 58.432 -3.67798 61 65 79
-63.6558 11.3437 8.60664 62 56 50
-13.4231 41.4446 5.53076 50 53 69
55.9912 19.8852 12.1238 63 69 82
42.7678 -16.6201 -29.9966 62 59 27
94.0788 -26.4234 1.57069 44 61 23
-36.8139 -3.54166 -52.9774 44 25 6
-87.9755 -26.839 0.156578 40 53 13
-63.4792 8.67938 -21.4904 68 67 66
-25.5741 69.5056 -20.8853 36 42 57
-12.59 17.746 -53.1537 47 25 10
18.9904 21.8656 -36.5267 61 64 76
-25.6405 68.5082 -36.566 44 50 63
-95.4722 -28.059 9.79918 90 88 75
26.4793 -27.2394 63.1567 22 19 11
37.2196 -24.8505 -35.4384 33 23 13
-58.6303 -26.0634 -40.2858 24 33 10
55.0272 65.2836 -18.9605 43 45 63
-28.9401 4.99315 29.7459 47 46 44
-8.11351 51.472 -22.1382 60 62 76
-37.6115 -3.90438 30.8886 62 49 43
-24.023 66.787 38.0802 55 56 67
-75.3599 -25.9594 37.2702 25 49 5
-15.6274 45.5499 -24.185 52 59 75
86.3191 48.5793 -4.73816 52 49 48
-17.0771 52.6824 15.9961 52 59 72
70.2715 43.3365 -27.1789 50 47 61
-14.8554 65.6743 -5.81173 49 51 62
-35.193 61.1476 -52.2628 83 70 84
-51.7686 23.2247 8.18689 58 63 76
-33.013 68.5877 12.4729 63 69 83
-11.5911 14.9146 30.0161 62 52 52
16.6167 70.159 -8.80769 65 67 81
13.2496 51.1453 14.565 71 70 76
37.6877 -26.262 64.0145 51 56 53
42.9182 -24.4662 -57.9733 38 47 14
-26.1512 69.6094 -39.0978 45 51 66
-33.0733 72.0826 -24.1605 56 62 75
3.46521 59.5148 -3.87801 60 62 78
-14.2537 13.5093 30.1152 64 67 66
46.9277 -24.9464 53.439 32 56 3
74.4583 -25.9088 -22.4327 30 49 7
-64.2611 -25.5378 67.2374 54 56 55
51.7767 65.2621 -7.5811 69 71 74
7.44438 -25.0571 54.8876 64 68 46
-7.17848 27.7142 37.8227 70 68 67
-19.9611 -0.162247 30.209 72 67 72
-46.859 -25.3049 49.7631 25 45 1
74.9533 -26.2973 -4.2121 39 49 1
-85.8221 -25.0901 57.9492 13 34 5
62.9245 -26.2264 1.78775 79 54 32
-22.0753 60.77 -26.273 44 47 63
-36.4917 44.749 -52.2918 73 57 47
-7.69559 -4.64319 -47.9813 72 72 76
-37.4399 62.8399 -37.828 44 44 63
59.8295 33.1784 -24.5309 60 57 67
76.6921 59.3837 -6.32788 55 59 72
47.2453 -25.8382 -26.6102 45 49 74
25.9005 -25.6697 39.1651 51 60 43
67.7909 -24.3286 -56.742 20 34 8
-32.1712 68.6634 -58.072 31 32 39
32.9695 -3.15357 -35.1982 72 72 76
23.7154 65.1314 -17.3805 43 45 58
49.7337 -25.0401 -51.2352 30 31 31
33.7002 42.3671 3.06215 62 64 77
84.1256 43.5998 -0.455063 60 62 58
-68.5651 -24.8243 61.505 20 31 4
-36.6823 4.18507 -52.8776 42 41 46
-48.1077 39.1902 -56.3827 64 66 81
-66.3256 54.8984 -4.66824 83 82 85
-24.2119 -6.00235 30.3144 52 59 77
-54.5059 -18.4249 9.38103 80 78 78
13.6697 -24.3742 -57.7827 23 18 15
-5.44141 19.1726 -55.8756 57 57 55
62.1695 49.3366 -26.8537 56 61 73
-59.0717 -26.1581 29.0688 31 43 8
-94.0864 -26.9098 24.6652 33 44 29
-64.0447 17.3588 5.23249 70 69 72
-46.168 0.55653 31.2357 58 32 4
25.699 -25.4907 33.7111 45 50 61
42.5373 -26.0738 20.9933 46 58 4
34.0174 32.7059 7.10936 58 58 71
-24.721 70.4647 8.95505 45 48 64
14.0192 49.485 7.56418 85 89 106
-26.7169 63.809 -59.9437 69 74 88
47.7129 -25.2668 -42.3082 35 51 11
1.56845 -25.8213 -36.2586 18 21 3
58.5183 63.5347 -7.30858 53 56 68
-58.869 -24.7631 64.0701 46 58 3
-42.0786 53.8449 -53.4202 58 62 79
-27.9717 19.6344 -52.8518 65 64 71
-20.8985 56.9845 -42.5813 48 52 68
-28.9858 69.3588 36.9323 76 85 95
34.6945 -20.6742 22.8632 26 42 3
-47.5444 32.0838 34.1124 42 46 61
5.90529 2.04042 -34.1641 71 73 74
-22.5769 40.5718 30.7204 77 80 81
-53.3748 36.9523 -14.1232 51 52 65
43.0675 10.0254 6.62599 71 70 71
-30.4757 -13.9377 30.4698 51 55 74
-61.4336 -26.2707 -31.7144 35 48 13
75.4305 -26.3068 -2.86155 31 32 9
-11.9645 -23.341 -59.5908 27 21 6
-36.5307 63.9656 -29.9836 57 64 77
96.9966 -26.9556 6.27139 70 70 61
26.4031 -26.0868 33.6284 45 50 63
15.4774 -25.4842 43.9805 50 62 34
35.0921 14.8549 -35.1353 71 72 71
-49.593 -0.379726 13.0665 61 58 60
17.8703 38.9843 16.7283 49 32 22
25.2998 -3.08175 9.06081 37 27 26
-53.3917 22.6434 -29.0158 49 51 63
-14.345 42.126 31.2265 71 73 76
-54.8751 -25.5723 -33.9589 5 4 1
59.6406 59.8899 -5.73264 58 61 73
-60.989 -25.6359 -52.1119 54 47 12
78.8534 -25.275 49.7546 34 43 4
70.5806 55.2378 -21.7952 45 41 58
-49.1493 28.3704 34.2219 48 51 66
-25.874 -3.33457 -53.0772 45 26 2
71.8619 35.3703 1.76972 87 84 97
-62.4922 -8.31615 -29.1481 51 29 23
88.1388 -25.4737 -35.822 25 45 8
35.9288 -26.2274 -35.3553 22 31 14
84.0485 63.9025 -12.1624 46 44 61
-13.1789 44.9097 26.3426 56 61 77
-33.3131 -24.6118 30.0882 50 31 14
-66.2077 57.6129 -3.27515 90 87 89
58.6311 59.9909 -21.6973 55 59 72
-38.5176 -10.4646 -52.9971 71 71 75
62.4225 47.4395 -20.677 37 33 46
-47.0111 36.8922 -25.0383 59 63 80
88.7791 -25.8553 32.2861 39 43 10
83.6206 70.553 -11.8461 48 49 63
-42.1555 45.4375 29.6861 50 51 50
29.477 -17.2365 22.9562 29 37 7
87.7181 -26.3196 4.98093 37 61 11
31.4612 54.4463 -2.16032 59 62 74
43.6675 17.9021 -38.5974 29 27 29
32.5793 -25.8971 30.2823 21 37 17
-22.2683 -24.9489 -56.2536 25 27 17
-20.8992 58.6911 35.9346 45 49 60
-7.51971 -23.7003 -47.0963 36 22 19
-64.9094 -26.348 -29.3065 27 38 14
-0.557045 66.8575 -15.7272 48 52 63
92.9876 -28.0594 -6.81113 76 80 78
-93.0609 -26.8712 -2.7098 26 39 0
-50.0844 -17.298 -50.7059 83 81 72
59.5822 38.1138 -30.7176 39 40 41
19.1097 -25.738 37.9695 56 75 43
-44.3458 42.5676 -15.0232 55 63 76
-45.2195 38.2998 15.4484 57 61 76
-43.6969 39.2407 4.72358 0 1 2
-7.8415 -1.98785 -50.6213 75 77 79
-3.14986 -18.4211 15.8452 72 44 23
-2.3845 -0.00757599 -34.0573 69 68 73
-13.7733 33.1592 30.2526 75 78 84
32.605 -24.3005 -53.8869 30 38 17
33.7087 36.5303 -30.701 47 49 65
-55.1909 39.0119 -16.0196 35 22 12
-63.3032 2.59567 -0.726311 60 60 65
74.9623 57.7156 -24.2173 48 50 65
-36.0262 60.2742 26.6265 65 67 84
-5.11566 33.3703 -30.4004 63 70 85
-59.6747 19.3667 11.8575 65 64 61
-25.4403 32.7239 30.7224 79 81 84
-26.4279 72.6433 -9.036 24 27 42
60.763 57.7799 -22.929 40 42 56
14.0192 53.7728 16.6258 64 69 81
43.2456 -26.0592 21.7083 31 42 18
-13.0625 38.6464 -52.2769 46 53 67
42.0143 -16.846 -33.3813 76 73 66
5.55275 5.8882 10.6045 67 63 69
27.7487 32.7847 -31.9556 48 50 65
54.5121 -25.4227 -36.5617 37 51 57
-4.99469 26.0442 25.9705 61 67 83
43.0644 -25.731 35.2818 24 35 14
68.2744 20.5337 8.59259 74 72 80
65.9151 25.313 9.35217 63 65 78
0.506866 -12.9846 -34.3694 76 76 78
36.8055 -26.2587 9.88324 43 50 15
-34.2861 66.4658 -57.6334 52 51 61
-67.3469 -26.5017 -17.2747 40 52 11
-26.6079 70.2036 -50.183 46 53 66
-8.62473 33.0103 13.6755 57 60 77
-24.6004 66.0067 -37.0196 46 50 66
-27.211 72.2915 -35.1462 35 41 58
70.9038 -26.1428 -11.087 39 45 16
-40.7904 57.1929 -54.4499 59 61 78
-12.2428 36.7085 -58.785 37 42 61
21.5401 -24.2757 -66.8171 29 39 8
73.634 53.6329 -11.8518 39 36 52
-53.1093 19.1419 36.7897 59 62 75
-57.496 -8.93346 10.1962 55 33 29
-66.6206 -26.4112 -26.4527 35 48 9
49.7546 -26.264 -0.201584 48 54 82
-45.8152 38.1118 -23.3468 54 54 56
78.5381 59.3288 -6.3721 57 59 74
90.5779 -26.3458 -6.51766 32 28 13
-31.3571 43.7369 31.2213 52 36 17
-16.5029 54.3174 34.9231 39 44 57
-27.6255 65.9366 -59.0221 75 81 93
-4.13063 2.24376 -34.0233 58 58 64
-24.4689 17.6685 -52.9316 58 52 4
53.1465 -26.2965 2.69234 51 56 84
-23.9337 63.9501 -49.5806 46 48 64
-37.367 3.02923 -52.9053 32 18 2
43.5908 14.49 -10.2656 54 59 23
-29.4247 -27.1852 42.5573 9 2 1
-65.474 42.0306 4.69912 70 67 73
15.5103 -25.9727 28.0643 51 70 22
59.7571 -24.8761 54.8165 23 42 10
-52.4822 22.0701 -55.6757 63 65 77
12.6737 59.704 -4.18083 57 60 73
15.5017 -20.6891 -46.5598 58 69 8
42.7906 -3.40955 -32.2725 72 69 73
-52.6985 -26.6787 14.4102 59 73 35
26.7866 47.8934 14.4899 49 50 52
33.7597 -24.4046 -60.5634 80 78 61
28.951 2.49059 -34.9157 64 64 67
57.9533 -23.8624 -66.0827 31 40 6
-94.3671 -26.5224 -35.7401 18 30 1
-25.9023 70.0542 -24.0013 30 40 53
87.2787 -25.3324 -66.3545 12 8 6
67.9718 68.0957 -18.7783 61 64 76
42.385 -25.6123 39.4346 29 44 18
51.6364 26.0985 9.73029 68 71 87
-3.09464 46.8531 -24.3768 51 54 68
82.8296 -25.3967 46.116 28 46 7
59.4147 33.0512 6.27881 59 61 75
20.4277 -25.7772 -36.4227 13 23 1
91.4441 -25.9353 31.9108 35 51 20
33.3816 5.65231 -35.0966 75 74 75
-12.0028 49.0177 1.12692 63 65 80
-62.8172 -10.0296 6.67921 59 59 60
-49.3606 -24.2346 21.9129 42 20 8
-68.122 -26.4541 -21.8797 30 32 12
-20.7383 62.48 21.0999 48 52 66
15.0005 -25.5443 8.41314 29 10 3
15.1272 1.20812 -34.4622 26 24 22
70.878 31.5436 -32.6039 89 84 97
17.0427 0.191647 9.09596 39 38 11
-35.9501 64.3068 -21.5882 59 63 79
-67.8274 -25.6892 -52.4365 38 43 7
99.3902 -29.4541 22.488 17 31 19
0.60231 -26.516 59.8096 68 69 64
-65.8093 47.1738 -3.15227 80 79 82
-42.4728 0.378139 -52.8928 69 69 74
43.2786 -2.81979 -10.6733 50 57 71
86.5069 63.8218 -9.04835 66 70 82
39.3952 45.8764 1.556 39 39 54
-21.3725 57.9988 -46.8983 22 27 45
-52.4318 12.7957 -43.8073 63 38 1
-45.1683 28.5949 31.1847 43 32 33
62.0715 -26.2511 5.47816 34 54 12
55.5804 26.3098 9.36699 63 66 80
26.7078 -12.8427 -35.114 59 60 66
-27.1457 -17.4255 29.3376 3 3 3
23.7559 59.7408 -4.41618 60 62 76
46.3383 35.6208 5.87373 58 63 76
10.7154 3.9052 -34.2673 61 60 58
64.6064 22.4559 7.79976 73 74 81
45.2731 -25.6903 -36.4748 35 42 10
-30.407 20.1521 -52.7706 74 68 23
-9.94623 5.88414 -51.8059 71 69 62
-28.0911 74.3969 -28.8586 57 61 72
-24.9711 35.6069 30.7531 82 82 84
44.0026 13.4677 0.44487 57 57 48
-42.1502 47.6864 -12.5348 58 62 79
-42.8517 40.4173 3.89819 0 0 0
-32.4394 69.3705 26.5364 67 73 88
-27.1139 71.6117 -45.0197 47 50 65
-52.8313 -25.7507 64.7811 61 67 60
-4.66736 -25.7641 36.8608 38 51 22
62.2014 37.9929 -31.8681 61 64 76
27.008 66.5976 -7.40701 40 42 57
-62.594 0.911858 -7.6382 47 55 70
32.5003 13.6156 9.29677 63 45 28
-63.3469 3.09103 2.05853 62 62 65
-43.9826 43.5629 -16.9147 59 63 78
97.8319 -25.9741 36.5934 49 67 16
37.9456 6.67652 9.24507 66 65 66
51.2244 67.6886 -17.3774 50 53 68
-52.3034 27.3033 -44.8685 62 67 80
55.19 -24.4248 63.2804 27 43 6
-43.7627 38.7709 -52.1388 74 78 84
-49.7778 -21.3509 -51.2637 78 78 74
40.1781 -20.6159 9.12257 53 24 2
-1.64493 -25.81 35.5798 42 53 23
81.022 -25.2448 -39.9189 26 41 1
-54.9558 19.3668 -33.6212 56 60 73
-64.475 36.2893 -22.9796 85 84 83
-7.45448 -4.30365 -36.3918 64 63 64
-81.838 -26.6398 -17.1179 35 46 4
-25.9019 51.0637 31.2243 83 81 90
-73.2292 -25.0305 56.8982 19 41 1
37.4147 -25.6956 21.9226 36 35 7
65.5207 22.6516 7.68947 69 69 78
35.1373 37.7155 4.9855 48 47 62
-23.5227 47.4918 30.9798 47 47 51
43.9451 -16.6196 5.62248 54 29 12
-22.7708 17.5282 30.4617 83 77 79
13.7909 -25.2146 52.8687 105 95 72
-36.3436 62.0995 -12.7046 41 48 63
-46.6333 17.2545 -52.6218 63 63 66
54.3528 -27.185 -70.6735 10 9 10
-37.8855 30.1844 -52.4994 65 74 53
66.5858 39.7037 -28.2729 46 39 49
19.1105 12.416 -34.4104 59 58 61
48.4656 -24.4071 62.6269 36 46 32
-10.1338 68.0924 -14.8523 67 69 83
-35.608 64.9292 -19.5015 58 63 77
-17.6419 -7.51605 30.04 73 73 75
16.4563 -20.2891 -48.4469 42 57 9
-67.8194 -25.4456 47.085 68 36 29
-47.0576 -5.30133 30.0161 68 68 64
58.2172 59.9194 -5.67133 60 62 75
80.6527 44.7808 -27.6911 46 34 52
4.26748 36.7449 -29.2607 58 60 75
86.7729 -24.5797 -53.7775 16 26 4
7.24656 51.3314 -22.8085 43 46 54
-50.089 1.35224 -52.2771 72 62 48
74.1299 66.9928 -16.7966 59 59 79
89.2652 -26.3377 5.1727 35 53 11
-51.9207 -5.85091 -42.1083 75 70 74
-4.99884 -18.5844 23.1746 49 24 10
27.4444 -25.4433 44.4388 54 68 41
43.1537 -16.5632 -8.38116 69 65 45
72.932 55.6976 -4.46402 58 60 73
39.2525 17.2828 9.68813 48 49 56
74.3401 56.1592 -12.5706 36 30 48
55.5354 -24.0342 -63.6023 37 42 7
29.8363 65.1672 -17.6448 43 44 57
35.3385 29.4783 -33.9945 60 63 76
-26.6915 64.9058 31.8153 83 85 93
-14.6116 46.5126 14.2446 63 71 86
56.3641 58.1662 -4.78709 39 41 57
41.0232 32.6512 7.11156 58 61 74
-27.1564 64.8955 -60.0058 79 82 93
-13.2949 62.7628 -17.1174 71 76 90
-51.7999 -21.184 -50.2781 39 25 14
-39.003 40.7758 -52.286 69 48 5
-10.9254 71.6219 -12.9773 52 50 55
-59.2992 -24.8829 8.0365 40 35 31
-39.9107 39.9853 -52.2754 73 52 2
53.3093 37.54 -31.3869 59 62 74
-40.3646 43.3119 -52.2077 78 80 86
41.8595 5.88723 7.14961 76 77 69
28.4974 64.7462 -17.7742 55 58 69
8.11194 -25.7184 23.1966 16 3 1
-7.82815 10.5153 -47.838 70 70 73
-6.01543 0.00943756 8.31799 47 29 14
-5.23936 9.59385 21.3768 93 93 95
41.059 -26.184 57.0803 8 5 4
58.8146 -25.4045 41.7887 63 43 70
-17.9715 8.19368 30.2122 70 68 70
25.9855 2.89534 -34.7776 72 72 76
68.7901 -24.5576 62.4107 27 46 9
27.2568 -13.1251 9.02922 68 64 66
-92.7219 -26.3796 31.4962 32 43 3
42.3992 -3.66295 6.64789 76 74 69
59.7995 18.4789 12.2809 59 62 69
81.9374 -26.1338 22.5532 55 77 25
-51.3665 -16.0093 -34.1703 70 41 6
41.608 29.2759 -34.4626 57 62 73
10.5509 -17.3176 23.6166 2 0 0
43.4609 -25.7985 -37.8248 63 77 34
-5.14469 -2.14111 21.8024 74 71 73
64.8289 18.5101 -37.8382 71 65 80
56.1515 47.5996 0.0245495 49 52 65
-8.57265 -13.9416 -51.9579 65 65 60
71.9833 63.7294 -8.10197 58 62 75
-51.1757 -25.3931 -34.7697 54 31 18
63.9171 29.3225 7.6885 47 47 60
-7.58394 -6.84026 -43.5826 56 55 59
-50.3266 29.4201 -24.2206 52 55 68
-37.7142 58.1806 -8.27888 60 64 78
60.3445 -25.8679 29.5496 27 45 11
-51.2925 -24.2344 -37.1374 43 26 13
-21.6558 57.0133 -61.0205 64 69 69
35.2925 -24.9033 32.5175 60 67 73
42.8861 -7.15801 -24.2879 58 57 61
64.6951 41.3348 -30.6392 62 66 77
-62.7015 -14.5061 -20.8547 73 74 74
48.6656 52.5089 -24.4544 35 35 51
-1.29744 -25.4416 46.2259 41 47 27
-6.8757 6.14722 -33.7311 60 50 55
-0.0729218 -25.4304 45.8116 32 40 18
60.3616 26.7176 -33.744 97 88 98
15.2296 -13.1711 32.4877 12 11 10
-39.5635 58.1047 -41.9734 53 62 78
71.3166 61.4772 -22.1586 52 54 69
54.6544 51.4074 -1.60695 56 60 71
-26.7216 66.8564 31.8951 89 92 97
5.69701 -11.3956 -34.4882 43 35 16
35.381 28.5627 8.82253 58 61 72
-16.8391 34.3782 30.4007 68 69 75
50.9159 -25.3854 -37.8959 24 39 13
98.9279 -27.1044 19.9125 71 66 63
-62.6709 -17.2668 -22.4085 72 74 75
78.2562 -24.9906 -45.1669 32 36 1
-42.1459 53.476 -60.2559 82 82 83
58.1652 -25.6497 -29.3016 49 56 73
-63.1396 -1.04005 -0.643707 68 67 70
-45.9525 39.5605 -8.84695 54 62 72
55.7902 38.3417 -31.2438 60 63 76
13.5934 49.7395 -25.746 23 25 28
92.1211 -27.8941 53.4737 71 73 60
61.1263 -25.4474 -35.4835 78 65 42
47.669 -25.6555 34.4644 35 45 5
37.4376 68.1703 -8.23409 63 66 76
71.1377 45.6783 -29.2969 61 65 78
-76.597 -26.6396 -18.8936 35 50 0
-78.0567 -25.3647 55.6727 28 47 9
-98.6083 -27.1113 56.9299 91 88 88
-35.7089 40.7458 -52.3678 73 66 63
-24.3061 61.9868 31.4942 79 67 43
-50.7363 28.5831 -25.5531 38 40 56
-32.8834 74.5815 -42.8525 61 62 73
-28.2398 27.5346 -52.7407 69 53 12
-39.3896 52.83 9.10095 62 65 81
-16.0085 39.4706 -53.7576 64 66 77
-5.22523 20.6013 -51.3409 41 53 71
-2.73468 14.6078 -33.893 82 82 83
-64.2179 22.5214 9.15826 60 37 10
-13.8315 32.8094 -55.1815 78 81 99
48.1692 60.5412 -4.88197 58 62 75
-46.0382 44.1803 -55.5718 61 66 81
-35.7918 47.8445 31.4698 75 77 79
-51.0807 29.9524 -42.7519 60 63 78
-72.24 -26.5057 -24.8554 69 59 17
72.4451 53.5806 -12.6118 41 38 55
-7.7891 26.8361 -47.3731 37 39 59
-28.9156 -25.9241 -53.4109 42 14 0
-37.9171 35.6372 -52.4077 75 68 62
6.66973 -21.4353 -43.6434 63 56 37
34.696 28.1774 8.98318 60 64 75
-7.38092 25.9123 -47.5035 28 36 57
-32.1059 48.2069 31.3668 54 50 29
17.2209 55.0587 12.8528 48 54 68
77.1 -26.2324 14.5097 66 64 63
45.4469 25.4968 -36.3193 47 51 65
39.0301 -24.296 -61.8864 40 47 19
-49.5056 3.18727 23.116 71 70 72
-63.6758 11.1418 -2.44209 33 39 6
9.69466 -12.2866 -34.5865 33 45 4
-4.49724 23.1102 12.303 56 62 77
-84.1989 -25.7545 42.3019 28 36 5
6.31586 8.64324 9.21994 66 64 67
49.7313 71.9695 -10.2637 77 81 95
76.3975 -24.7912 -50.0351 31 47 1
-56.4178 6.98783 11.8293 81 86 89
14.5659 37.5331 15.7763 80 78 78
18.8942 -27.9584 62.5318 10 21 14
-6.25343 -24.0239 -48.2164 0 0 0
8.48118 -24.8512 -38.5505 24 28 7
-30.9149 35.6535 30.9769 69 73 76
-62.654 0.702648 -8.95441 49 56 70
21.01 31.3903 9.46787 82 77 80
44.0161 -26.6141 7.75027 48 62 38
-34.784 68.5758 -30.5662 57 62 76
-66.2146 55.4091 -11.9549 76 75 78
-21.5187 64.002 18.565 53 59 72
-47.5311 35.9402 -25.2694 59 60 77
-6.30421 -24.9429 57.5014 49 58 17
58.5178 20.3122 9.04845 98 94 106
-0.357269 -25.0753 53.9269 59 57 27
-9.64851 2.25575 -51.7763 70 70 65
28.7294 -7.32174 -35.0921 30 47 23
-79.9295 -25.8596 38.5336 23 41 18
-20.8112 56.5593 -52.0931 46 53 67
-50.3265 26.6042 -57.556 81 85 92
14.5672 31.6407 16.254 56 57 56
51.9621 -26.2979 2.84108 49 56 84
-19.0047 15.8692 -53.0645 35 38 2
-84.3188 -25.8771 38.9017 81 71 89
85.2876 -26.0515 -17.2739 32 45 8
-94.5404 -29.0222 33.6467 107 105 110
-29.8747 -13.7924 -53.1137 65 48 4
-19.0931 53.7298 -26.9757 37 40 57
68.2027 30.2724 -35.8699 67 70 82
18.3259 -24.7666 33.7543 40 46 56
5.5252 66.8884 -15.8611 47 50 61
-7.49928 -26.9213 59.4244 60 61 58
-71.8109 -26.4408 15.5731 35 43 20
-26.1079 64.4257 31.7544 88 87 87
-25.9429 58.4221 -58.9143 62 67 82
-16.7744 8.53666 -53.1559 73 74 76
77.6854 53.961 -3.8645 57 60 73
25.5318 49.8646 12.4856 68 68 77
4.1217 -25.4243 45.699 49 54 9
56.4022 -26.2548 -1.07845 52 62 89
70.2814 31.5657 6.42728 62 65 79
52.1229 19.2842 12.5797 74 80 93
-17.1151 48.854 32.8315 49 52 64
-51.1518 -1.94003 -32.7934 66 63 61
42.882 -6.68329 -21.0053 38 47 62
15.5192 -25.4133 45.0245 30 41 10
-7.31551 9.85886 -37.3176 73 73 78
-91.9995 -26.6315 21.1666 18 26 11
43.0772 5.10146 -23.3813 71 70 73
25.9219 44.808 -33.943 53 56 70
46.5765 25.8807 0.995232 64 52 50
74.057 71.2767 -17.6251 49 46 54
-17.6752 57.0664 33.9351 49 52 67
-64.4108 -24.7562 66.9584 34 47 20
20.0389 46.1158 15.5916 67 66 70
-92.6338 -25.3077 56.2289 13 38 3
-30.3974 -25.0588 -53.2734 35 17 9
73.0885 -25.2521 -39.3543 87 61 29
26.0233 26.3015 -34.8855 61 64 76
-39.2849 53.6416 0.964996 61 66 81
42.3977 29.547 -34.3772 54 57 71
-32.1854 71.2152 -59.3218 38 35 48
-6.95103 -25.382 47.3654 39 59 27
56.1658 -25.6635 34.3409 19 30 12
71.1382 29.5118 -33.5576 80 78 88
-26.1908 69.7363 -38.2674 38 43 59
-50.3138 29.5424 -25.3637 54 57 72
-1.70686 1.32996 -34.0684 61 60 66
9.87654 69.2038 -14.9886 53 56 68
42.9699 -18.8148 -15.6893 46 24 9
66.9329 58.2409 -16.3508 35 33 48
81.9576 41.525 -30.7445 84 84 81
-96.5953 -27.201 61.4875 78 79 76
42.8509 -7.60104 -27.0011 68 69 72
-85.2009 -25.5722 46.4713 64 81 34
-4.78355 -26.2011 24.4585 37 42 26
-22.5495 19.1301 -52.9645 73 50 1
-19.7702 48.6546 30.8331 79 75 83
18.0312 29.699 17.8315 69 68 71
-64.0402 25.2603 -25.061 66 48 27
-52.4144 24.6889 -25.7358 50 52 67
43.2992 -6.68203 -9.35892 65 64 68
-5.89771 28.0724 24.8761 44 51 65
-31.9148 70.4286 34.5318 58 61 78
31.9386 -25.5182 42.1251 37 47 10
-77.3454 -25.7151 -52.2143 70 45 0
-41.8389 48.5844 -59.0539 54 58 73
36.0093 -17.8951 37.7296 37 41 57
59.0865 64.6073 -7.83049 58 61 72
80.9975 41.623 -29.1967 56 56 71
-0.596809 42.7463 3.38962 62 65 79
-47.6092 32.5094 17.1378 39 39 55
24.5273 54.8147 -22.0206 59 62 74
32.1351 4.80377 -35.0239 63 63 66
-10.8932 62.2388 -4.50218 40 40 53
1.27428 -25.4637 24.2059 29 38 18
-29.9606 73.8762 -27.9633 76 76 70
-33.0314 72.5359 -26.3854 47 50 68
-53.2974 26.0041 1.81534 21 17 28
45.2725 33.8763 6.61345 60 63 77
5.98166 -3.88335 -34.2782 57 59 57
24.3652 52.0385 7.33599 69 73 87
-20.9328 2.42303 30.2562 37 42 66
-52.0635 -11.8356 -49.7632 63 34 14
47.8008 71.2665 -11.9338 88 90 88
17.1159 -17.2363 23.43 55 28 9
37.4317 -21.5503 20.0589 36 56 21
58.0786 -24.8646 -48.0023 43 45 21
-50.9015 25.4481 -57.8647 84 86 91
-25.382 70.3131 -6.75531 36 44 56
55.1793 47.7228 -27.0205 53 58 71
26.4232 48.8493 12.0552 73 72 75
-63.0653 -2.54295 -0.901123 67 66 69
-34.3421 31.8379 -52.5564 70 71 75
64.3715 -25.3052 42.6211 49 49 78
-54.0134 40.2757 -8.86469 45 18 6
15.9811 11.2015 -34.3327 61 46 13
68.226 27.0241 8.48265 61 63 77
2.80888 61.4002 -18.2234 39 39 53
9.16794 71.2353 -9.1729 66 69 82
-84.6646 -26.2435 30.1481 26 36 8
-51.3474 -21.5136 -35.9637 49 27 12
42.0959 -24.3904 -59.6122 27 35 18
-42.9751 41.9182 3.96306 0 0 1
71.0508 56.4533 -21.2781 41 39 57
87.4999 71.4429 -12.5526 62 63 76
-44.6358 39.6047 17.1634 52 53 73
74.2532 -25.5564 37.7339 32 43 4
44.8027 49.647 -25.5492 36 39 54
-49.6441 -21.2195 11.5097 32 12 7
-52.5511 10.5338 -49.3441 53 28 7
87.3633 -26.0199 -20.1022 34 47 7
-61.9033 25.7995 9.66937 75 73 75
-78.7265 -24.6268 63.4911 31 46 4
-5.12844 -15.7702 -34.2652 74 72 71
-7.7041 3.47559 -43.0729 75 74 76
66.395 69.8562 -10.7219 62 66 79
-44.9569 34.8547 39.3678 75 76 80
76.7794 42.9441 -31.072 68 71 83
-59.491 50.4961 -6.24423 33 16 8
70.956 52.6889 -13.1347 49 47 63
-60.9613 52.7443 -6.76354 40 36 42
-53.2332 19.5381 16.1014 59 60 75
62.9006 -24.3392 -57.3008 28 35 3
-24.7787 65.5517 -57.9863 49 54 68
-53.9083 21.8166 4.74171 57 58 67
-51.2377 -23.8282 -33.6082 59 28 18
-1.12326 32.6714 -30.8759 45 48 64
-49.6391 27.4775 25.3848 60 64 78
68.728 67.59 -19.0969 60 64 77
-46.7447 23.7287 31.4764 59 46 37
-44.4982 -26.2506 63.1627 70 80 71
-66.9895 66.7075 -8.82954 86 82 86
31.7976 68.6385 -8.39874 63 66 78
-64.477 25.7683 4.39166 30 36 3
-64.2141 20.7197 4.58753 69 57 38
7.11576 -23.193 -34.668 39 21 11
6.18786 42.1844 -26.8728 56 58 71
42.7663 -12.7112 -30.9993 62 64 68
-62.5751 -21.9565 -18.1591 54 32 15
13.2957 36.731 -39.1865 77 78 77
-18.3203 51.2427 -39.2213 39 45 62
-62.6478 -4.81154 -10.5686 52 59 72
-13.0355 -24.7901 -63.5588 20 29 21
-12.1987 59.156 -3.1673 49 51 61
39.0211 -21.6499 22.7462 32 44 11
-31.299 74.0902 -32.5008 71 72 69
43.6233 18.0753 -0.666473 59 59 56
-21.0016 63.6006 24.0301 48 51 66
-45.9751 44.4538 -56.2797 62 65 81
89.3249 -24.1413 -62.5325 21 44 4
-73.4802 -25.3314 -61.4855 21 39 0
80.3056 44.2378 -30.7971 64 67 78
-11.3157 38.164 8.24358 56 59 76
68.2719 -24.9983 -44.4408 21 33 18
-22.7749 62.1214 -30.2913 27 34 51
-8.38124 29.111 37.3087 56 57 70
58.4662 -26.1714 15.2809 40 42 12
-14.3927 41.5114 36.0345 55 58 70
-15.5593 46.9489 2.51788 50 53 71
35.6369 -16.3437 -35.5659 62 60 56
-51.5494 -26.034 31.8643 36 52 4
-23.2506 70.2301 31.3081 50 57 71
62.8687 42.7415 1.55424 57 60 74
44.5017 69.3763 -8.79761 60 63 77
-82.9708 -26.0186 53.4893 45 51 44
17.1348 -25.7462 31.9055 32 41 15
41.7407 3.87978 8.85754 63 61 59
41.6095 -6.87505 8.17511 69 69 64
22.3679 -16.8567 35.4756 43 48 62
-60.8283 1.066 9.56506 86 86 79
62.9076 71.0754 -16.1049 85 86 77
-27.6932 5.24084 29.7647 30 30 27
69.4616 35.3543 4.80789 60 63 76
-13.606 39.8711 -56.018 45 53 66
42.8403 -8.29567 -27.4466 68 69 71
78.2329 -23.8235 -65.5825 20 37 16
53.3161 -23.9472 -65.3885 28 47 9
71.4226 58.2915 -14.1597 34 27 44
3.84902 -27.3466 60.4017 60 58 50
70.6387 56.7783 -4.87898 49 51 64
43.3711 1.92809 -8.72539 64 63 66
86.3452 67.5734 -20.7416 68 72 85
-43.0497 43.4187 4.00523 40 43 52
54.9969 25.8799 -36.6666 62 66 78
-30.7664 -8.52726 30.563 47 42 63
-54.2414 21.9783 -38.8043 60 65 78
-62.6128 -26.5975 5.30234 26 24 10
-5.05998 21.3522 36.6665 66 67 73
-6.81063 24.9551 35.9758 50 56 65
-47.2924 35.6603 -15.0346 51 52 59
93.9601 -25.7536 41.1442 36 37 22
36.4146 -7.10913 -35.4332 39 26 23
-48.9133 -19.6565 27.8477 48 30 23
72.2448 30.0305 -34.2199 80 80 78
6.93765 58.7112 -19.5842 49 51 61
40.9562 65.309 -6.9735 57 61 74
25.5588 -18.6268 9.04892 48 28 5
52.0816 70.8871 -14.9535 88 89 86
77.0327 62.4287 -13.655 43 41 59
-44.6169 8.41308 31.3275 46 31 19
-7.24959 32.0855 32.2436 63 68 82
-10.7435 14.2337 29.9834 68 65 71
43.1451 -6.33444 -7.59785 55 55 56
16.3988 -15.1628 9.05963 64 58 59
-35.1361 7.71931 30.864 71 71 73
-34.1395 67.1112 -6.59097 47 54 68
-62.5454 35.8109 5.59286 65 67 62
50.9451 64.0691 -6.57582 64 65 76
48.1811 -26.2044 16.1544 36 37 18
-27.1642 64.8505 -58.9521 75 80 91
-34.4587 13.2479 30.9015 68 63 68
-62.7844 -12.3999 -22.2451 73 74 75
43.6873 -14.8265 -0.387421 62 63 65
-12.3698 41.162 38.1602 69 68 72
-43.2538 29.3174 -52.4434 75 79 30
-62.6624 -26.6264 2.59344 29 37 3
-51.8221 -1.94686 -38.6281 66 65 67
-17.9579 -0.718479 -53.2113 41 54 12
-53.3666 19.4861 7.02046 58 61 76
13.126 49.8622 -29.5861 21 21 23
31.8003 -17.2244 35.7225 46 52 66
-91.6916 -26.2271 -57.3362 27 37 25
55.6043 -25.5717 36.6033 25 34 16
11.5002 -26.3307 34.2768 44 53 66
-54.8769 28.6961 1.34688 40 35 43
-59.3181 -27.7233 67.0065 14 24 19
-20.9448 57.7142 -33.381 45 50 64
-0.967361 -25.7588 37.052 35 56 21
-63.3108 3.8953 -22.0242 69 69 70
-49.2593 -15.7187 23.7674 66 47 4
-5.59495 7.50447 15.473 112 110 114
51.8632 -25.3016 44.7487 24 49 6
13.6366 18.7087 13.136 54 55 67
4.57235 -24.1352 -60.0532 33 33 15
42.9387 1.03486 -28.2317 68 25 4
-16.7726 -23.6927 -58.922 32 23 18
-44.4592 39.5252 -23.9071 0 0 0
-39.2628 -24.8278 60.2164 46 71 19
19.9746 55.3134 4.07222 53 49 51
-12.6368 14.1295 30.051 70 70 72
-15.5843 -7.92796 -53.2678 61 63 66
12.1002 48.3142 -28.2344 22 23 27
-45.4796 43.2069 -42.9452 60 62 78
-48.7653 24.8919 39.6406 71 72 79
36.112 38.7623 -29.8635 57 61 75
-98.4462 -27.062 50.3555 91 91 87
-96.9652 -26.4227 -41.5242 24 39 5
-22.1203 4.74272 30.1375 79 75 76
-22.1181 68.2404 36.1336 60 63 78
-35.4748 8.9741 -52.8568 63 62 69
-44.0575 -25.3128 49.2251 51 70 31
-35.4805 66.4257 -28.0159 56 59 75
-28.4733 10.3067 30.6121 79 77 79
40.1641 -8.98086 -34.3753 71 71 65
-31.2723 65.1837 38.2183 102 109 119
-73.322 -26.5648 9.60257 28 22 5
-51.3017 -12.8895 -32.3699 55 54 54
-28.801 55.5697 31.4874 72 73 80
-86.2707 -26.1684 -43.7549 45 55 16
-25.0268 69.2426 -8.42923 42 45 60
75.6989 -25.9801 25.8974 36 50 14
-6.84567 71.1982 -8.59607 56 60 74
70.6468 -25.3695 42.1059 37 43 11
69.3475 -26.6927 65.5265 19 18 20
-51.0634 -25.7591 -38.804 39 29 20
68.0338 -25.2538 45.3161 30 44 15
76.5041 51.1473 -24.3806 48 45 59
57.7055 63.5845 -7.27208 58 62 75
-42.1706 -25.3623 47.8203 20 38 8
7.33038 -16.3855 52.2313 64 68 65
-99.5983 -26.765 -15.095 32 42 10
-50.0649 5.18398 -51.1879 78 78 73
-9.1369 30.101 -42.8447 51 58 72
-51.3442 -14.0295 -32.3968 54 49 48
-5.25535 -5.64088 19.4232 88 86 85
-51.3101 -17.7859 -34.1645 57 30 9
-15.1792 13.1073 -53.149 67 48 19
15.0971 53.9784 -25.9761 26 28 33
85.7492 47.3014 -3.19825 54 57 52
-50.5031 26.6197 3.48456 70 72 84
89.1541 -25.6011 -32.4525 13 32 3
93.3407 -26.3195 16.1049 36 39 17
-22.2964 -26.5434 30.2743 36 35 14
-34.3389 1.71795 -52.9557 57 40 19
42.8417 -10.5468 -24.4853 66 68 70
43.8554 56.2977 -22.4767 49 53 66
71.1082 48.2024 -25.0948 42 35 50
-49.6647 8.15704 22.0012 67 66 68
-46.9251 28.3794 -52.3915 46 53 15
31.4482 -12.4021 9.03789 59 58 61
-63.6584 11.4176 -10.9907 30 33 4
1.35628 -24.3995 -55.5224 34 29 11
50.4047 70.3575 -13.6618 94 95 90
-64.8129 31.5955 -1.41269 69 48 22
-16.5987 47.3158 13.0572 30 34 47
-62.1539 55.5318 -10.1385 32 34 37
-91.8676 -25.3261 54.6884 31 46 1
44.0949 29.9489 -5.04675 66 69 76
-24.1433 64.5141 -45.535 47 52 68
19.7578 -10.8363 33.5349 23 24 15
7.66821 65.1508 -16.717 51 53 66
-62.2641 -27.7289 67.6135 15 24 14
-41.2293 56.7037 -57.8385 49 54 70
72.0157 -25.9426 -18.9938 35 35 18
30.7426 3.10669 9.10045 63 60 62
-36.4103 62.1993 -14.9531 44 47 65
72.1351 43.0924 -27.4905 55 52 66
59.2842 35.5642 -32.7538 60 63 76
34.2769 18.5094 12.9056 59 61 67
59.877 63.4848 -7.37523 60 63 74
74.3121 -25.219 47.4835 31 50 5
-38.86 54.5015 3.33448 61 65 81
56.9732 -25.1666 47.9979 31 47 3
-17.8887 54.9289 23.1921 78 82 96
27.1359 -8.33218 9.01585 63 64 64
15.8039 55.2356 -26.0618 39 41 52
-93.2926 -26.7663 -5.70132 31 39 1
47.7065 39.1786 -30.4253 56 59 73
