ply
format ascii 1.0
comment Created by Open3D
element vertex 1372
property double x
property double y
property double z
property uchar red
property uchar green
property uchar blue
end_header
9.75686 8.08752 9.21835 81 82 75
-18.0225 3.42618 6.22026 80 70 74
0.0801773 19.7053 -2.78199 36 43 46
11.218 22.9506 6.62053 64 71 62
-16.7809 4.31889 -4.63726 192 161 184
-28.2388 -0.950054 2.73716 35 37 39
-1.16482 10.1755 14.115 53 59 55
17.5292 18.0196 -4.84936 185 146 175
-32.31 -9.43751 4.08038 18 36 47
-7.95553 -8.93211 -6.11988 195 190 192
-4.9248 6.01342 11.6789 73 76 75
22.5952 -1.28072 3.38892 5 0 11
11.8457 11.0176 -9.74932 68 76 98
18.4016 17.3544 3.7289 110 90 104
-34.1908 -9.78706 -1.15112 48 53 55
-25.0562 5.42686 -1.60275 116 96 109
-24.9284 -6.49751 5.20305 13 7 11
4.28779 29.8396 4.91725 37 51 59
15.6662 18.443 1.62649 24 24 28
-28.0982 -1.84662 -2.86164 110 122 122
-26.8136 -7.20834 4.91704 22 23 32
18.3245 -16.0887 8.9642 38 28 36
22.618 11.6496 -6.10472 162 124 161
21.5089 4.84604 5.50787 91 88 86
-6.25671 12.4935 -5.38402 77 79 73
-26.6424 -8.35944 -2.26321 67 81 93
-5.0802 13.4685 6.91304 67 70 68
-27.6143 -15.2107 -2.29354 102 118 127
-5.96782 12.4606 1.88523 81 81 74
-1.57799 9.91537 -13.3871 34 39 36
13.6075 21.4538 -3.60814 180 164 192
-27.334 0.563652 -3.76555 111 95 109
8.83392 27.9255 7.08369 31 41 44
-2.30361 7.64849 13.5967 46 47 48
-4.1756 19.6176 -1.15176 146 159 144
-18.1764 -0.828434 6.74935 77 72 72
16.3785 18.8567 -0.0212135 20 22 27
-18.4111 -1.7965 8.79083 73 72 72
1.4824 25.6987 4.7349 62 72 74
17.4019 -15.4611 9.89461 20 17 19
14.3038 7.68661 8.24451 74 69 70
9.05025 1.54861 10.0006 53 57 56
-10.5639 -2.49853 -7.3331 158 149 148
-31.0832 5.54357 0.52394 106 87 100
-20.0762 4.54752 5.17054 80 71 74
-5.71038 7.78276 -9.32316 147 153 149
17.3832 16.1518 5.56611 98 91 96
-25.8226 -10.6568 -2.3105 28 48 64
21.6611 14.1743 -5.06958 188 145 187
1.10952 25.7023 1.50286 21 48 57
-22.6385 -15.6352 -2.19623 128 140 143
14.5783 16.1421 -7.15235 117 123 114
-26.1722 -8.3091 -4.24864 48 58 65
12.1667 9.60921 8.8988 19 18 16
1.19321 24.1553 -2.84614 123 140 136
1.59518 1.51066 -11.3203 169 172 177
4.61888 32.3249 4.59741 38 45 48
-0.495247 16.9282 -5.69623 117 118 111
2.94408 30.6135 2.6226 31 45 54
3.16954 33.0013 2.81555 46 73 92
-4.87013 1.88041 -12.988 45 45 45
15.5788 23.1375 -1.59213 49 70 78
23.2852 6.01551 2.56625 76 77 75
-31.6684 5.33131 0.104325 102 90 96
-0.929554 10.2637 -13.1754 35 33 34
8.00693 34.455 1.94676 4 29 39
10.4073 18.2932 5.03715 66 72 64
7.92173 29.672 6.85343 24 43 48
25.9672 -8.765 -4.51401 35 42 50
22.3212 -6.71841 6.51106 32 37 38
5.9003 30.7116 -3.60454 147 159 168
23.3319 -5.29192 6.22684 11 10 16
-32.0775 4.31259 4.66565 71 71 67
-6.30799 11.966 2.82546 78 79 77
21.9385 3.28551 0.512449 10 14 16
-27.5102 -14.3503 -2.05538 19 18 30
-4.42611 14.1532 4.70953 71 74 72
21.6151 4.69731 -4.1587 37 38 48
0.900024 8.31617 13.1911 68 72 69
-30.7406 -2.01109 2.70352 35 39 40
-30.8448 -9.19023 4.59203 30 40 48
-30.012 -11.9131 -2.26767 141 158 162
19.0837 14.9909 5.26652 93 88 90
-25.6023 0.749817 -4.31643 162 158 156
0.594803 20.1933 -2.91609 20 27 31
-2.91725 8.11022 15.0902 47 50 46
-14.2064 4.04066 3.31009 98 93 90
0.195667 13.1073 10.3032 78 70 69
-20.4449 7.04469 2.03804 227 201 213
-4.749 -7.82238 -7.76829 196 183 187
-6.72836 4.87361 10.9547 68 70 67
15.4452 12.4982 9.48647 78 81 72
-27.7495 6.43444 -0.671799 105 95 93
8.11491 26.1923 -5.49675 157 172 177
4.26773 12.1838 -8.90945 153 150 147
29.5921 -15.3621 2.79676 22 26 32
25.6272 11.921 -0.360757 92 94 96
14.1926 20.0031 3.09312 55 60 55
-4.2716 6.22449 -12.5042 158 170 168
5.2172 -3.60716 10.5837 64 67 66
7.63196 -14.9521 10.543 31 43 44
21.3552 1.40381 4.55831 19 21 22
-25.7786 -16.5895 -2.31947 105 115 122
-2.83048 -16.1846 12.7823 75 79 81
-0.042366 23.4088 -1.25847 129 142 141
-25.8234 -0.544792 7.45931 78 71 76
11.6747 12.6206 8.12909 32 35 37
-9.52268 7.90045 4.62815 85 83 78
21.0542 1.51605 5.22339 12 15 17
0.428459 20.5383 2.37571 61 67 66
9.5103 33.071 0.195379 102 113 104
-11.0044 6.51962 -1.94553 88 89 80
-13.812 3.32555 0.811363 90 91 83
-14.341 3.87473 -2.72803 96 96 88
30.6124 -9.96255 2.1453 26 31 37
-5.47168 12.9043 4.71912 71 75 71
-4.29345 7.18355 -12.0534 166 175 174
-19.2196 -7.29899 6.518 34 38 41
15.0579 19.9337 0.639976 63 68 63
12.8003 23.046 5.70332 37 51 57
33.5234 -6.49173 -0.215616 19 17 27
4.1095 29.3217 4.57425 28 41 50
20.5862 17.4457 0.289179 53 79 92
-26.0028 6.14964 0.964289 100 97 93
1.48072 17.8958 -6.98198 146 111 142
4.44189 12.9948 -7.82875 85 89 84
28.9711 -8.66032 2.27233 6 18 36
-5.10163 13.7972 -6.13575 108 113 108
12.2838 30.3541 -2.96803 156 172 182
23.4534 6.19172 3.34572 87 90 83
29.779 -4.20546 1.19543 18 20 28
-27.2028 -1.96224 4.59542 20 23 25
-22.8206 -11.0284 6.75997 50 57 60
-1.80046 17.1081 2.89405 66 69 63
-33.5267 -10.3467 2.97522 14 16 22
3.73993 25.7307 -4.3437 135 150 159
20.6422 13.5637 -6.24505 209 163 204
-4.70783 -0.181946 12.9758 70 71 71
4.30669 23.883 -4.83707 126 145 153
-9.56112 -0.590225 -9.1833 93 113 117
-15.8391 5.44212 -2.46667 114 97 105
24.8668 -4.82294 3.0537 2 1 17
-6.20742 11.9834 6.60849 70 74 69
-9.89914 7.47945 5.09776 88 87 79
12.1494 16.7327 -4.10132 31 31 23
-24.8584 -14.5797 -1.57528 44 44 64
2.77347 19.7972 6.53884 63 72 68
26.2428 -9.27671 -6.38326 52 57 68
-0.440735 12.7174 10.4229 81 72 78
-1.43184 8.1789 -13.6877 122 126 134
-12.2217 5.07133 -4.09943 82 82 76
-6.58452 11.3691 7.46341 77 78 73
-1.93983 7.72098 15.2787 64 66 62
0.84605 -12.6864 13.182 50 53 51
13.6121 -9.91975 9.57095 58 61 58
11.9883 -1.63526 10.3778 63 65 62
25.8065 -4.76797 2.52673 4 13 29
-7.54452 -12.0023 11.0512 43 51 46
-27.0079 6.27958 -1.4571 245 184 235
12.305 22.4716 6.00959 66 73 66
24.5526 6.46615 -0.0819861 29 26 29
-21.4233 -2.21225 8.93836 54 54 50
21.5072 -0.649391 -6.25286 33 38 60
14.073 12.5543 -9.92109 191 193 189
-28.8605 -0.557308 0.389683 25 29 28
24.205 6.58483 -4.58027 126 117 129
25.4068 -4.41037 2.5348 3 9 23
17.7187 16.9655 4.7058 105 93 100
-10.7352 6.2989 -7.22264 130 135 129
-23.9539 -7.66541 6.68647 27 34 37
8.76919 9.5378 9.11594 59 61 52
31.64 -16.3606 2.27609 12 13 19
16.2888 18.2924 -4.69703 86 85 84
28.264 -5.43535 2.0327 5 18 34
-29.0526 4.74405 -3.49915 194 186 192
-26.6085 -1.67276 7.37861 81 78 78
-6.54395 11.5722 4.44372 91 86 84
19.3703 12.5392 -8.95061 137 110 131
-8.85327 8.87271 0.00533342 82 81 73
-23.3423 -16.2107 -2.30271 119 140 142
20.396 2.72731 -5.40507 32 39 44
20.6318 2.26882 -4.89595 23 24 35
5.34443 33.9719 0.754505 15 36 54
-6.24671 3.6602 -13.23 41 43 41
16.0023 18.6743 -0.502842 7 8 11
14.0122 14.0917 -9.32445 171 169 172
-13.7429 2.43449 5.3462 52 51 45
-30.7056 5.31532 -1.44911 114 95 109
14.7655 20.649 2.55468 64 68 64
-3.90475 14.8928 5.59144 79 83 79
-9.45043 8.26721 -0.970079 82 82 74
12.3632 7.36246 8.71837 60 62 58
21.8219 15.212 2.59313 62 76 87
-1.8792 8.73457 -13.1564 37 37 36
7.37766 -15.8905 -10.0925 15 18 26
4.47403 12.5708 -7.65689 83 83 78
2.26263 17.5994 6.66213 97 92 91
-26.5041 -17.6445 -2.23476 91 98 106
-4.83563 -1.45043 12.6658 67 68 66
4.39616 33.3659 -2.37301 36 73 96
12.2476 -4.79637 10.1536 66 69 67
10.6123 -4.49513 10.7167 52 59 57
-25.8422 5.68139 0.403708 126 111 119
-27.3874 -1.70393 4.1184 35 40 40
2.50479 28.0633 2.58534 14 31 41
20.1866 17.6213 0.916212 41 66 99
21.4475 0.929701 3.4219 3 1 5
-34.3307 -9.49979 1.37038 32 33 34
7.45165 23.8209 7.39429 29 40 45
26.3521 -8.2735 6.37899 48 51 52
-34.0795 -7.13882 -0.778848 26 27 26
-21.5916 5.60879 -1.97352 217 165 203
21.7907 15.9547 1.57903 31 59 88
0.538139 11.1286 -12.0578 164 171 157
26.8851 9.54883 -1.82094 139 116 136
-32.1226 5.27851 -1.72197 97 87 95
15.9512 14.4548 8.36373 118 91 117
-6.04704 4.85804 -11.796 151 162 163
-4.33955 13.4482 7.75564 69 70 64
-27.5038 0.357441 0.861974 27 26 29
11.5734 -3.08181 -9.54642 160 172 176
5.52924 26.1946 -5.16004 92 113 121
21.5811 -10.4209 6.54242 40 47 47
-7.42659 -10.7495 9.23583 82 78 78
-23.7783 4.70578 -3.90827 198 165 187
2.99109 31.3742 2.27443 37 58 72
21.4375 1.09136 3.90763 11 7 11
23.7024 -1.99775 1.78176 10 21 32
-29.7261 5.51835 3.2418 182 157 173
-2.85179 8.90082 11.0469 92 93 93
0.12962 24.7057 0.363167 55 72 76
14.7517 -6.20157 -8.09227 169 178 180
-6.6437 11.6506 1.82906 81 82 75
7.1215 12.5821 6.59846 39 35 35
12.9899 0.323172 9.67335 64 70 70
-29.1019 7.06234 -1.65018 179 168 178
21.1761 16.94 0.370554 36 65 87
-18.6526 2.69574 -5.82462 191 178 187
4.40706 19.7268 -5.89927 153 160 177
26.2616 9.35906 -3.49768 192 147 190
-33.5291 -5.09152 -1.75849 47 49 56
21.7601 2.44829 -1.42136 5 5 3
-31.5256 -1.62999 -1.36826 38 41 42
13.3454 29.3434 0.281277 15 40 48
13.2464 -5.11671 -9.16506 174 180 184
-1.9968 16.9112 2.22652 71 76 74
1.0644 27.5286 -0.922693 36 52 58
5.54192 19.9244 -6.08331 98 101 95
-7.34992 10.8098 0.474266 79 79 72
12.9485 27.0145 5.19058 13 37 43
-11.7961 5.40347 -5.72029 82 83 76
14.2235 -4.34094 -8.49783 178 181 189
10.9556 12.0844 8.16664 60 61 55
13.9668 23.1608 4.32334 26 39 45
-27.3229 -0.672283 -3.31891 47 45 41
-9.93048 7.53358 1.80434 83 82 75
7.56543 35.0591 0.377604 72 95 114
20.1836 17.0275 2.23882 88 93 95
24.7107 8.94964 4.06635 93 78 88
-11.1073 2.26123 -7.75012 56 61 57
20.2578 3.20274 -4.92192 27 27 31
-20.5716 5.46349 0.934738 119 92 108
-25.9518 1.66804 5.51566 83 80 81
11.6546 -4.37213 10.4015 64 70 67
16.7637 10.3236 -10.7025 144 115 149
6.31654 23.5688 -5.94188 130 142 140
-21.0345 -2.32404 -7.75013 152 155 155
23.6518 6.21326 -4.62763 107 104 110
22.5609 4.4978 0.359031 10 13 14
22.0818 -13.5537 3.10558 10 9 25
-1.09775 13.4279 -6.90102 158 158 141
6.16161 -7.05275 11.5001 57 64 62
-13.0006 -3.29125 8.86595 29 32 27
-3.2906 15.3295 2.49945 26 29 31
-0.0123596 -12.5135 12.7523 75 79 75
21.1908 -0.101106 -6.32585 18 22 65
-5.551 12.9774 1.82499 83 84 77
4.31925 29.9037 5.96491 55 67 74
-25.4294 5.38732 -2.45146 114 94 107
1.82813 22.5855 -4.37941 140 151 143
13.9268 -15.4327 9.43035 64 77 73
9.3489 19.0945 6.01894 72 77 69
32.9706 -12.2336 2.18865 13 15 21
10.894 -15.0749 9.86704 44 44 47
23.9726 6.5606 3.48348 91 91 85
-8.08918 -11.5314 10.1689 48 52 47
-20.2741 3.49968 6.01407 74 68 72
2.49075 -14.9288 11.6404 88 85 83
-14.6948 -2.44072 7.27514 80 76 73
-10.7411 2.15501 -9.71002 87 91 85
-6.38462 5.04523 11.0986 68 70 66
19.2147 18.1297 -2.62781 127 122 132
-3.49169 -8.42472 -9.82962 135 128 132
-0.631561 14.1595 -8.36257 136 115 126
-25.6103 -7.24967 5.27587 20 26 29
23.6295 14.5275 -1.34466 51 89 110
-3.23065 17.6085 -1.77812 115 126 118
21.6439 -6.12894 -7.05368 130 150 180
-3.174 -9.48241 13.9693 65 65 58
-24.0894 -1.18828 8.34656 50 49 46
14.9204 25.2765 -2.6496 109 122 132
13.3751 0.56977 9.45035 66 74 69
21.6416 2.10428 0.670837 2 1 3
-15.3308 4.79833 4.65857 87 75 82
15.6774 10.4148 -11.3707 115 141 143
-3.9964 -1.83047 12.8352 66 68 66
21.034 1.01976 -4.70646 10 10 23
4.70152 3.34999 -10.5834 184 184 192
32.5248 -7.25574 1.55766 32 32 35
-8.20435 9.73961 -1.24973 81 81 74
-3.8452 20.2793 0.0721893 77 84 80
26.0135 7.07627 -3.22297 184 157 187
14.1672 16.2822 6.1032 36 40 40
0.284489 -12.8091 13.5648 52 55 53
13.4577 28.8007 -0.245897 23 40 49
10.5976 14.0142 -10.7378 43 47 52
10.6969 -14.1096 9.82633 35 44 52
-8.07456 -11.3846 -9.40961 187 191 185
-31.0524 -1.42426 0.561448 20 22 26
13.2079 29.5445 1.69162 13 37 52
12.9126 -11.1936 9.59285 52 57 57
21.3936 0.756533 2.77574 12 3 17
-20.8596 -3.67009 8.81451 82 80 78
21.46 -6.74461 -6.93535 95 113 124
-7.04032 6.91525 -9.25605 137 142 138
20.2646 10.4376 -7.82278 240 180 245
18.6547 10.0305 -9.52569 133 115 135
21.4311 1.09022 0.507368 5 1 4
-4.62279 -16.3407 13.1169 87 92 87
32.1961 -15.7977 1.14425 8 5 5
0.801037 10.8005 -12.1312 168 179 157
-29.3841 5.52439 3.46846 92 79 89
-26.9415 6.92218 0.37402 98 94 91
22.3403 4.94971 -3.14846 28 33 40
6.2815 9.17156 10.0122 98 101 94
30.4816 -2.57199 0.862411 53 60 62
16.2438 11.1829 10.0636 62 64 63
-8.10682 4.63671 -14.1852 134 138 134
-26.0943 3.3266 -4.41631 165 168 164
4.47788 28.1309 -3.60357 163 177 186
10.0425 24.9706 6.85511 21 38 43
7.0802 21.3204 -6.03815 168 175 191
31.8842 -4.92361 1.14384 56 59 61
18.3877 -14.9825 9.02709 16 15 18
-11.4191 5.94139 -0.344872 83 85 76
-26.6732 -0.389275 -5.88654 189 182 187
22.1527 8.13129 5.29603 91 77 84
-2.91613 12.8811 -7.43617 162 152 171
-19.8743 -2.24443 9.08023 48 50 47
17.4097 19.1469 -2.79295 127 117 124
3.52523 34.4928 3.64946 12 25 37
-5.4424 13.563 -2.20564 69 72 68
5.63786 9.82034 8.57078 19 17 16
-25.4131 -14.9543 3.58481 29 39 47
-2.65097 16.1065 2.70507 86 84 82
12.0336 32.4975 1.03473 45 75 97
-32.6318 -14.8552 1.87751 14 13 17
-5.33588 -1.32547 12.5061 65 70 70
12.3755 -4.02564 -9.45018 169 181 183
2.25275 19.0894 -4.82045 184 190 182
-6.54853 5.11403 -11.3743 160 171 170
0.76989 3.51395 11.999 67 72 69
-14.0953 -1.03347 7.03533 76 75 69
21.5677 -0.845978 1.64075 5 4 8
11.2668 14.6567 6.72483 17 18 23
-28.237 -0.107319 1.76825 20 21 23
20.4889 3.07152 3.77635 29 26 29
-0.886074 9.58471 13.7728 48 54 50
-18.0393 6.23395 1.18486 100 87 90
3.43992 33.5821 2.65999 64 86 105
-21.6863 0.60965 5.95968 64 65 63
-29.2708 -4.08229 3.92397 35 40 47
22.2523 8.93648 5.76406 105 76 99
8.05151 34.017 0.62591 30 63 78
-28.4642 -1.70015 3.10089 35 38 42
9.1134 13.6678 -7.07113 20 23 32
-26.3543 -13.9158 -1.48283 19 12 31
1.21268 21.176 -3.62327 93 104 100
14.2109 -8.5245 -8.71037 166 171 176
-4.93626 3.82553 14.2675 53 64 68
-7.85522 9.95521 3.75272 85 83 78
-27.2739 4.51803 -3.75754 193 181 186
13.5041 27.5276 3.29138 2 30 43
20.7982 -0.0121536 -4.07644 0 0 18
11.8756 6.88318 8.79825 65 66 63
6.17207 20.2721 -6.16176 126 128 152
21.2581 1.38702 2.12891 0 2 4
23.8841 13.3884 1.9249 91 89 88
-15.428 2.08382 -5.31016 172 170 169
25.6863 -6.82676 4.37358 13 18 22
-27.4315 -1.33363 3.79434 33 37 37
27.8982 -1.48931 -3.43174 98 115 137
18.9336 17.4794 3.0426 105 91 103
-2.7744 17.616 -2.37535 63 66 66
16.2635 0.173335 8.10851 86 81 81
6.64806 -2.51247 10.2793 53 56 54
-29.4366 -5.60371 4.293 42 48 56
21.6572 0.47839 3.57747 5 1 11
2.34249 28.3355 0.0752983 30 49 57
-32.4832 3.29897 1.56955 81 84 79
0.351646 -15.3431 -11.4099 135 143 130
-29.3566 3.93837 -3.7814 187 192 193
-7.00334 10.9371 6.30631 88 84 80
19.0808 13.7032 5.95608 100 85 97
-25.3354 -0.628582 7.90719 70 69 67
24.2227 -6.00157 -5.42642 43 48 58
0.927773 20.2788 -4.00023 91 94 98
1.24365 20.6657 4.66977 84 96 99
-33.792 -10.4898 -1.71108 94 96 103
22.133 3.63644 -0.445819 8 8 12
26.4423 8.02099 1.59804 98 82 93
12.3662 24.9488 5.63824 6 32 41
21.6067 4.37219 2.7654 7 0 3
-23.6967 5.43784 -2.06321 113 93 104
-2.3114 10.0453 -11.4921 144 146 142
-18.9867 -11.4532 -5.75768 138 158 175
10.0809 -15.9084 11.4825 31 32 33
23.574 -2.34607 2.41363 7 17 29
8.57107 -2.64918 10.3065 48 55 54
-3.11671 -10.1362 13.0715 81 84 77
-9.33853 -7.42506 -5.92223 149 143 127
1.10104 -15.1926 11.9758 59 64 60
9.55958 -9.39008 9.92483 52 54 51
12.7123 29.0414 2.69596 10 37 45
15.093 27.1277 0.642696 25 40 48
-14.7132 -0.933365 7.02639 75 75 69
11.6154 -10.2034 -9.41276 165 175 185
9.21285 3.40873 9.76515 60 60 59
-4.39583 2.27712 14.5975 66 68 64
-32.1109 -2.44545 0.482505 37 38 41
-1.65778 16.7945 -5.62543 178 179 179
-3.43719 -8.49934 10.0323 77 77 76
21.6986 -7.51662 -7.19855 129 141 149
0.623428 27.1024 -1.78498 72 86 105
-8.30963 6.50728 -8.77514 142 145 142
-21.386 6.3279 1.74749 244 215 232
8.67278 31.7347 5.63962 8 30 40
-22.3501 -8.62649 -5.94061 144 151 181
21.0154 1.1809 -3.56716 5 2 22
21.1961 0.88451 -5.18167 26 27 35
5.43944 -2.5898 10.5106 59 62 61
7.19137 27.9484 -4.77492 149 171 177
-19.4597 0.609356 6.25701 58 58 54
17.5198 18.8133 -3.54698 152 123 144
11.8034 -2.52057 10.5289 64 66 64
-7.91777 9.41086 -7.02829 169 172 165
0.833801 9.43627 -11.0837 58 62 53
3.64208 28.6642 4.37137 2 18 28
0.837055 25.9104 1.01116 39 57 62
20.9211 1.32869 -4.0618 4 4 20
16.5167 18.9461 0.505997 35 36 39
-29.9587 6.49267 -1.36362 192 168 184
15.1086 25.874 3.06804 11 40 48
-28.1798 -14.6824 -2.27333 105 118 130
21.2062 1.54187 3.26614 2 0 0
33.8809 -9.26706 1.68335 40 45 49
27.3429 -8.75928 2.79921 3 26 38
-30.4995 -2.32915 3.05125 25 37 35
17.058 18.6199 3.19765 113 100 110
23.7903 0.876476 -0.257378 35 37 39
33.1523 -8.97635 1.7753 27 31 32
16.5961 18.8356 -2.09711 68 72 64
-30.9487 -5.51722 -2.65366 90 101 108
-27.7335 -2.87359 4.02222 34 39 42
-21.6361 5.74606 2.71845 95 83 86
26.4682 -8.13141 3.42836 12 27 40
21.8117 16.486 -0.479445 54 83 94
10.6009 -2.33265 10.5622 54 57 58
-20.4775 3.85597 -4.76544 193 163 186
8.23783 9.05981 9.5021 77 77 71
16.5595 -14.6162 6.58965 74 78 75
29.1713 -5.25235 1.61158 19 25 37
-30.6863 4.6005 4.73225 66 69 58
15.0605 21.8273 -2.82658 107 120 120
23.7803 -5.35818 -4.54298 12 15 32
-11.2105 -0.964539 -6.89009 128 133 120
-1.91324 16.8249 5.57145 87 84 80
6.49736 -14.7019 11.6955 13 19 16
-0.0618935 16.7656 -7.97322 162 154 152
25.1301 -0.806618 0.824458 25 30 34
-4.2978 14.7141 -3.59964 21 24 24
17.6261 19.2274 -2.03304 119 114 114
16.4263 -14.3073 6.77303 75 81 79
-21.5307 7.24459 2.04598 109 104 104
-9.02877 -13.0961 10.4162 49 52 50
20.2547 17.7274 -0.0200763 45 73 90
-8.00587 1.288 12.7429 67 70 72
2.94536 33.6524 3.08928 91 107 122
20.9488 0.67548 -4.0627 7 6 22
0.868587 20.1588 3.8326 21 22 22
11.5281 5.07844 9.24692 77 79 72
20.7136 2.11709 -4.39983 13 16 31
9.02122 2.0831 9.93409 54 58 56
1.93348 30.8929 0.268276 61 71 74
-34.105 -10.9167 -1.2116 42 49 53
-18.5436 -1.37935 -6.32424 120 89 114
6.46373 10.9702 -7.6309 57 60 57
-26.8456 -14.6539 -2.02859 16 4 27
-28.2572 2.99219 -4.11629 151 155 151
-1.92336 12.6493 -14.309 114 116 112
-20.3969 5.37023 4.50299 86 74 81
-7.51258 -1.05627 14.6567 83 85 84
12.7498 4.11722 -9.33607 191 187 201
6.18779 -0.530235 10.2697 58 63 63
6.55368 14.5206 -5.31254 186 187 178
-8.84898 -14.772 5.86761 80 87 80
-22.7111 7.04984 -0.350427 130 121 125
-13.3769 3.49636 0.273216 81 81 72
25.7847 -10.8641 -6.23163 59 67 68
4.43518 12.2384 -6.84053 78 78 74
12.2196 -11.712 -9.41746 158 170 180
-27.3246 0.180199 -4.38498 108 88 103
23.7763 -1.504 1.15264 9 10 20
-18.2797 5.68461 3.72187 100 83 93
-31.2566 -14.0033 -2.22487 102 116 120
22.3896 5.59622 5.13218 92 85 87
-15.968 2.60278 -5.39798 176 165 173
-32.5283 4.54327 -0.595021 100 84 96
14.1821 3.39489 8.45788 63 75 74
21.0573 16.8338 -2.17675 49 84 118
-15.7087 -11.3086 -5.8689 74 76 135
31.8569 -11.9239 2.26665 20 24 28
-31.4654 -2.25666 1.84926 27 28 26
-3.82853 10.1054 8.63043 68 69 65
-24.6573 2.8212 5.68626 50 49 40
9.75671 19.2526 5.80839 73 79 70
3.03294 28.1782 5.60769 35 40 50
-3.11668 15.3569 6.05247 85 84 81
7.72754 35.1243 1.0004 15 35 42
23.0602 15.1302 -1.43104 56 86 103
21.2226 0.725421 5.54146 13 14 20
25.5385 -14.75 3.01046 22 30 40
-32.9011 -3.8748 -1.46315 28 29 28
3.11702 11.3732 11.0528 74 71 69
20.6379 12.2397 -7.76316 142 112 135
10.9646 33.7043 1.46759 36 51 57
0.733543 26.9755 -1.01375 52 59 64
-0.046051 -13.0002 13.826 52 54 51
25.5741 -7.30771 -5.32842 28 30 39
21.1595 0.877939 0.992834 3 1 1
-1.54278 14.3159 -6.11007 180 180 171
22.8546 15.4193 -1.02741 47 76 98
21.4809 12.0282 -6.88404 148 114 147
-8.01751 9.69792 7.4391 84 79 78
4.07106 13.9678 9.8501 90 74 82
4.51555 -5.75459 11.7375 59 62 61
13.7489 -9.70435 -9.00606 179 187 194
-28.6594 5.57782 3.4697 96 78 88
2.36979 13.1964 -9.85273 196 181 192
-20.3063 -2.15788 -7.7365 162 168 166
-34.1894 -11.4045 -0.874275 34 35 40
-4.51163 18.3338 -0.996941 132 141 137
-9.84691 3.45845 -10.0648 147 152 153
3.12355 22.2297 -5.20714 165 178 169
-14.5017 4.11295 4.42981 90 78 85
-8.12674 -13.8267 -9.42429 167 173 148
-13.6712 3.34116 2.22432 99 103 90
15.7452 12.6963 9.53863 74 79 70
23.3011 10.2621 5.06321 88 76 80
3.45344 20.8689 -5.58653 141 154 145
20.9609 2.15699 3.43528 6 6 9
-4.85225 6.71362 -11.8928 125 133 131
0.952579 10.5549 -12.7845 45 48 45
1.53208 16.5687 9.34871 81 73 73
22.5158 -2.26855 -4.92436 35 40 50
8.2901 10.8076 -8.45829 81 82 87
-11.9827 4.81474 6.32895 80 81 77
-7.97206 2.80007 -11.1816 158 166 165
33.3982 -12.6757 -1.32191 9 6 17
2.31396 11.1333 12.9243 62 64 62
21.7161 -8.20975 -7.27564 156 168 172
-32.0016 -4.00812 -2.29445 133 135 148
-30.4156 3.29943 -3.88107 148 155 161
1.2332 16.7391 -8.36006 190 179 187
-7.94188 10.2925 -6.22223 85 87 80
-25.9999 -6.9361 -2.71134 80 94 102
4.21546 14.2273 -7.70516 129 127 122
-19.3371 -2.90555 -8.14007 146 155 144
-1.8864 5.38499 -12.4643 152 163 169
-8.16495 2.52348 15.5804 36 38 39
20.1242 12.066 7.52576 80 78 76
12.4087 29.1766 5.4424 7 36 45
-7.57947 10.3506 3.21304 79 79 73
21.9378 1.9908 -0.291505 2 3 3
0.938557 25.0997 -1.26423 44 52 62
-29.822 -2.13236 -2.68639 86 101 101
0.389347 22.0753 -2.33486 137 150 141
0.392586 9.95351 14.0767 61 62 59
23.0252 -1.50957 1.6296 10 12 19
10.3845 13.8995 -8.24919 27 25 36
21.1716 4.31499 -4.0308 27 30 41
-8.13747 9.7366 0.0635891 81 82 74
5.90861 25.0692 -5.67785 101 122 129
6.25076 24.0414 7.5018 33 42 47
-28.598 6.22841 1.97805 241 210 231
-8.70894 5.09015 9.56417 66 67 61
-22.2046 6.86436 0.128908 106 101 100
-13.0118 -2.42042 7.73978 84 71 82
-29.8995 -1.13726 0.746582 25 25 28
-8.92387 -11.6293 8.50986 83 78 78
19.7691 15.6559 4.26485 98 90 93
-2.70277 6.75283 -12.9678 53 56 54
9.66814 32.7568 4.21751 0 24 34
-13.2029 2.90431 -4.2987 92 90 80
-16.6638 5.59175 -1.76287 118 97 112
-3.91531 13.1265 7.82404 65 66 60
-27.9391 -12.541 -1.07785 39 47 59
12.3357 23.243 5.97844 31 44 45
20.5848 16.8539 1.96405 72 85 96
-4.85484 2.5291 -12.9245 46 48 47
1.7667 27.2196 5.27108 48 57 63
21.2508 13.6965 4.52631 91 86 85
14.7899 18.9777 -1.20924 23 26 24
8.2707 29.7896 -5.0858 133 150 162
-17.5913 -1.72799 8.63875 81 74 79
6.96943 3.4062 10.0416 61 63 60
18.9475 14.8528 -6.62586 210 166 204
24.4731 12.165 -3.60849 173 139 170
-1.43057 16.5258 6.88554 73 72 67
21.1073 0.540184 -4.54025 5 5 23
-5.31882 11.9657 8.14879 67 69 63
21.5828 4.85525 4.69796 89 91 84
-19.1034 -0.164276 6.40923 61 61 60
-2.8347 -9.65833 14.0114 69 69 64
13.5746 -4.49046 -8.9379 169 172 179
-0.902237 -13.7146 12.5973 102 106 108
11.8038 30.532 -0.451478 25 40 50
26.1691 -9.78662 -6.94725 81 86 93
-6.24572 11.0628 -7.30552 179 180 173
22.2668 7.02247 5.29339 91 76 84
-27.6189 5.37529 0.877481 120 98 111
-13.6302 1.16921 -4.77138 182 180 191
-26.9647 0.827641 5.05487 84 83 81
10.4967 -15.4122 10.6111 19 20 23
27.8127 -0.162831 -0.772582 62 65 68
-7.43931 3.80584 -11.2187 163 172 171
11.1915 32.8845 2.50773 10 28 40
24.7949 12.0195 -3.28139 163 134 165
-15.4186 5.35917 4.16704 101 78 92
-15.3381 1.7007 6.41782 72 69 66
-32.4299 -3.56741 -1.87448 75 82 83
-8.63494 8.98927 3.24107 87 87 80
-20.5935 -2.57029 9.10419 52 51 49
-0.61964 15.6271 -8.09958 168 162 157
-20.5146 -9.39629 6.8162 39 42 43
21.2626 1.3878 2.61565 3 0 1
3.43506 34.3936 2.97997 50 70 90
-6.87994 -4.29268 11.0045 41 51 55
12.8826 -1.34224 9.87734 68 72 70
-28.4399 -0.243336 0.495548 27 29 30
-9.78032 -13.8977 9.20087 95 94 93
5.20112 34.0955 -0.0934033 7 32 38
-24.8257 0.658611 6.28951 91 70 86
21.5455 0.947416 4.71218 21 25 26
-32.2746 -2.70097 2.61502 39 42 47
26.0217 7.22848 1.9032 89 87 86
32.0072 -8.10104 1.71193 26 28 31
-11.9906 -0.0834389 -6.09575 129 128 117
23.842 -3.87529 3.6679 4 7 19
-2.18304 13.8958 -6.23345 182 185 169
8.40402 11.6875 -7.94173 55 61 63
25.8552 0.186965 -1.89175 21 23 26
-17.7185 5.35744 4.53115 87 73 81
-13.4745 3.47943 1.06184 87 88 78
-17.4467 -0.756447 6.73643 64 63 60
19.9306 15.4956 -5.50351 194 145 185
-27.1835 -2.49309 -5.0792 100 96 98
1.74289 25.0881 -0.106522 45 93 111
10.041 3.1165 9.7656 61 63 61
29.6548 -1.73337 -2.81274 24 33 42
-3.03228 20.1736 -1.62558 76 86 80
26.2431 -10.2279 5.42569 18 18 22
0.837421 28.2215 0.823441 108 134 151
-32.3429 5.09982 2.88858 98 89 95
6.94203 9.07257 9.86405 97 100 93
13.0998 -16.2795 -10.0046 25 29 44
3.67718 32.8575 -0.26095 88 96 102
1.04857 27.1545 4.41493 63 70 78
3.32084 9.6179 -10.289 72 64 71
-30.9155 6.77154 0.725415 97 88 92
-11.6632 5.7657 -2.5322 77 78 72
26.8587 10.1421 -1.52357 124 114 125
-13.0966 3.71022 5.121 80 80 77
6.79936 7.27775 10.5245 62 63 60
-15.0391 1.6884 6.18076 71 68 65
-1.00203 18.5015 -3.32785 41 51 48
15.3432 24.0202 -0.736348 69 114 127
15.9582 -15.7421 -9.08095 23 23 22
-19.9633 2.53046 -5.5848 161 159 159
21.1943 0.227896 1.96832 33 37 55
4.49169 12.1757 10.2505 85 72 81
5.95124 -1.41708 10.3665 57 63 61
8.01263 9.14061 -9.23294 163 160 163
-11.1646 5.82246 -7.11633 112 115 110
4.00341 17.0181 7.31046 106 91 98
21.4081 -4.7343 6.14316 13 6 13
-2.4197 12.4418 -8.02095 172 155 171
-4.91402 1.18712 -13.2013 113 117 122
-4.68138 5.70578 13.5244 55 60 60
-2.54878 12.4549 7.72342 67 68 64
22.689 5.63078 3.21336 84 83 82
-32.6076 -2.99425 0.646576 41 42 43
6.59783 10.487 -8.10252 58 58 58
21.299 1.23048 5.0482 15 22 22
14.1327 17.4979 -4.30355 21 26 22
-34.2778 -9.48371 -0.348415 42 46 50
-30.1249 5.32661 -1.86314 131 105 127
-23.4601 3.86109 5.50551 75 73 71
-8.5404 1.96235 15.1795 50 62 64
16.8111 12.3319 -10.7933 198 158 200
-4.12445 4.29082 15.6376 66 67 64
-11.4351 2.5884 -8.84135 69 72 67
21.0415 1.18548 -5.51898 36 40 48
13.3534 28.1392 4.84204 11 35 46
15.5981 25.3547 -0.17729 17 64 80
-31.0754 5.37476 3.52514 99 88 93
-0.869144 18.5725 -3.7568 34 41 45
-0.363403 5.07983 -12.0778 175 186 189
-1.01099 23.2001 0.834306 90 100 99
13.0365 11.6225 8.99115 27 26 23
-21.8495 -0.614216 -6.33139 171 126 159
9.30729 -9.72205 -9.89327 158 170 178
-26.955 5.89216 0.362737 109 98 103
21.2433 0.729178 2.12972 1 4 0
-2.33293 21.2374 -0.241165 210 226 215
9.03329 33.778 1.43109 20 49 66
-25.1614 3.97724 -4.23107 168 153 163
-7.42619 -11.1211 10.4424 46 49 43
30.4759 -3.90895 -3.40734 103 109 134
22.0577 4.59254 2.27433 18 8 10
-20.8154 4.47646 5.1959 79 72 73
6.94158 9.38519 9.56166 101 105 97
26.2923 8.91046 -3.34763 188 150 187
-22.8013 1.56758 5.75185 62 65 63
15.4362 26.5592 0.300724 17 53 63
18.834 18.5003 1.16051 99 99 109
-7.39815 -7.11189 -7.01208 222 194 210
1.69984 28.7069 4.59649 10 31 40
12.0587 29.7306 3.31226 7 28 42
1.31599 25.3201 0.32061 97 147 161
-32.1877 -15.8252 1.48437 20 20 21
2.29663 26.7796 -2.95988 129 145 150
-2.22453 15.482 7.13917 74 72 66
-20.7481 -9.7206 6.98241 36 39 40
-21.8851 7.09705 -1.04667 95 90 89
-20.2456 7.27142 2.4656 86 86 82
-29.8247 7.07052 2.39213 82 83 80
6.34374 16.2697 -5.0706 148 150 183
21.7689 2.28738 0.349605 1 1 1
-4.64744 14.7514 -2.43226 53 55 55
-28.294 -1.96389 3.39009 32 37 41
-21.1171 1.81837 6.12374 54 55 51
-24.0168 4.93148 -3.75663 210 171 199
-5.47394 12.8664 4.20027 79 79 75
-3.27629 15.6197 -0.117525 25 29 30
-8.79687 -8.48754 -5.85754 156 159 139
-13.2274 -0.18536 7.36757 82 82 78
-5.6234 -10.0706 -9.83813 143 151 144
4.89264 9.64471 10.5206 83 83 79
20.4673 3.72795 -5.88435 96 100 104
-30.4365 5.41572 3.34702 99 87 93
24.2886 8.92001 4.39375 89 81 83
9.83879 34.1298 1.84318 59 87 98
3.12015 -1.63815 11.6876 72 75 70
33.5713 -8.97115 -1.85007 9 11 25
1.39699 24.5299 3.30607 26 50 53
30.8487 -2.85062 0.875065 62 67 69
-34.0219 -12.0965 1.25583 16 16 19
25.9964 -5.335 2.67598 0 5 22
-7.13279 4.15888 -11.3092 146 153 152
-11.872 2.23155 9.54709 74 71 72
22.0413 5.07342 3.23408 32 28 29
-9.18205 3.45573 10.5197 70 68 67
-23.4041 5.55803 3.63729 102 90 93
4.14363 -4.49671 11.7182 60 64 62
0.411934 23.6785 3.09995 66 74 74
12.9198 -5.00982 9.7163 72 75 71
-25.3369 -0.0567131 7.49465 84 72 80
21.6122 11.6199 6.59571 84 75 80
-0.642426 13.8839 8.73312 95 69 90
-33.9907 -7.5964 0.932099 13 8 13
10.0126 29.7332 -4.63201 112 125 133
-16.1977 -2.71587 -7.96215 178 162 177
-13.4621 -1.10943 7.28915 63 65 61
-33.462 -13.7199 0.558023 14 19 24
17.3624 12.5113 9.29415 96 75 92
-33.2789 -9.95356 3.41932 19 32 42
-1.57707 11.5779 -14.0413 58 60 64
-28.1885 5.45936 -0.444379 119 89 110
23.7898 13.0786 -3.65155 164 134 162
20.6803 13.5347 5.04003 91 85 85
-12.8884 -0.330544 -5.68296 90 90 66
4.80072 25.5483 7.48811 36 43 44
-13.6741 3.03751 -1.96723 126 126 111
9.54032 15.4564 -5.76882 67 70 59
-14.5884 -12.4467 -5.89228 149 153 167
15.2249 23.5231 -0.912626 31 65 77
12.23 22.4798 -4.944 204 179 218
14.082 -6.55484 8.5251 88 90 83
2.95929 24.2622 5.98667 52 62 68
6.8497 34.818 2.14768 28 41 49
-26.0015 5.56016 1.98146 103 85 97
16.753 14.2621 7.70189 120 92 118
7.28014 7.53354 -10.0915 193 200 195
22.7039 -1.5799 2.90767 8 3 15
-27.5371 0.309036 -0.446963 37 37 40
13.2514 -5.66614 9.50391 71 74 69
26.9908 -6.4262 2.65409 25 32 48
-7.38243 -12.3656 11.1409 41 43 42
7.0269 30.9128 -4.29022 93 119 134
12.6608 -1.93591 10.0877 63 69 65
13.651 6.58018 8.45167 68 69 63
-1.22704 15.3661 7.11669 63 64 60
-8.56395 9.2345 -0.142877 81 82 74
-27.4585 2.71245 5.60154 73 72 70
7.02183 32.0518 6.33662 7 25 39
-26.3051 -14.2312 -1.66683 13 3 24
-4.44581 5.09859 13.7987 42 43 43
-6.32307 8.20359 -8.55249 164 170 166
-25.6559 -7.17897 -3.56806 56 56 59
-18.2101 -2.04994 -7.71079 195 160 185
22.3596 -0.683621 4.19585 12 12 15
-0.570473 12.8781 8.80491 98 71 91
24.4348 -6.2578 -4.78331 15 15 32
-10.1638 0.472507 -9.22948 65 68 62
-1.59435 17.8912 -3.60733 94 105 111
21.3401 11.9331 -7.51875 139 108 137
-27.2179 -0.553135 3.60974 50 53 54
6.38472 24.79 7.33765 26 38 40
28.3796 -14.3295 2.84422 33 37 46
-10.2948 0.991322 -6.96848 76 76 71
9.53588 2.59142 9.84671 57 59 57
4.97325 32.2032 6.11366 3 21 22
-1.91185 -11.3635 13.9709 42 44 35
4.55645 31.6074 6.18055 20 28 40
21.8488 0.514142 -2.71104 31 35 39
21.2327 3.34451 -3.0584 26 20 40
-25.9423 -7.62624 -3.61101 37 38 43
-9.20307 8.33908 2.03933 81 82 74
22.7516 13.5399 -4.50688 183 152 184
21.2543 0.567278 -5.82791 50 58 71
-6.97032 3.65807 12.2648 77 71 79
4.09098 24.4075 7.40256 54 63 66
13.8799 -4.78429 -8.72238 170 175 180
-5.28808 12.985 7.42517 68 73 69
24.311 -5.97609 5.68905 16 18 24
30.2146 -3.14802 1.04375 45 50 51
24.5759 -9.95541 6.76764 37 42 45
20.1616 2.85736 4.77626 19 21 22
-2.85955 7.52928 13.2441 59 63 62
3.79158 12.1941 10.6707 80 72 74
21.7704 1.63809 -1.90603 1 5 5
11.4436 4.79476 9.52752 70 72 67
22.73 7.85991 4.94653 93 76 89
-27.4147 -8.46695 -1.17512 58 78 108
-7.47934 1.55722 14.6571 73 91 91
-8.12842 8.64582 -7.27089 173 174 168
2.41158 28.0785 5.24593 32 47 53
1.63026 -12.9412 12.6439 57 57 56
-4.79675 9.73821 -8.50232 165 167 164
-32.9207 -4.9048 -1.94172 38 42 45
11.25 32.1262 0.207345 41 77 99
24.3514 13.6973 -0.692122 38 71 93
-6.63612 6.50055 9.50255 64 67 64
2.79633 28.9874 0.480182 43 49 57
-26.371 -16.0411 -2.29694 96 110 115
14.2349 20.6963 3.61703 67 72 66
11.0446 24.2333 6.80905 23 37 45
-24.0639 5.18615 4.63047 79 73 73
19.2059 17.4346 -4.04314 175 139 166
-5.47991 -7.77364 -7.67858 203 189 194
12.8006 27.8751 5.24763 15 30 40
-32.6519 3.93818 -2.20477 91 86 92
1.5202 14.9819 -9.13696 199 184 196
-30.4106 6.31017 -1.00017 186 145 175
-7.87413 -15.3233 7.9135 28 30 29
-27.1485 -0.497051 6.51031 91 81 86
10.5941 2.65916 9.83623 59 61 59
1.09683 12.6704 10.8053 73 71 68
4.13797 32.876 4.39517 39 46 54
-6.71061 -8.04042 -7.21202 118 107 91
12.623 31.5854 1.51773 30 40 53
17.581 1.26777 6.61763 34 32 31
27.8854 -11.1725 2.41869 7 25 34
4.42614 33.0121 0.538845 67 75 78
19.6681 12.5399 -8.42107 149 118 138
19.4348 13.3242 6.49263 112 91 108
-22.9747 0.415329 6.06939 82 74 77
-27.3661 -0.752319 -5.31773 105 81 97
14.2445 17.4751 4.44893 56 55 54
15.4138 -15.0429 -7.90155 80 81 84
-12.0036 -0.318321 8.66591 73 74 71
-6.79211 11.6289 -6.45904 113 116 106
12.7621 28.7582 5.24679 5 34 43
-26.0044 4.33303 -3.93871 179 165 173
-12.7569 3.1512 7.811 79 75 79
6.61568 28.001 -4.6566 113 131 142
3.37554 22.5762 6.99086 31 34 39
12.8468 16.4185 5.60875 25 24 28
-21.5401 6.83673 2.59917 81 82 79
2.11956 29.6749 -0.016099 40 50 57
22.4303 -13.9151 3.09642 6 11 24
-5.4973 4.74031 16.0279 41 43 41
-22.5509 0.0239716 6.93306 91 74 86
17.0781 17.0786 5.057 108 94 99
10.4501 16.0679 5.68605 27 28 26
22.0317 -9.35295 6.41843 27 30 34
7.89724 32.6027 -3.15549 26 37 45
20.571 16.4402 2.6104 80 91 98
21.9283 2.96053 -0.772179 1 4 3
22.0835 -7.76476 -7.33201 140 161 192
-9.27559 8.21923 6.46057 89 86 80
1.7225 23.0968 -4.10733 147 155 162
-8.7953 6.57096 8.86236 70 68 69
21.8229 13.5376 -5.37763 201 158 194
-4.53717 7.23217 -11.5388 106 112 109
4.60837 28.9473 6.69472 50 57 68
-6.93338 -7.12799 -7.24041 222 192 221
13.7478 -5.17997 8.18811 95 97 89
-1.67841 13.2047 -13.8929 44 45 43
22.2241 4.29273 -1.88025 32 32 40
10.4296 33.6849 1.81247 79 109 134
13.9511 -8.78085 -8.92424 173 179 183
-6.07104 4.14481 -11.9425 149 159 161
21.7564 -0.480966 -5.62471 40 43 60
3.97222 33.4576 4.26121 18 36 44
2.12682 17.7064 7.34304 107 92 100
-1.52737 9.31958 -13.2082 29 31 29
18.4409 2.42982 7.22329 83 82 82
-6.40628 -10.2681 10.0579 68 71 67
-26.0221 -14.0515 -1.47245 29 23 45
9.64016 0.524628 10.1376 53 56 55
11.7447 30.8372 5.33668 22 39 45
-13.5784 3.03093 -2.36286 84 85 76
-7.46894 -10.2542 -7.13509 111 108 106
10.6552 33.0511 3.27333 12 27 40
13.8322 -5.52425 8.36242 90 92 84
-2.38913 17.3146 0.578813 38 44 44
1.56714 11.9722 -10.332 187 188 182
4.60011 21.6934 7.53448 35 42 40
-21.0022 5.87999 -0.940973 106 86 99
-5.21947 4.94484 -13.5222 36 41 45
5.06025 -14.4849 12.612 55 58 57
4.29142 22.5739 -5.45916 154 166 165
5.04307 33.9005 -2.11976 79 97 114
-10.8099 6.77055 -2.11294 84 85 77
-31.7523 -2.16472 -1.15905 24 26 25
13.3255 4.90893 8.52906 77 74 70
26.2195 -3.88289 2.06117 14 30 43
-28.466 -16.9893 3.19546 25 30 39
-1.29236 12.2521 -9.90122 92 87 85
-34.3731 -9.63214 0.752069 30 30 33
-18.2531 6.01947 -0.78141 196 164 185
0.209087 24.2828 -1.26561 95 125 119
4.23513 30.409 4.78959 51 62 68
-11.7948 5.4758 0.219289 82 83 76
21.906 2.4715 -0.291542 2 2 3
12.4509 1.51809 9.90501 62 69 65
25.9793 -10.4794 -6.20825 57 56 67
-4.71794 14.6768 -4.81165 60 61 61
14.878 20.4664 2.03085 62 67 63
7.22689 13.3526 6.25895 43 43 40
-9.72931 2.8015 10.9159 75 69 72
-2.89406 15.8453 2.52505 72 74 74
21.9804 1.99788 -0.932948 2 3 5
33.2698 -13.7191 0.181408 8 5 10
-5.41986 2.989 -12.2552 156 166 165
22.9912 -1.99905 3.05976 7 8 22
-9.51563 6.34425 8.7121 71 70 70
9.51638 3.07578 9.76922 57 59 59
-6.92011 11.4187 0.310806 84 84 76
-27.4388 4.53981 4.88976 68 69 65
-34.0345 -10.5263 2.72152 22 28 32
-26.5882 -10.0477 -4.05799 28 35 31
21.6675 1.45779 0.348066 3 2 3
6.7457 31.9174 -3.92942 52 81 100
1.87166 26.5192 -0.375485 13 32 41
11.9114 14.9178 -7.3409 46 49 50
-34.0031 -12.0587 2.0798 16 18 19
24.436 -5.1473 3.80484 3 1 18
12.827 23.6506 5.26015 15 35 41
0.533913 3.90701 12.2325 67 72 70
-16.7223 5.64582 0.683271 111 97 102
6.92465 0.9617 10.1126 54 57 56
-0.504677 22.0104 -1.61961 169 182 171
-1.06975 9.10702 -13.1037 32 35 35
13.4206 -15.4135 9.91435 23 18 20
-27.8091 5.38316 0.289292 125 96 119
23.5319 0.828259 0.0520844 34 35 38
-32.5824 3.86017 3.08077 76 80 78
17.4162 10.8177 8.1126 108 78 100
14.135 26.9485 -3.03206 100 110 121
-26.1266 -8.58889 5.20929 35 36 45
-5.66423 4.76528 14.7886 65 78 77
13.7464 27.329 3.07692 2 34 42
11.5359 30.0554 -0.277037 25 40 51
0.0129433 10.9628 -10.299 194 177 177
21.6061 0.468851 5.19551 13 14 19
28.3166 -0.35142 -0.172195 59 65 67
21.8709 -1.92545 -6.59058 53 54 82
-6.53618 3.40273 -11.8265 153 163 162
26.2303 -10.2325 4.81567 15 20 24
22.2444 -1.03145 2.59788 11 7 21
20.4405 -1.2433 -4.10721 35 40 47
31.5415 -8.83507 1.74844 18 31 36
0.620239 10.793 -14.1709 158 165 161
21.1014 1.85201 4.56925 18 20 21
-10.5428 2.24045 10.5509 74 71 75
26.1308 -2.5198 0.998228 18 27 36
-31.6584 -9.4218 4.36268 31 45 54
4.02615 33.5107 -1.17852 13 32 41
-9.08529 6.9592 -7.94873 167 164 164
-27.2216 -0.395657 3.11839 48 50 51
10.1188 10.4474 8.64758 67 67 61
11.5678 -15.1435 9.74188 36 42 41
-27.9141 5.3549 -2.53758 122 94 115
-33.1063 -8.23344 3.40314 23 38 41
-8.53671 9.11925 5.0893 85 83 78
-1.10491 21.0351 -2.10176 167 183 169
-26.0801 -17.0394 -2.23949 70 79 92
1.87429 20.4094 5.85559 72 73 77
21.9638 4.58039 -3.17227 29 31 41
14.1312 8.56233 8.25527 75 70 70
4.41814 12.7566 -7.22007 82 85 79
-10.1325 6.1941 8.53668 76 75 69
12.1348 9.78522 -9.7779 135 136 142
16.2777 18.5592 -3.15039 68 75 73
-9.10511 5.06764 -9.4263 150 155 149
6.75806 32.7432 -2.48449 87 98 101
14.4658 -7.90689 7.4239 84 86 80
33.3559 -5.93505 -0.239287 21 23 28
7.15138 -14.9142 11.7731 16 17 17
25.412 11.2775 -3.09322 156 130 156
-1.3112 12.8186 7.71543 68 67 60
21.1206 -2.54595 6.28734 28 32 32
22.1118 5.40344 5.30861 92 85 87
32.3369 -14.5805 1.00443 1 2 0
-22.3826 -9.34739 -5.94061 142 155 165
22.0663 3.78817 -1.40776 16 10 16
5.85536 -3.44013 10.3889 59 60 61
-4.80367 7.11754 -11.1825 119 124 122
-2.57788 17.9183 -2.92455 74 86 81
-34.0555 -7.99776 2.13062 17 20 24
-34.0708 -11.8747 0.542777 30 32 32
3.85918 33.6449 -1.76356 48 58 70
0.879078 25.6884 -1.18563 46 61 66
32.1565 -4.5581 0.727765 51 53 56
-23.7328 -1.15903 8.35577 54 56 53
21.9169 1.82515 -1.41725 2 4 5
14.9138 -9.59093 7.93073 88 90 83
-24.7914 -0.289665 7.85389 73 70 69
-6.55877 11.4862 5.22553 94 88 88
-1.8476 21.7122 1.82339 61 65 64
-1.52672 19.9317 -2.85975 171 177 174
20.662 4.08363 4.09404 48 44 45
24.4341 -9.06619 6.71598 32 35 38
12.4625 15.892 -6.01394 48 48 49
-33.9328 -6.91737 -1.59086 32 30 32
6.12346 10.4655 -8.03868 55 60 65
22.0539 4.26994 1.79449 10 6 13
29.5004 -1.6966 -0.439451 24 24 27
-25.0394 -7.17037 5.50466 18 22 20
-10.4622 2.35672 -10.0233 122 130 128
0.385422 7.65959 -11.9498 186 186 193
-23.2989 -6.21347 5.50453 9 2 7
-2.84262 14.8307 7.37716 72 74 67
3.29611 15.695 9.4031 80 74 73
-31.614 -7.95743 4.2418 11 18 26
-3.68326 3.89582 -12.9914 105 114 115
7.0334 -14.5532 10.4091 53 58 58
21.9537 -0.441326 5.17878 11 10 13
1.14174 20.1842 5.10896 25 32 32
6.23399 -1.20664 10.3056 56 62 61
-4.43028 9.05726 9.13054 67 69 66
-2.15096 -10.02 13.0798 111 114 107
-11.9935 4.97963 5.15761 80 81 76
0.834808 -5.24162 12.3827 63 66 64
25.2693 -7.28571 -4.6003 10 12 27
-33.7066 -5.33351 -1.29206 32 29 34
21.4817 -7.10006 -6.96844 98 116 127
24.7073 8.02569 -4.68518 230 196 232
-6.27908 4.19607 14.915 62 73 73
1.87297 21.1511 5.88751 72 78 77
-5.21349 10.0424 -8.09569 169 170 167
-33.1011 -10.1127 -2.29019 116 129 137
-15.3346 5.33962 1.30104 113 102 107
-4.95766 -16.2356 13.2909 79 81 83
-11.8751 3.09993 -8.16204 56 63 62
-25.6729 -8.53518 5.57687 44 49 51
-26.4727 -10.269 -4.61626 41 50 55
23.3291 6.17819 4.29147 92 89 88
-4.06738 14.896 6.37584 70 72 70
-25.8915 -18.2544 -2.24124 84 91 101
21.6946 4.70742 -5.27864 100 102 104
22.6602 5.46806 -4.87149 102 103 105
13.8862 -8.06732 -8.92684 173 179 182
22.6098 6.25919 5.11719 93 78 89
23.3067 14.1099 1.91109 57 71 88
-8.09103 9.63772 6.37047 94 87 87
20.7773 11.745 -8.43962 210 179 207
-22.8659 -7.43694 6.52571 13 14 13
22.9896 -0.393991 0.836189 25 31 32
14.8791 14.9157 -8.44922 218 179 213
4.68649 34.211 -0.421908 17 33 45
20.6508 -9.36654 5.06822 16 20 21
-5.54835 13.4277 -5.78899 87 91 87
-30.9576 -5.04996 -2.72524 94 110 117
-13.2598 2.70775 7.02883 86 79 80
2.71157 30.9891 -1.30592 151 169 174
20.8173 12.5179 6.82516 108 85 102
-32.3649 5.17946 -0.266345 100 87 96
-19.2766 -0.710819 6.80746 85 73 80
22.4172 -1.80461 -5.8909 60 65 74
-26.9533 0.43721 -4.83922 133 119 136
-9.95488 -0.159359 11.5165 65 70 63
14.8446 14.0715 8.51211 76 77 78
33.3657 -11.1468 1.41618 11 5 11
4.95507 33.3851 0.754665 5 35 50
24.7695 6.79796 0.997342 89 93 94
14.6891 12.5128 9.16385 73 73 73
-8.80476 -12.6488 8.10821 100 103 100
13.6108 -4.29974 8.1954 92 94 87
-20.9529 -10.6261 -5.63026 137 148 180
-0.177773 21.4168 3.22092 84 91 90
-7.61555 6.65109 -9.12181 149 155 149
26.0225 -7.03407 3.74698 2 24 38
-5.88342 9.9178 -7.8905 178 181 175
13.6312 26.5122 4.15269 1 25 40
-31.5645 -12.8759 4.0331 19 34 46
-1.04709 10.8669 12.4191 73 70 71
-25.4871 -6.25404 4.97323 12 12 11
25.4477 11.7331 1.14985 91 89 87
-3.73893 18.5516 -1.94422 132 141 134
21.9299 0.854166 -2.22307 3 13 18
-3.31141 -10.8783 10.9425 49 57 51
-24.7144 -9.52941 6.65977 31 38 40
22.9237 5.34034 1.62704 12 11 15
10.1546 2.57195 9.84793 58 60 61
26.7317 10.2841 0.702395 105 89 97
2.92086 32.1623 -0.852025 134 152 164
5.9892 21.3339 -6.16472 157 163 187
4.38965 23.0036 -5.25964 158 172 174
8.70752 2.88289 9.84464 52 58 51
13.8301 26.9998 3.61742 24 45 61
15.3022 18.0368 -3.80196 5 0 9
-29.8765 -4.23286 -2.6801 94 101 116
-5.6619 4.1077 14.5533 63 76 77
13.0865 -6.81187 9.71049 65 67 64
-6.56206 -1.37583 14.7035 123 129 118
-17.4572 -0.909122 -5.78283 155 155 153
-0.190823 19.0763 2.33213 54 57 57
22.7822 -1.56276 2.26858 11 8 24
-18.2741 -11.2755 -5.78988 137 138 167
-19.8062 2.24132 6.47061 50 50 46
-20.7013 -10.9488 -5.69034 140 150 182
2.13008 23.5063 5.67437 26 39 43
-26.3535 6.49147 -0.771043 205 163 198
21.9191 -0.773835 -5.45009 37 42 53
-4.83938 1.52564 -12.9168 49 51 50
10.6768 15.6757 -5.70983 29 30 33
-5.563 12.8185 2.77441 77 79 72
32.839 -14.487 0.451267 11 0 9
11.2728 14.6007 -7.75226 45 54 56
-0.975658 -14.5695 14.5435 63 67 66
-11.5128 5.91656 -4.64038 90 90 82
-8.54587 0.365955 15.233 53 45 45
25.0339 -2.42252 1.56475 26 29 37
22.3998 10.3757 5.58989 93 73 84
13.2387 15.4821 6.77633 45 45 52
-10.0901 7.61295 -2.77203 81 82 74
15.2715 23.3461 -2.81112 97 118 134
-1.02037 11.0136 9.48005 91 79 85
-34.3979 -8.81145 0.669018 19 22 22
0.183456 -0.772396 12.9399 63 65 63
-2.76384 21.0016 1.78561 64 67 67
-34.3736 -10.156 -0.658005 16 13 19
-5.36791 -2.67331 -10.8317 104 134 150
-6.23076 11.8865 7.17693 70 76 69
-23.0922 0.696609 5.86384 70 69 66
9.7566 28.8893 -5.31392 118 136 146
0.860653 23.2842 4.35397 72 79 81
-5.76098 13.11 -1.3937 79 81 74
9.89652 31.3947 5.06265 7 18 32
-16.8536 5.62971 -0.0242605 107 92 100
14.3343 -7.57973 -8.50887 170 173 178
-12.9209 3.68715 -5.73653 98 100 92
23.5258 7.14234 -5.57139 200 175 202
-30.1041 3.93199 -3.76664 164 172 185
-6.11717 4.08035 -13.2658 32 35 30
23.1628 9.56688 -6.60063 182 145 183
7.83821 19.9221 -5.87091 170 161 199
-8.25184 3.49077 10.7922 64 68 63
18.0986 19.1788 -0.180114 108 99 108
-27.1705 -13.6851 -1.61772 24 23 40
16.2831 18.788 0.742654 28 23 32
14.4634 19.9814 -1.63792 161 172 161
-21.6613 -0.871227 -6.75973 175 138 170
12.1756 27.279 -4.56739 125 144 170
-33.1835 -7.70068 3.10527 19 31 38
22.7188 8.96817 5.57503 103 75 97
-14.4939 4.18175 -1.9669 98 101 84
23.433 6.03193 -3.86287 102 102 107
-6.1149 -1.25647 12.2992 69 72 67
8.92129 8.03075 9.67874 70 70 63
11.9778 9.20883 -9.67798 130 132 136
-17.8348 3.55244 -5.24121 180 149 174
8.82046 4.475 9.76259 64 65 61
25.7394 -0.452757 0.693037 42 47 50
-0.731541 13.487 8.05836 94 74 88
15.1024 22.1665 -1.0912 29 44 56
-32.0021 -9.73471 4.23629 24 37 46
6.67553 30.9866 7.08149 4 28 34
-10.2967 7.16145 1.2157 83 83 75
13.3888 13.1676 8.49154 27 24 18
-33.804 -12.8534 0.802684 22 28 28
24.9443 10.6497 3.89876 100 79 92
-14.4196 -3.33942 8.96297 53 53 51
-29.4424 4.07047 5.01377 60 60 52
7.44928 15.6603 5.57344 56 56 53
15.3217 16.2676 6.55831 94 94 91
31.5917 -2.88334 0.725175 82 86 88
0.243904 16.507 8.9376 85 72 79
-3.35806 -15.4954 -11.3583 60 58 57
13.5666 28.95 0.148788 34 73 86
15.1118 -15.1785 9.46716 18 18 17
-3.35154 8.85946 -11.2405 84 90 88
-4.10018 14.7429 1.94439 46 47 44
6.88515 28.1345 7.22547 36 41 43
12.4069 19.6112 4.39749 35 41 40
3.22492 25.7926 -3.8498 110 123 131
24.1297 9.99379 4.55278 90 76 83
12.9638 -15.8694 -9.49983 22 25 38
-3.97658 8.09629 -10.9691 95 101 98
16.3262 18.5902 2.60829 59 61 60
-1.1683 20.0431 -2.71801 156 174 164
-16.1042 2.75526 6.36465 77 70 70
-5.26779 13.5497 0.5164 79 80 75
-18.3501 7.06322 -0.724145 152 141 147
-1.76553 9.89046 14.4573 42 47 42
16.4682 18.7628 1.82352 58 61 62
21.6158 14.1746 3.8685 91 87 87
5.19789 -4.67133 11.3173 70 75 71
9.44217 9.99198 -9.14697 66 65 72
3.97962 32.5461 1.56486 22 42 51
-7.90146 10.1383 -1.54781 80 81 74
2.20835 27.3977 -0.243805 20 38 47
7.60152 12.7875 -6.64283 35 36 41
22.0765 9.24203 -7.60726 212 168 217
-26.3243 -10.6215 -4.12552 37 39 44
6.56894 16.6587 -5.14783 164 167 197
-31.9342 3.74819 -3.61811 138 145 142
-0.804623 19.1948 1.90384 41 41 42
-11.1644 -1.26945 9.51463 83 85 77
-0.178055 18.9771 4.04106 40 45 45
25.2264 12.4855 -0.367835 57 73 86
-15.9813 5.44328 -3.12168 112 95 105
21.5262 16.5009 -2.0784 66 102 122
25.9266 11.4466 -0.0535301 95 94 89
26.2259 -8.01 4.08863 20 29 45
1.31299 11.3708 -10.5099 189 192 178
-0.453056 21.1664 2.57964 79 90 89
-0.684196 11.4576 9.09277 93 75 87
5.43307 29.5363 7.36341 37 46 53
-21.9493 5.92493 0.440773 111 104 106
15.8073 24.4669 1.33103 17 44 54
-26.2868 -9.42086 -3.12014 16 33 44
12.8748 19.2217 4.02172 47 53 53
-27.651 6.72899 1.96069 211 184 191
8.34516 19.1817 -5.60455 184 173 212
-31.6458 4.99094 -3.23129 193 190 194
-3.78029 6.80845 14.4212 52 60 61
-15.1954 5.28622 2.95857 104 91 97
0.403248 -12.9414 12.3024 103 109 103
-27.8659 4.38284 -3.76208 193 181 191
-3.61385 15.2527 -2.92308 18 14 18
-4.7855 6.27531 -12.3189 143 154 154
9.97439 -16.4876 -10.432 38 34 63
-29.8993 -10.0442 4.66208 29 37 46
-18.3243 4.4505 -4.46873 194 161 180
-22.6244 7.14494 1.19707 92 92 87
4.91706 33.6576 -0.0310974 22 36 47
10.4814 -3.27269 10.6417 52 57 58
2.73771 23.5494 5.92649 23 39 44
-3.55344 8.47548 -11.3859 99 105 103
-33.4605 -13.483 -1.20087 34 32 38
3.65447 32.9309 4.19664 52 57 65
3.22744 10.0121 11.3297 58 59 51
1.02664 24.8362 2.78286 28 45 51
-0.868397 9.16933 -12.348 160 173 170
28.4181 -0.681007 -1.9629 32 29 34
-5.85616 -3.13018 -10.0864 66 91 102
15.621 25.1722 0.473356 13 42 53
6.59468 5.26851 10.3691 71 72 68
28.4472 -4.33542 1.44142 19 28 34
-23.0283 5.58977 -0.676846 140 113 132
2.70658 13.6509 -9.60167 205 178 197
15.1762 2.34998 8.6187 71 76 73
0.0181961 11.7385 -13.2269 32 33 33
-10.0704 7.00545 7.7441 86 78 80
8.42489 10.4195 -8.71034 59 57 64
14.6646 -8.21431 -8.29535 169 174 179
-5.36417 9.32906 -8.41189 149 154 150
22.1919 5.09187 -4.75331 94 96 97
22.792 5.80177 4.63377 93 90 87
-16.0048 5.6489 2.70513 104 87 98
7.68639 10.9069 8.14057 27 17 18
-7.09126 11.2412 -6.55184 117 119 110
-4.79244 13.635 -6.60215 153 155 151
4.38894 13.0733 -5.74056 162 165 159
12.8951 -12.0572 -9.26464 165 176 187
-2.54171 8.71465 -13.888 141 140 133
-31.8537 3.63569 4.8217 58 66 59
2.14042 24.5595 5.25721 57 68 72
2.83066 15.0925 9.7381 74 74 70
-8.96104 8.57599 5.56879 86 84 78
4.033 32.3856 4.45004 54 61 67
2.79766 11.3063 -10.2727 211 189 209
25.2394 0.536461 0.535454 51 58 58
-24.0574 -17.7993 -2.24887 78 91 100
5.83556 26.8162 -4.95103 86 102 109
15.0139 23.5499 2.02681 20 44 52
-22.3033 3.27772 5.96325 68 67 65
-1.34247 13.7161 -6.4827 143 152 127
-29.1053 -0.338348 -1.34784 49 55 59
-11.9509 5.13376 -6.29287 86 88 82
2.51405 28.6808 0.576366 71 77 79
-28.4897 -13.2412 -1.9211 72 82 97
22.2958 15.5885 1.31105 36 65 87
-25.1853 -18.1073 -2.25819 85 97 108
-28.7267 -0.783657 0.853537 20 22 24
-2.78373 20.5762 1.91895 64 71 65
3.34272 33.6567 3.84006 31 41 49
-0.867271 14.1717 -7.7624 108 97 103
-0.392399 13.8481 9.3945 94 68 88
-20.8574 4.6954 -4.10673 195 160 183
-6.63026 -6.54269 -7.5456 200 193 184
-1.74533 10.1995 9.28564 81 73 75
13.7788 -5.35506 7.46611 82 85 79
-19.1167 6.81658 1.17624 167 142 153
-25.2785 4.23482 5.17808 77 71 74
-2.70297 -14.0968 12.9453 108 111 108
12.4058 30.2033 0.350255 43 83 103
-26.1054 -10.709 -1.39434 24 47 67
-13.7427 -11.7489 7.43827 34 35 36
24.8811 8.65465 -5.12653 205 168 203
-8.2687 9.97794 -5.72424 85 86 79
25.9303 -7.37436 6.50528 53 52 56
-14.7798 -3.65364 -7.93402 178 174 180
17.4453 10.3098 9.4697 87 76 81
13.3954 18.0533 4.02284 45 48 44
-30.5647 3.50883 5.17027 35 39 40
-0.156822 7.20373 -12.0302 185 189 203
12.0187 16.161 -5.34911 58 57 56
-23.5869 0.540707 5.99222 86 74 80
13.6656 -6.47933 9.28539 75 78 73
16.6844 0.0736351 -8.3412 183 172 191
-18.3828 4.12574 5.58649 81 71 77
-1.56926 11.6208 8.16716 73 70 70
-30.6283 -10.8457 -2.35069 135 154 161
25.9196 10.0911 2.80564 99 80 93
1.13129 11.7372 12.9284 65 67 63
3.50628 -4.1069 11.8282 61 65 62
18.3635 7.83084 -8.07589 217 180 222
-10.1698 7.3317 -6.72425 125 125 118
3.42744 29.9019 3.21946 6 30 40
8.89124 0.0445251 10.1361 44 49 48
-4.27606 19.0746 1.20518 80 86 82
13.7182 -6.46602 -8.93539 166 169 174
25.7178 11.4364 0.966582 89 88 88
-16.1194 -2.31083 -7.50033 154 129 154
3.03191 21.4743 -5.35893 141 154 146
-2.42789 21.6072 1.37509 71 80 78
