ply
format ascii 1.0
comment Created by Open3D
element vertex 1353
property double x
property double y
property double z
property uchar red
property uchar green
property uchar blue
end_header
-32.596 4.19025 1.66912 98 90 97
11.6293 0.320415 -9.58079 167 179 187
1.97449 27.6158 -2.42018 152 171 175
3.07405 -7.88102 -10.1474 160 169 181
4.04681 -2.9377 -10.4472 160 173 175
-10.1303 7.71639 -4.54893 80 80 74
-21.3454 3.46877 -4.96086 186 152 179
11.7806 19.2053 4.39097 63 69 67
4.04006 -11.2069 -10.0533 161 170 191
3.78929 26.0986 -4.28373 106 133 135
11.1441 -15.5788 10.8376 19 22 23
11.8565 4.20148 9.57503 68 71 66
0.169167 13.1032 10.2923 78 70 69
5.48086 30.637 -3.37655 103 118 127
5.93659 0.336964 -10.2622 173 186 188
9.90318 31.7904 4.8111 9 22 39
-4.33718 5.75837 14.1994 54 65 66
-9.31086 8.2156 2.2455 83 83 75
-11.2815 5.27749 7.91961 86 76 82
8.83114 20.2023 -5.17129 115 119 124
-10.3678 0.42078 -7.14158 75 77 72
4.20407 7.36242 10.8194 60 68 61
8.82471 -0.462084 10.1727 49 54 49
14.8551 2.01852 -9.03027 181 192 201
2.92608 2.49397 -10.9202 185 183 189
7.67953 -7.40071 -10.04 163 176 183
-9.57315 7.81495 7.07041 85 80 78
-29.5035 -3.41226 3.67275 8 7 14
7.31212 -11.9591 -9.83012 165 182 198
-2.43035 -0.798896 -12.3168 177 182 183
-4.28107 -8.22267 -7.96173 185 174 177
9.02011 21.6563 6.99431 58 66 59
9.77762 -7.23069 -9.73012 170 182 189
-3.26394 6.89073 -14.1055 159 162 154
-1.77095 4.53082 -12.4894 153 165 168
7.31535 -12.7479 -9.81801 159 172 192
-11.1093 -1.11437 9.63933 82 84 77
-10.7456 -2.41115 9.67535 80 81 75
8.14477 10.0145 -8.812 105 103 109
4.60887 0.530066 -10.4036 184 181 187
8.6771 32.6523 -0.438572 42 71 87
-4.49395 10.9168 -7.9388 210 211 212
-9.59312 8.26986 -4.26778 80 81 74
1.87529 27.8334 0.11467 43 88 108
0.747253 -2.80498 12.6889 64 67 64
16.2721 -8.59964 -6.77203 178 185 188
3.49938 -1.49178 11.1063 69 72 69
32.936 -6.6927 1.27991 29 27 30
9.91593 0.912573 -9.85662 171 184 189
19.6573 17.3577 2.39952 76 86 99
6.73464 -11.5658 -9.89321 159 176 192
-2.19943 16.6602 1.7497 33 38 38
-29.0033 3.80339 5.16693 54 55 49
3.46023 -8.8539 -10.124 159 172 187
9.82225 12.2158 7.74942 27 25 30
-31.4474 -16.6939 -1.00851 21 20 28
-10.5129 5.25749 8.84175 76 71 73
-17.0145 -0.793751 6.82273 55 55 52
12.4466 28.6419 5.44214 8 32 43
0.93256 27.5676 -0.987792 42 56 60
10.1376 -3.92013 -9.74973 171 182 191
22.7652 -5.99085 -7.04174 155 168 192
12.4215 -3.35877 -9.42567 173 185 187
2.54895 0.579952 -10.9318 180 178 185
13.0863 7.9666 -9.34372 193 192 204
-23.2939 -16.5116 3.48844 38 44 52
5.38801 -10.9875 -9.99641 145 159 180
-26.2667 2.90832 5.56774 60 59 57
-10.1901 -12.2296 -5.14327 94 96 94
-1.36797 -16.054 14.4452 42 47 44
4.40473 -7.09496 11.7299 60 65 63
-6.98936 0.996273 14.5064 89 100 102
-28.6836 -14.0563 3.89427 36 41 49
8.96912 0.723596 -9.97196 168 184 187
6.8856 0.340631 -10.1893 175 192 195
2.21782 24.1125 -3.74323 122 135 137
8.6012 -1.39601 -9.98188 167 178 186
9.16314 -0.0487394 -9.92683 169 182 187
14.0209 -9.66765 -8.93924 180 186 193
-31.131 -4.00039 2.97027 37 41 49
16.8479 -15.2102 6.02105 142 146 141
17.1013 9.65405 9.27551 99 74 93
-19.4396 2.93611 -5.58242 176 159 172
-19.2615 -15.0233 -2.4643 130 152 157
9.43701 17.1242 5.52802 57 60 52
-34.1757 -10.0937 1.43169 24 27 28
-0.999229 -4.8639 12.9715 56 55 48
9.85023 -0.504929 10.2847 52 56 51
-27.2031 -0.40184 -5.67244 177 156 173
-20.62 1.12739 6.08815 57 57 54
-3.19621 12.7411 -7.46549 183 170 184
0.180847 22.9364 -1.77034 138 148 143
21.0876 1.68562 -3.23531 5 3 19
27.4531 -11.9565 2.36927 9 19 28
18.1157 4.26353 -8.15791 161 181 200
0.527463 -3.14673 -11.6831 161 167 169
-25.8578 5.3238 4.49212 89 74 82
10.0609 22.5595 6.98716 64 71 62
4.36811 16.5718 6.11274 60 54 56
-8.88354 7.7958 -7.4374 161 157 154
-29.4052 -15.6411 3.33273 4 21 34
10.2299 20.1043 4.16694 25 27 27
-6.68952 0.54525 16.101 68 71 68
31.2671 -16.3982 -0.703798 9 0 16
-14.9048 4.96344 2.46881 106 93 95
-26.3123 5.4871 2.85083 101 82 95
15.6366 22.6953 0.331535 24 38 43
0.300995 22.7786 3.70759 67 71 73
-33.4296 -11.9001 2.79782 25 25 31
-13.5378 -0.901412 -5.71481 191 185 185
-4.74673 5.93199 13.3308 70 68 73
-4.57837 13.9894 2.90827 76 78 72
3.21354 29.7173 -1.78285 147 166 175
20.9669 -8.17889 -6.3783 54 58 62
-0.366196 12.4594 -9.10571 137 124 125
-0.0161896 22.8658 3.33877 66 72 71
8.02589 -0.238504 -10.0577 176 190 195
-9.2362 6.99884 -7.84507 167 163 162
10.6372 12.92 -11.0064 69 76 82
15.0246 -11.9245 -8.51127 174 176 183
11.4673 -3.34808 -9.57536 160 171 176
1.50545 24.1459 4.47982 36 52 59
-32.5844 3.58971 1.33828 78 79 75
22.8944 0.880383 -1.45872 30 37 40
17.9361 -1.01638 -6.73431 161 166 173
-26.2759 -7.85546 5.17113 15 19 25
19.9193 -5.7002 -6.04537 97 105 106
5.23481 -13.2079 10.5309 38 52 57
11.0994 -5.09682 -9.5853 170 183 188
14.0506 6.64697 8.36621 69 69 65
7.66236 -4.16545 -10.0364 161 178 181
10.8543 -9.47578 9.84338 49 51 51
15.593 5.26652 -8.8037 201 189 208
23.9971 8.32354 4.04911 99 77 93
8.80056 -3.13795 -9.92916 171 180 189
-33.8083 -7.17108 -1.88187 46 52 55
-0.0584145 15.8383 -8.48467 157 157 151
2.78156 7.55476 11.5094 78 78 76
-24.1422 -18.3441 3.1049 13 20 25
32.8977 -6.7058 -2.01303 16 15 26
2.99809 31.0555 2.74893 30 44 53
0.43325 -12.4339 13.0005 49 51 49
2.40699 5.94466 -11.1799 163 172 175
-0.556641 23.0744 -0.688889 128 144 138
-12.3292 -9.01821 -5.74632 54 32 116
16.1456 -3.04887 -7.65945 179 179 188
20.81 -8.82919 -1.30066 59 68 81
-7.76661 8.62307 -7.45918 165 166 161
-1.39915 17.5917 2.98539 80 82 77
-20.8898 5.64443 -2.15601 206 164 191
19.2045 2.71396 -7.51162 143 137 153
-6.44588 4.31387 12.4875 81 68 79
16.4639 11.8108 -11.0018 196 157 204
17.1749 11.659 8.98038 103 83 97
-33.1084 -6.03187 2.9743 38 40 47
-0.645134 15.7227 8.06669 96 71 87
-5.60638 5.22781 12.5582 70 70 73
-26.5737 4.19754 -3.96482 166 157 162
-24.1773 2.20837 5.66852 49 53 51
5.77726 -7.36676 -10.3686 167 178 184
26.1712 10.4051 2.19881 104 85 101
8.35621 32.763 4.96326 2 35 49
3.82198 8.34593 11.1511 70 74 68
-33.8018 -11.6844 -1.95048 71 76 75
12.8162 29.972 2.22629 0 39 48
3.54759 -0.287313 10.9213 66 68 63
10.641 31.3367 4.83943 8 24 36
-10.5382 2.95566 -9.87276 139 146 147
4.42577 -3.33157 -10.3704 161 175 177
-4.11164 15.0421 -0.275978 38 40 40
-1.87184 -2.33413 13.0435 64 66 64
15.9516 14.8534 -8.06588 221 175 210
-28.1331 -9.18163 4.66439 20 30 38
6.34519 -9.79532 -9.96358 145 157 172
12.9824 -2.00889 -9.34966 178 190 192
-14.973 4.8557 4.36415 92 78 87
10.3228 -3.14516 -9.73962 165 175 184
26.2027 7.39712 -3.20951 184 161 191
-12.9115 3.6955 6.40333 76 81 77
-7.97985 2.20066 -11.2675 158 166 166
-5.27177 -2.91259 12.2205 49 61 65
10.8161 33.4064 1.08846 41 47 56
20.8169 -9.04771 -6.12814 50 58 59
7.86793 -7.01879 -9.994 165 178 185
-28.4567 -8.94452 -0.646774 22 30 59
4.67492 26.8673 7.15049 38 49 52
19.8252 9.13123 -9.08197 212 173 222
-8.31214 -1.13985 -9.88871 75 118 134
14.6463 4.31663 -8.9892 190 189 196
-9.77512 5.55308 -8.55054 150 157 153
9.60534 -10.32 -9.85023 161 172 180
4.83492 -13.9482 11.6928 26 30 22
0.000291824 7.30605 -11.9999 188 187 203
17.8039 6.01773 7.39103 77 74 72
-8.07306 -15.0003 -4.8339 61 64 70
22.8232 10.5274 5.44518 88 75 83
-0.207479 -0.643379 -11.8931 168 177 180
9.58154 33.123 0.399599 48 65 78
19.8578 -14.9606 3.54596 47 55 61
3.32719 1.06252 10.9659 66 69 63
4.71617 -5.4175 11.6955 60 63 62
6.24061 0.247345 10.2307 57 62 61
-30.2821 -16.3424 -2.11526 66 91 97
0.0861664 1.65866 12.6218 65 70 67
16.7886 1.58895 -8.52055 163 182 192
12.2168 20.2601 -4.03935 107 119 142
17.1044 10.2944 -9.91537 112 94 112
26.503 -17.6629 3.28368 18 25 27
5.9566 -5.84843 -10.2127 166 179 182
15.6662 17.4151 5.18883 91 97 91
2.36274 23.5693 5.77281 23 38 42
14.6163 -8.62091 -8.38898 163 168 172
11.8884 24.2389 -5.16772 170 176 195
-5.24229 -9.52917 9.70692 74 74 72
-5.14381 6.82611 9.93788 62 66 64
21.3747 0.916617 -2.89689 8 5 21
-27.0118 5.86249 0.66684 158 139 152
4.73042 28.1598 6.90959 41 53 60
9.22721 -11.1669 -9.66371 144 159 177
-7.17181 -9.476 -6.74029 146 145 139
-9.20017 -12.9293 -9.31021 154 156 150
-20.9173 5.50028 1.68518 182 142 171
0.213364 2.19602 12.4848 64 69 66
-22.0527 1.43227 -4.88721 145 154 151
13.7741 25.7873 3.57853 7 34 43
-20.8591 -13.688 -1.87283 126 142 160
2.60517 30.1773 0.936304 45 58 66
-18.5061 5.08833 4.76296 84 71 78
-21.8593 6.50452 -1.65349 188 166 179
-29.6701 -1.71725 -2.62215 94 108 108
25.4942 10.1575 3.39073 97 77 92
0.4701 24.9934 0.546668 39 70 83
-0.907634 4.50929 -12.3097 166 177 180
6.50341 27.1205 7.33307 27 35 36
19.5824 11.3531 6.96379 93 72 82
-1.67525 0.532654 -12.2702 167 174 174
32.072 -15.0258 1.08091 4 0 3
-2.36508 16.6064 -5.43417 120 123 124
-21.6628 6.14576 2.81914 89 83 85
3.55751 -16.4853 -11.301 114 118 120
23.4035 12.8128 -4.39896 188 147 186
-8.3375 -11.0831 -8.69868 124 111 117
7.73956 -5.65842 10.2706 51 58 58
-26.8188 -15.8482 3.53389 29 33 40
-6.43321 12.02 1.04043 82 83 76
-4.69804 -2.06324 -11.8385 120 134 137
7.36539 3.15234 9.95996 56 59 56
18.4739 0.0236998 -7.01142 159 170 173
0.251709 -14.8241 14.4622 66 68 62
15.0622 -10.2993 8.23746 89 91 84
23.6346 -4.72826 -5.6317 55 59 68
15.9287 -6.62774 3.96539 72 74 72
10.8232 11.7385 8.27577 61 60 57
5.69613 16.2989 5.81651 54 54 52
15.1907 6.99639 -8.91273 212 191 219
14.1712 1.52161 9.18033 66 72 69
25.0113 -1.51068 1.03458 13 20 27
7.04806 7.22866 -10.2744 170 182 175
4.71754 30.7196 -2.66631 116 127 136
8.19182 4.55845 -10.1048 192 198 201
-16.622 -2.15471 9.01812 76 75 76
-9.75713 -0.572815 -8.96337 108 121 121
6.35221 -8.14008 -10.3227 161 172 180
16.4095 -4.37671 -6.92434 179 179 185
12.0409 -3.54669 -9.49247 166 179 181
10.6234 30.9006 -2.96812 141 162 172
13.6848 5.09277 -9.17555 197 186 208
11.1683 29.6677 5.76874 3 31 39
-3.8521 9.48559 8.89151 67 69 65
7.92336 -6.30435 10.1994 54 59 60
0.342587 -2.56823 -11.7295 164 173 172
31.0503 -10.3752 2.13835 18 29 38
-16.6797 -8.31918 6.87793 47 48 54
6.86161 31.7215 -4.03224 48 81 101
5.93485 1.10848 -10.2862 183 195 197
2.98132 -16.5123 -11.2851 92 99 95
7.90275 -8.93653 11.054 65 66 59
-13.3937 3.35958 -2.08606 74 74 59
19.5021 -14.0914 3.65781 18 31 38
10.0968 2.25539 -9.84064 183 189 193
-4.74045 19.48 0.599331 70 77 73
-7.38372 4.24862 10.9712 75 75 74
13.3151 -13.4836 -8.98724 151 174 201
24.6583 -18.1555 3.37432 18 21 28
2.93327 9.14975 -11.1357 175 174 185
-10.7128 1.06599 -8.0724 50 54 52
25.6716 -14.9591 -0.876694 67 72 92
3.6745 -5.83128 -10.5177 175 187 189
14.0678 4.89814 -9.10706 198 188 207
1.44388 6.89112 -11.3651 173 185 182
-9.84659 8.00263 -3.57412 83 83 76
-0.29237 -15.3136 -11.4783 131 141 148
23.0033 -2.46359 4.95903 36 35 38
20.2294 -1.1195 6.09534 27 30 32
16.894 10.3095 -10.4625 151 123 153
-3.57555 -9.47939 -9.97053 142 154 151
-8.08588 -11.4052 9.90561 68 67 65
-2.93042 15.7127 3.93597 86 85 83
10.9783 20.8052 5.36732 50 56 50
-9.87328 7.38203 7.24442 86 79 79
-26.3069 0.50255 -4.47634 174 136 164
0.37616 3.96871 12.342 67 72 70
16.9203 6.97653 -8.48495 211 185 217
-28.5403 3.83237 5.15432 54 60 51
7.81339 4.75146 -10.1647 187 192 194
-28.9768 -2.25029 -2.80383 98 107 116
11.6459 -4.06952 10.3814 66 68 66
15.7624 15.496 -7.87989 214 173 198
1.24907 -1.98308 12.5586 65 67 64
25.9025 -10.0376 -7.2875 136 150 168
3.08772 33.7076 3.7357 36 45 51
-30.2476 6.91753 2.11965 88 89 84
4.10705 14.6185 -5.60259 132 132 135
-8.57932 -15.4606 -4.01384 112 118 122
21.115 4.28593 -6.21216 109 103 110
4.99859 -4.49725 -10.2875 162 175 177
-19.3899 6.83991 1.55802 194 170 181
4.40794 31.9777 -2.61396 119 130 139
-32.093 5.27596 -1.46678 105 87 99
-32.3167 3.17486 0.787308 94 96 95
30.4892 -14.851 -2.07215 82 94 109
-23.6905 -2.74646 8.41937 75 75 71
3.96227 25.5963 7.35896 47 56 60
3.03396 31.7594 2.47042 36 60 75
28.308 -1.15099 -2.47948 34 42 46
7.01055 -8.79659 -10.2463 161 173 182
29.8874 -2.58078 0.912262 53 55 59
-7.25531 -11.9336 11.1527 48 50 46
-4.19167 -15.421 13.6561 39 41 41
31.8037 -6.65797 -3.16466 53 76 86
25.6148 8.01325 2.62553 94 79 90
13.1566 17.0325 -4.49855 27 32 30
6.06544 16.8481 -5.15662 192 189 222
-20.7783 1.64203 -5.23446 151 152 153
15.8179 10.7615 -11.3282 168 173 185
-11.6963 5.43657 2.12517 83 84 77
-25.1735 -1.22101 -6.89675 145 145 139
6.14505 -5.46542 -10.173 169 181 187
2.86909 31.5839 -1.17787 145 160 170
-32.6345 4.34911 -1.09703 96 84 94
-6.61653 -10.2421 9.16612 80 76 77
5.60311 32.0332 -3.32902 147 174 179
9.38355 23.1746 7.25768 51 60 55
24.3191 -10.271 -6.67163 97 105 115
3.08905 26.3055 -3.76546 124 136 146
4.84758 23.2023 -5.16275 151 166 172
24.4106 8.14402 -4.96928 213 174 211
14.0386 15.8458 -7.06015 55 57 59
-3.47988 -15.0319 14.1832 43 45 42
-1.45848 17.5757 2.43818 79 80 76
18.8306 -4.10685 4.35136 11 8 13
-11.3026 3.32673 -8.93873 122 126 125
18.6965 -1.17891 -6.86168 163 176 178
-20.2346 -1.39053 -7.18441 182 144 176
-2.22429 8.86579 -13.3351 30 32 32
7.66707 -4.88431 -10.018 168 182 188
-18.8219 -2.41369 9.19762 51 53 51
-6.51746 12.0439 -1.04674 81 81 75
15.4245 21.1044 0.987739 66 70 68
30.6912 -4.87419 1.34239 14 23 26
-4.41628 -9.09176 9.85878 75 74 74
-7.6217 10.1754 7.03654 89 85 83
13.8782 -5.69542 7.27995 80 83 78
22.78 4.87353 -1.32279 12 6 17
21.3332 1.27723 3.65809 5 0 3
20.7939 -10.1694 -6.42998 37 43 40
1.24032 -2.87424 12.5718 67 69 67
12.3051 -12.3404 -9.36 160 173 184
7.1857 1.95763 10.0459 53 56 54
14.5561 27.7577 1.11859 25 40 50
-12.9371 3.76728 5.98923 79 80 75
-9.86391 -13.6507 9.36602 91 81 85
25.8332 -7.63609 -5.66454 29 34 42
-4.56168 1.00394 -13.1676 141 149 178
15.3438 16.4268 -7.52099 220 197 212
-23.2136 5.56207 -0.413755 135 111 127
-28.6648 5.31663 -2.79409 117 92 112
-3.98555 -14.1847 10.7603 65 69 64
14.2524 27.341 -1.17105 102 156 177
-13.927 -1.50629 -5.85307 245 226 243
24.4771 -1.10451 0.881557 18 23 26
15.2235 -7.58596 -7.74259 164 169 170
5.02758 25.5991 -4.92171 142 158 161
-30.255 -1.69589 -2.16423 67 76 80
6.90518 -4.88294 -10.1013 166 177 183
22.7192 15.5772 -1.04535 55 87 104
-21.708 -0.790447 -6.63774 176 135 168
20.3466 17.3737 1.36185 47 74 97
-8.71011 -11.0535 -6.92553 107 105 103
-34.0967 -7.11629 -1.41994 25 27 27
-18.2812 -9.47581 6.57925 33 35 36
33.0515 -5.12122 -0.360537 40 43 51
-32.551 -4.95638 2.95945 27 31 35
10.2966 0.716931 -9.79445 168 181 188
21.6987 4.9308 4.53865 88 89 82
15.0352 12.7261 -10.3623 166 171 169
-5.36504 -10.0515 10.8231 42 49 47
-28.066 0.0204182 1.31376 30 21 28
26.6172 -9.31846 3.88087 10 27 39
-12.1353 -1.08615 8.47448 80 80 75
1.19439 14.0197 10.3692 65 65 60
-4.65245 19.1984 -1.08865 150 162 151
-0.356186 23.7233 -0.479059 119 132 132
-32.4571 4.97142 -0.651313 99 87 93
8.9985 -4.49723 -9.88222 165 178 186
2.54929 -0.5709 -10.9204 175 175 181
4.05727 -6.21481 -10.4965 179 192 193
-27.099 0.880514 -2.25593 51 54 50
17.3726 3.64313 7.64625 51 65 66
-8.21951 8.18783 -7.50025 163 162 158
17.1079 7.35854 -8.44631 214 186 223
6.58121 -2.39127 10.2778 54 56 55
5.04725 23.5911 -5.19899 120 134 140
-3.81247 -10.2593 13.3889 65 67 64
-15.1581 -12.6697 -5.22835 41 41 48
-11.1533 5.90653 5.95897 80 80 76
7.09907 20.7623 -6.10472 164 163 184
-20.1766 4.42546 -4.33627 182 151 170
-15.3917 5.2053 -2.37782 107 97 98
25.2165 -5.74166 -1.48848 49 61 78
20.1049 16.4131 3.19839 101 91 95
10.6734 1.09964 -9.74677 178 188 195
2.216 -16.5294 -11.3144 74 80 87
-23.5401 3.66127 -4.5864 188 161 181
15.1395 21.4755 -2.47724 111 118 114
16.1982 8.98144 -10.1507 154 125 157
14.5724 19.5335 1.93552 47 53 48
0.633377 10.1452 -12.8349 44 46 40
0.785221 11.592 -10.3434 185 179 173
33.9862 -10.1937 0.0598545 10 2 12
-21.4784 5.44128 0.800325 133 109 126
6.49288 12.2712 6.57859 33 30 31
10.3352 19.6355 4.04414 51 56 55
2.16221 17.7732 -6.05156 106 91 98
1.30112 23.0082 5.23836 74 80 81
-32.4929 4.02509 4.10292 89 86 88
2.72376 -6.02117 -10.6312 168 171 175
-24.3494 4.99026 4.74515 78 73 71
4.05264 -5.45066 -10.4502 176 189 191
24.9777 -17.6871 3.31316 14 22 27
-12.244 -3.54556 -6.93409 91 87 80
0.937592 4.01262 11.8755 65 70 67
10.5369 17.0146 -4.04888 76 82 104
3.45968 25.1855 7.20503 60 69 73
-2.06696 1.49954 13.4343 60 65 64
9.46819 32.7181 -0.175598 91 133 127
7.92884 26.1285 6.98555 26 36 41
-18.9728 1.01942 -5.56214 141 157 154
5.75991 -4.30312 -10.2124 171 180 187
7.7967 6.22297 -10.2388 199 200 206
12.7116 7.58513 -9.37643 187 189 205
15.0447 -10.3161 3.33207 2 13 21
18.0489 1.68707 -7.82255 129 123 134
-19.702 3.26744 -5.28648 198 161 190
-9.29031 -11.3715 -6.42949 111 111 108
1.29896 12.9391 -13.3903 32 35 39
2.39535 11.8404 11.0212 73 73 68
10.4278 32.0346 0.192457 38 64 71
32.0919 -4.96756 1.07923 60 61 63
15.617 -6.09919 4.53431 72 75 74
14.1366 19.0055 -2.39611 40 37 55
-18.9244 -3.03482 -8.22866 146 156 152
28.9368 -1.1908 -1.03336 18 19 22
1.66927 17.2876 -7.9761 202 168 193
3.4943 4.21739 -10.9424 188 185 195
-34.1127 -8.54398 1.97101 32 33 37
6.1701 33.0453 -2.28935 115 127 133
0.563187 -10.6305 10.7357 26 39 37
0.541679 -12.8996 13.586 51 54 52
4.49086 21.3344 7.54136 37 43 40
4.996 -3.52898 -10.2928 166 179 184
-32.9238 -3.90295 -1.08693 29 28 27
16.9442 3.03007 7.76799 71 71 68
18.2866 14.6204 -7.10716 216 171 209
-29.55 6.65865 -1.60223 194 182 186
22.4012 5.27753 -5.21261 105 104 107
20.6288 1.1132 -6.37566 39 38 77
14.6067 8.14676 -9.03275 229 192 233
8.18822 5.32413 -10.1356 191 192 201
20.7025 -15.2341 -1.18186 32 47 75
14.4458 -4.15604 6.03341 69 72 68
-10.3493 -0.917248 10.7732 72 76 69
-7.74612 -0.631691 12.4443 70 73 70
22.8488 5.80821 4.15664 88 92 82
21.8445 1.81298 -1.58069 3 5 7
10.3985 17.781 5.07444 63 67 59
21.1758 7.08089 -6.92826 209 181 214
-8.1697 9.49482 7.44498 84 79 79
-9.07707 7.29593 8.46756 78 72 75
32.4127 -9.77468 1.93807 24 29 31
29.7688 -1.92188 -3.3051 45 45 57
3.10242 -2.85949 11.8729 65 68 65
5.18596 -3.13945 -10.2884 169 183 187
23.9146 9.39564 4.9705 92 76 87
-2.98398 0.343289 -12.4032 175 181 185
-8.80314 -14.2745 -4.18727 132 136 135
12.649 18.6953 -3.44371 52 57 91
9.54026 0.335391 -9.88727 171 187 192
4.99469 -2.75268 -10.3109 174 187 192
13.719 16.1074 -6.42867 4 1 5
4.31672 5.70902 10.9104 62 65 61
-5.06662 13.5462 6.48398 65 68 66
-13.6854 -14.4563 -4.7014 34 35 38
-4.35455 13.0626 -7.04371 178 178 187
1.14733 26.3691 -0.789312 49 59 68
5.38376 -5.46022 -10.2736 166 179 181
1.7583 17.8312 -6.07122 110 87 100
27.4499 -3.40545 1.74472 40 49 56
8.43429 -5.85266 -9.94299 166 180 186
8.00858 3.41263 -10.1229 179 188 192
6.34472 -6.99637 -10.2402 160 173 178
3.35087 2.45388 10.959 67 70 65
-16.6843 -2.42504 -7.92352 184 152 179
-30.2529 6.57785 -1.12939 181 154 176
-4.30159 7.58923 -11.3196 103 110 106
0.169529 11.6987 12.7931 67 70 66
-18.7238 -1.50072 8.54635 79 73 77
9.73478 -0.434407 -9.863 164 181 184
-9.55549 -0.792522 11.6204 65 68 65
25.058 -8.67661 -7.39604 142 157 180
-31.4332 -7.92584 4.3053 11 18 26
26.8637 -14.2478 -0.995522 71 74 92
-0.988625 10.2096 13.9986 125 131 129
-16.7977 -5.18874 -8.34138 175 174 176
-23.9347 -3.07317 -7.13964 170 162 161
8.23674 -4.4942 -9.97395 168 184 191
-10.5895 4.71338 9.12438 72 72 71
-25.2197 -16.6437 -2.33022 107 119 121
-11.0603 1.82368 10.3154 73 71 74
10.5642 19.0246 4.61765 70 76 71
7.09034 -3.5237 -10.1064 162 175 180
-21.3528 5.19844 -3.71801 204 162 197
-19.8578 -9.4097 6.7601 38 40 42
9.7253 29.4602 6.57589 18 34 43
7.14334 -14.1156 10.3471 42 48 47
-2.04308 15.4737 -5.93932 187 186 187
4.61162 -1.98322 -10.336 166 177 182
25.2057 10.6735 3.49334 104 80 98
-27.866 5.97412 -1.84703 238 202 236
-0.836596 12.1225 -9.97157 94 87 89
21.7258 -15.8055 -1.29246 30 41 68
-24.1842 -17.3785 3.05783 16 26 36
-15.5246 -12.2235 -5.53422 77 77 85
6.32893 -3.52567 -10.1743 176 189 194
4.12407 -2.24196 10.9039 68 71 68
-4.15723 -13.8209 10.8712 52 59 56
8.60055 20.8848 6.88465 65 69 61
-8.86566 9.29831 -5.91149 82 83 76
4.25319 28.9879 4.95721 10 30 38
13.5298 0.876928 -9.25442 175 185 191
6.76023 32.598 -3.65368 69 96 114
-22.7838 6.08506 1.50238 103 91 97
6.11644 3.98829 -10.3371 184 188 189
26.8426 0.0987358 -0.969982 30 31 33
11.705 -1.28131 10.4165 58 62 60
3.75935 11.8827 -9.65165 190 167 185
-12.6102 4.36894 -6.01964 92 96 91
5.0648 34.1555 4.06306 1 24 36
-0.712654 5.24438 12.8867 69 75 74
3.93578 30.6189 4.46932 52 61 68
-30.2685 -1.38955 -1.3501 32 37 38
5.18087 -1.59742 -10.2801 209 222 225
-2.7617 8.3344 15.3517 44 47 45
-19.9428 -1.07509 -6.55315 158 116 150
24.5937 -5.41976 3.79929 3 1 18
25.7981 -8.21406 -7.30799 153 163 179
-10.0157 7.78933 -6.01053 95 95 87
0.517494 5.3499 12.0031 66 71 69
8.97784 -0.818577 -9.94308 170 183 188
1.86691 17.6972 7.53373 100 85 92
-2.81968 16.2075 -2.96155 31 32 34
1.24862 24.871 0.188615 27 73 81
31.5463 -16.5525 1.71157 10 7 17
-0.762495 -1.012 -12.0164 163 173 174
4.8814 32.2393 -2.96104 94 109 123
-31.5534 -14.4457 3.54208 20 30 38
-0.349037 14.2282 9.38407 93 68 85
5.0019 -5.26721 -10.3084 161 176 176
-22.6051 -9.24788 -5.94588 141 152 170
8.85548 30.104 -5.07383 189 210 218
-5.31892 -9.30553 -9.11666 122 105 117
-31.5591 5.15709 -3.06418 144 135 148
27.001 -5.54845 2.42599 18 33 45
-5.72128 7.66624 9.34305 64 68 66
0.715999 -0.667053 -11.6618 170 179 181
-7.16251 5.17582 10.0164 66 70 68
-13.0212 1.70654 7.3983 86 81 80
4.98696 1.10729 -10.3743 182 185 189
20.8094 -3.6522 -7.12038 154 164 184
-26.7722 4.31108 5.03109 68 69 66
-30.2864 5.9203 2.65649 82 82 78
-5.42631 13.7467 -4.03948 64 68 64
16.012 10.1545 -11.2786 192 170 211
15.4321 25.2003 2.70855 9 36 46
-1.19183 -13.7203 10.824 45 51 50
-2.73653 8.30828 12.7267 66 69 68
12.4967 4.31676 -9.39257 190 188 201
10.1479 -2.19362 10.4928 53 53 56
11.6003 3.97154 -9.63593 193 190 203
0.302305 9.70215 -11.0353 69 74 70
18.8418 0.438271 -7.11482 164 172 180
1.69579 -13.6749 11.9481 100 98 96
5.69407 19.9615 -6.09911 77 79 76
15.1839 -1.44182 7.8634 86 89 82
5.36949 -1.01755 -10.2706 172 184 187
4.77703 14.4954 -5.35016 212 197 217
7.45715 14.7734 5.8589 30 30 24
-13.7055 -4.13921 9.17585 76 79 73
32.4412 -8.94627 1.83553 31 36 30
-12.696 4.29418 -5.57719 77 79 76
-12.6923 -10.4438 7.12016 25 26 24
19.2297 0.0521898 -7.11507 169 179 183
-26.7301 -11.2538 -0.216103 48 57 79
9.08278 6.90565 9.85826 72 73 69
0.355574 9.79887 -12.4077 156 163 206
24.6692 -0.0172043 -2.44194 25 32 36
32.0888 -14.7592 1.75363 3 2 3
7.90228 -15.2627 -2.6978 54 59 62
14.2338 -6.47108 5.62827 75 78 75
12.468 29.9805 -2.65384 41 50 60
4.70024 15.4239 6.14021 76 72 69
-20.7069 0.0526276 6.24694 67 67 65
-28.3878 5.38527 -2.17555 142 105 142
28.8034 -14.0297 2.76508 33 37 43
10.3711 -10.3432 -9.6912 161 172 182
-3.90398 18.5539 -1.73037 137 147 140
-1.83391 13.4579 -6.415 176 172 158
-22.1828 -18.4288 -2.27637 100 113 120
12.1259 -16.6156 -10.0721 38 33 56
6.79777 26.623 -5.29652 147 164 159
6.66704 21.6671 7.46281 21 26 31
0.851349 11.9267 12.877 68 68 67
-1.06973 14.8968 -7.09826 77 70 69
10.7884 11.5301 -9.61922 108 114 122
0.0674133 -12.4543 13.1218 51 54 52
-10.0034 -1.98237 10.5254 75 77 71
14.0869 2.97647 -9.08162 179 183 195
-33.676 -5.16495 0.51803 21 19 18
10.4368 27.3915 -5.23909 158 178 192
-9.60919 -2.06874 -8.19311 113 129 122
5.03983 30.3436 -2.93266 112 126 133
-4.95069 13.4994 4.79546 69 73 70
-17.1503 5.69534 3.61826 102 88 95
9.3035 8.14126 -9.48631 74 73 89
2.29261 14.2849 10.1514 68 69 63
-21.459 3.59152 5.83107 76 70 72
-25.4598 -4.42602 -3.82295 141 146 140
0.158339 -1.99006 -11.7791 159 170 169
-1.96196 -13.6226 10.8083 48 52 49
-27.3609 -0.328541 -5.26676 111 91 109
8.88102 16.7861 5.70692 60 61 55
-20.1287 5.09974 -3.83166 197 160 183
5.76295 -6.69121 11.5682 59 61 60
13.9974 24.5811 4.33153 14 39 47
-5.16204 19.3435 0.0724688 76 83 79
-19.8953 5.7599 -0.81163 111 84 102
2.27979 -3.55459 12.1924 64 68 64
-26.6024 -8.8639 -2.3169 69 81 91
-4.92395 13.6801 5.68503 81 85 81
-22.8145 -2.74321 -7.38616 144 151 144
24.5902 -2.22659 -3.71484 113 129 151
-10.5682 6.98814 -1.22822 83 84 76
10.1961 33.2072 3.54831 0 20 29
-5.18441 12.3949 7.96952 69 72 68
16.2724 13.9296 -8.93273 135 109 127
-2.23623 11.1324 -9.90844 99 98 95
-3.49018 7.60362 -13.8325 52 56 53
-31.7116 -11.8087 4.20892 29 45 58
18.3965 6.69213 7.14929 81 74 76
7.53919 8.13878 -9.74759 208 198 200
2.91011 15.5583 -8.64111 209 173 201
20.2442 13.0795 5.81332 109 88 102
15.9154 16.1469 6.36495 97 91 92
-16.6992 -1.6252 8.17281 90 73 86
2.68991 0.253279 11.1893 68 70 65
-0.814693 13.0317 -7.55103 81 80 72
-18.0421 2.67957 -5.91437 181 168 175
0.0741959 -12.7184 13.5287 50 53 51
1.71281 24.7956 4.77592 65 73 76
31.0731 -16.7872 -0.424487 8 0 15
20.5488 3.73924 -4.24104 19 7 22
33.1719 -12.9177 -1.46889 9 4 8
-4.33995 6.78442 11.2965 74 79 79
7.25777 22.2969 -6.09216 182 181 206
1.74331 -13.3978 13.461 56 59 57
2.92405 32.2099 3.16708 46 56 65
-9.38326 8.02777 7.43073 85 80 78
24.1229 11.492 3.54532 100 87 94
13.8864 3.94024 -9.13252 195 188 205
6.89302 -14.8003 11.0165 22 28 24
0.0255127 21.2515 3.20832 82 91 92
5.89043 33.079 5.21477 4 29 38
12.3275 7.97122 -9.48949 110 115 121
-13.16 -11.3995 7.36124 32 35 32
12.3642 3.39059 -9.50076 188 186 194
16.3976 13.3993 -10.5371 157 133 152
12.1053 11.2059 -9.74295 90 100 122
10.4436 17.6812 -3.87059 69 67 108
-11.5006 -15.0434 -5.05106 146 159 162
-31.7775 -13.1003 3.89223 12 29 39
-2.64571 -9.99005 10.7724 47 51 52
20.6222 -0.376881 -4.0905 28 32 39
18.6025 10.6197 8.13898 103 82 97
-3.06222 20.7722 -0.129265 121 131 122
-2.29467 0.170095 13.3515 64 68 66
-10.3074 7.03972 3.99415 85 85 78
18.714 18.5131 -2.4769 130 117 127
14.7535 14.607 -8.68388 179 144 173
26.0609 -15.1379 3.13746 29 40 48
10.7252 25.0851 6.91846 25 37 42
25.3841 -8.77272 -2.27382 14 32 45
3.01849 12.8967 -9.83849 206 178 201
33.5846 -11.6136 -2.4028 39 49 69
2.8234 27.3885 -3.5462 89 111 125
-3.71962 6.88004 14.4481 54 62 62
15.2063 5.75873 8.11658 72 72 68
9.41192 -9.92294 -9.89558 158 168 177
-0.434738 21.7689 3.17136 83 88 88
-6.17575 7.73572 -9.03614 149 155 151
15.2194 -11.4734 3.24656 14 19 25
30.0383 -16.3513 2.8371 9 14 20
-25.1111 -10.1462 6.5284 42 44 49
-27.8161 5.46382 3.89554 96 79 91
-28.0848 -2.8463 -2.85095 110 122 128
18.926 8.97178 7.08624 101 72 95
9.2973 25.4558 6.8198 28 43 48
13.8892 28.7485 0.984003 21 46 55
-25.4664 -8.36862 5.77676 47 52 55
7.66049 19.5659 -5.94665 166 163 197
3.49619 4.98225 -10.9896 185 188 193
20.8305 12.498 -6.71185 185 137 177
-10.8341 6.8295 -3.69391 81 82 75
-0.948749 -1.57943 -12.051 162 173 172
28.8568 -1.22799 -2.86631 35 47 54
-15.6425 -2.27126 8.61291 67 71 68
21.9634 14.9645 2.74137 60 73 91
7.4372 4.36888 -10.1931 191 196 196
8.96939 34.1179 2.83479 0 18 29
18.8452 18.5939 -1.72394 91 102 117
-22.302 6.9236 -1.1963 158 148 149
23.1327 5.20711 0.0502434 11 7 11
-7.01529 11.3566 -2.43937 78 79 72
-0.965206 18.0341 4.13501 82 84 80
-4.86737 19.6031 -0.57589 121 126 123
0.170494 -12.7129 12.4445 93 99 93
-23.1501 -9.4338 -5.87135 122 155 155
1.28404 -13.7773 12.049 87 94 91
32.2546 -12.1846 2.25936 22 23 26
-24.3423 0.0869255 -5.77412 158 115 150
10.8088 -13.1 9.81893 32 47 54
6.56399 -1.37218 10.2571 55 59 58
10.602 13.2674 -11.6207 54 61 68
-4.2487 6.93257 11.9612 72 78 79
0.345109 -1.23016 -11.7464 168 179 177
-32.8531 -3.80499 1.23273 18 15 19
-27.2287 -0.634972 5.40977 98 88 96
29.9074 -3.23868 1.09662 39 42 44
-5.46387 2.27858 -13.4325 78 86 90
12.3363 -2.92351 9.94772 75 77 75
20.1068 16.0195 -4.87514 207 155 191
17.5654 9.7419 -10.4007 211 171 222
0.159751 -3.32187 -11.7982 162 169 168
3.10873 8.38451 -10.943 184 191 191
16.5473 17.8676 4.63871 109 102 107
25.1983 0.422909 -0.757629 27 30 33
13.9589 1.00282 9.20822 66 71 69
-28.2814 -8.14143 4.76597 26 35 42
26.1268 -9.17822 6.80414 45 52 56
21.0142 -4.4399 -7.10039 148 158 171
-7.61054 -12.7129 -9.56123 150 158 154
5.39595 19.9093 7.19204 43 46 43
16.7531 10.9633 -9.61814 129 89 124
-9.01307 8.76686 -0.934341 82 83 75
6.24342 0.927048 10.2255 58 61 60
6.41324 31.9039 6.68467 2 27 34
-2.25881 -10.9837 14.056 69 68 62
-11.3705 -6.35035 -6.22073 103 94 92
3.66234 7.80639 -10.7323 175 185 182
-11.0126 3.54919 9.55623 74 72 74
15.2481 22.4931 2.0247 27 38 44
-4.06187 7.53185 -11.8915 127 135 133
-8.70397 -2.14967 11.3732 46 49 43
-30.5056 -1.94335 -1.89052 39 42 45
7.88938 32.162 -1.61316 16 34 47
3.6143 33.3034 4.09343 25 36 44
-0.0170307 0.120005 -11.8938 170 179 181
7.62868 3.79486 -10.1628 195 201 205
-31.7134 -14.3471 -2.19701 110 122 128
5.285 5.69028 10.7327 65 68 63
15.2922 -15.4522 -7.02803 85 94 90
-10.6538 6.95077 -2.43863 94 94 85
-26.4921 -8.87822 -3.83605 37 43 50
17.1124 14.9494 -7.53161 222 174 213
20.202 17.6925 -1.32266 35 72 107
14.2062 9.87004 9.8006 65 68 67
7.84425 22.1104 -5.94111 177 183 195
-10.8233 0.676674 10.7829 71 72 69
13.1107 21.6788 -4.17024 188 171 205
-5.47364 -11.3732 11.3818 52 52 53
5.61679 34.5731 2.54065 0 24 36
-26.0802 -16.7614 -2.28262 93 103 114
-1.91531 -11.4773 10.7914 48 45 51
7.7103 -7.56983 10.2656 59 68 65
-26.0686 -7.80974 -3.62498 34 36 41
5.68292 -8.57462 11.1517 59 61 59
9.70345 4.55488 -9.91887 203 201 213
-23.0426 6.13589 0.794334 115 98 109
1.97631 16.1847 -8.55826 207 183 197
25.7985 7.87323 -3.70913 226 178 222
-12.9068 -4.26644 -7.48967 149 146 152
14.7103 21.8639 3.42501 67 73 72
16.1418 -12.9463 3.38204 27 30 34
15.908 -11.6634 3.41852 14 18 25
-4.21656 5.63423 13.8183 34 35 36
11.9404 9.60596 8.88858 17 17 17
-2.1999 8.21284 -13.1207 28 29 29
-31.9062 -16.1034 -1.52684 25 28 29
-4.70374 6.03452 14.6033 57 66 66
-6.01976 -9.84655 8.47904 49 49 46
23.7177 -3.89118 4.23249 19 23 27
23.6787 5.74525 -0.253715 11 9 12
9.88768 5.31564 -9.87721 187 186 196
-12.6807 4.11293 5.44868 81 82 77
15.0614 10.4762 -11.1641 159 174 175
-25.3327 -1.53262 8.15391 53 56 51
-23.031 -0.126535 -5.54018 132 97 126
8.92174 8.51817 -9.4448 70 65 72
4.84208 18.5887 6.62648 50 55 53
0.0861816 19.168 5.77124 87 83 84
0.891991 14.0738 -9.47252 180 179 181
2.32393 31.5132 -0.991394 142 162 173
9.5627 18.8649 5.82915 74 79 71
-11.4765 3.61447 -8.60085 153 159 153
-1.27657 10.3301 -11.8535 178 178 180
-22.3109 6.71916 2.10755 89 88 84
-0.21089 -1.59884 -11.8705 158 170 169
-27.3394 0.409027 -3.61899 94 82 92
-3.09309 20.1738 -2.23328 102 114 107
14.642 27.0171 -1.15334 23 77 100
-0.322975 -9.0757 10.6098 47 49 51
22.8998 15.4164 -0.413713 37 67 84
-15.5282 -3.06147 -7.66517 188 159 185
17.5961 -2.19107 4.70623 65 68 65
-10.1645 7.40198 -0.0764112 83 82 75
12.2141 25.8566 6.18135 19 35 44
13.0314 -15.3899 9.82133 18 18 15
-29.9801 -8.60524 -1.94084 74 87 90
-3.08018 9.74594 8.78062 71 72 67
-2.58487 0.65597 13.3858 63 67 65
6.54584 6.55198 10.5544 60 65 59
15.1306 17.9277 3.59858 38 42 46
-1.47712 10.2046 14.8699 40 43 40
11.9062 5.37329 8.85508 81 77 75
5.92432 24.3632 -5.74125 153 165 173
1.19963 28.9218 1.25935 12 45 55
-9.67141 -11.9772 -8.72733 152 147 147
-31.3046 -2.09993 1.54019 27 30 29
4.53851 11.6921 -7.91962 73 75 73
-6.52324 12.1599 -4.46035 77 78 71
-27.1904 0.0285568 5.25105 97 85 97
24.4515 10.3841 4.41739 87 77 80
20.8093 4.26729 -6.9886 195 174 200
-0.0786743 5.40475 -11.9339 164 175 178
4.49072 28.594 6.48743 31 45 53
13.0845 19.7382 4.01274 28 29 30
-32.6074 3.88231 2.135 89 89 86
11.627 30.8814 -0.774822 10 41 52
3.0664 23.6542 -4.5943 140 155 155
1.99482 14.3262 -9.38469 205 184 196
-0.195667 0.889883 -11.9829 172 179 183
26.9182 -0.0319977 -1.63554 46 49 52
7.63464 13.8283 6.18488 36 37 34
-27.3046 -1.65071 -4.35391 91 89 92
1.8578 14.0815 10.2756 63 65 58
21.9878 -7.91285 -7.33057 161 183 212
18.9875 2.68134 6.67554 80 79 77
3.94184 14.2276 9.80115 89 74 80
6.09138 -3.19925 10.3657 62 56 56
-19.7996 4.89042 -4.03019 205 168 191
12.7162 3.70867 -9.35462 182 181 191
-0.823082 -15.7297 -11.6774 112 134 124
-7.80835 10.1752 0.66997 85 86 78
-0.364706 4.11861 -12.1271 166 177 179
4.28419 4.10561 10.7789 68 71 66
-3.72302 -6.64024 -8.2622 141 142 137
25.9691 9.18901 -3.97025 190 143 192
-0.155668 18.2684 -5.23087 177 187 176
12.6376 19.4899 -3.5745 68 66 91
-13.1272 -13.6016 -5.65379 149 159 165
1.0857 20.262 4.3122 18 21 22
8.85912 3.76955 9.78905 62 62 57
1.49757 12.5813 10.8717 64 65 60
5.87756 -2.38405 10.4185 57 61 60
-27.4557 7.21976 2.18222 106 99 102
-1.67625 -9.8834 10.685 42 47 50
23.1745 -1.21386 -3.84189 110 128 150
21.1592 15.6075 -4.22467 175 149 170
-21.189 -11.0813 7.13453 37 42 43
-5.2765 0.696898 -11.9459 166 167 171
-13.5027 3.09468 5.31041 68 68 63
33.2038 -10.6533 -2.42123 31 39 61
-0.530602 11.3828 14.6162 36 37 38
16.6636 -7.24192 -6.56119 169 176 179
18.3613 9.07787 7.53931 104 75 97
17.9171 12.5202 -10.1136 213 185 206
5.24676 -5.96738 11.6331 59 62 61
-27.1407 -4.5884 4.43288 13 17 16
-2.89639 0.955868 13.415 64 67 68
-3.17369 -0.415105 -12.4185 170 174 178
27.3549 -1.02951 -3.25583 84 89 105
3.13314 32.0766 3.65604 53 64 71
8.1038 30.9816 -4.71279 136 155 168
-26.5305 -9.31703 -4.91209 56 60 65
-8.64245 1.1113 12.401 66 71 69
13.9879 22.4621 4.67563 67 75 74
1.32099 27.7375 0.334303 37 81 108
13.7785 -4.62581 6.92261 79 80 77
10.8185 7.962 -9.50562 107 113 129
-10.7207 -1.93382 9.82903 79 81 75
18.4246 10.8566 7.51619 99 72 94
-6.00494 12.2393 3.74956 83 83 77
-4.49596 13.9693 -6.57005 169 174 164
-26.447 -9.03994 -3.05424 29 43 52
27.294 -0.575251 -2.12859 33 31 39
-0.624039 13.6958 -8.41249 130 115 123
14.0771 -15.0232 -8.80057 174 169 204
11.8827 21.195 5.67051 62 69 62
-3.10442 20.8558 0.529774 72 80 76
1.99961 -14.2482 14.0107 63 71 65
-28.2869 3.41178 -4.12588 141 151 141
15.8929 -0.663876 7.63464 84 87 81
-8.90763 8.81317 0.224493 86 85 77
2.45596 29.3003 -1.41695 101 116 128
22.2953 10.5866 -7.25938 206 163 206
-26.8555 2.53563 5.6326 66 63 64
22.3596 -7.31059 -7.33627 191 200 229
-31.8449 -8.05634 -2.35559 84 97 105
-26.4571 5.49115 3.67782 99 81 93
-28.2242 5.19 -3.29327 208 168 199
4.56259 15.9371 6.64935 114 93 107
22.2206 16.063 -1.21765 57 90 107
-28.3548 7.12022 -1.61765 134 116 127
19.1422 18.4616 -1.31328 44 67 104
29.5183 -1.54627 -1.59159 30 32 34
-7.8779 9.07309 8.2339 74 71 70
-23.9454 0.00518799 7.49451 85 74 81
26.9043 9.39187 -1.74437 156 132 152
13.8146 13.4972 8.46346 30 30 24
19.7594 14.6595 -6.22871 208 164 201
-22.1449 0.154865 6.24392 79 72 75
-24.7307 -16.5993 -2.32454 100 113 116
10.3304 13.1695 -9.73311 28 27 28
-9.33765 8.66321 -4.79072 80 81 73
0.477875 27.5752 1.68234 64 76 83
3.8774 4.09302 10.8613 65 69 64
12.0033 16.6247 -4.22744 30 31 24
19.2327 -4.34346 -5.83772 115 124 127
3.97666 29.8369 -2.00643 165 172 181
4.55235 16.2991 7.43817 99 84 94
-30.2041 6.86811 0.307161 102 100 100
4.03318 8.18058 -10.6231 171 182 185
18.3711 -13.276 -1.55646 43 53 73
5.06801 9.31202 10.7458 73 74 71
-5.21655 3.15551 -12.3593 153 165 160
-14.094 -3.18492 -6.8623 118 97 115
-25.9669 6.29314 0.590439 107 99 101
5.58787 -16.211 12.7662 51 56 59
5.18475 -5.2974 11.5866 63 68 66
-20.9647 7.27127 2.3357 87 88 83
26.2298 -0.312881 -3.70647 107 122 141
4.74611 -2.98661 10.7031 61 64 63
-0.900042 10.6422 -11.8821 185 180 183
-21.7933 1.08485 5.8784 63 64 62
-10.1136 7.2496 2.45869 84 85 78
8.13147 -5.52133 10.3297 54 59 60
-20.4631 2.83402 6.33366 64 62 60
13.8027 26.7878 4.01264 1 26 39
-32.1473 -10.2245 -2.32816 106 124 134
3.36143 31.0795 -1.44711 158 175 184
-2.79902 -13.2196 -9.96675 151 159 186
12.907 -15.8488 -9.38834 20 23 34
7.09312 -5.35054 10.2404 53 58 57
3.24179 16.4254 -7.9861 214 167 206
6.29692 7.23447 -10.4269 171 184 176
-20.8888 6.8816 2.72919 77 77 73
3.98743 17.8921 6.25354 40 41 41
-9.2079 8.38297 1.49466 81 80 74
24.1458 13.5434 1.15118 72 80 89
-20.436 -0.793285 7.92283 87 75 81
-5.91594 -10.6587 11.0788 44 43 40
-28.384 -4.92445 4.28274 43 36 41
-25.6776 -8.51257 -5.41189 149 157 160
-6.10503 12.235 2.548 79 80 75
-3.28926 15.6392 -2.87976 36 37 39
-32.1993 -5.57038 3.42726 18 31 42
-26.5866 -0.6366 7.23913 75 73 72
-15.679 5.4666 -0.323404 111 91 103
1.07918 5.01007 -11.5032 171 182 189
25.7631 0.20652 -1.92199 23 25 29
-17.6478 -14.619 -2.42735 109 120 130
5.7132 33.3825 4.83066 6 26 35
14.3846 -8.22305 -8.52321 168 173 177
14.764 27.5179 -0.585546 39 78 90
16.878 11.4802 -9.76669 125 99 124
-0.461107 10.3956 -14.3468 165 178 167
-10.6406 6.9696 -5.56092 99 101 91
33.6383 -7.42031 -1.84213 15 17 27
11.8357 13.8754 -10.6479 75 73 79
8.08283 -15.8408 12.1407 23 25 25
-4.45858 2.76806 -13.7271 143 149 145
-13.1385 3.35537 -4.28202 91 86 69
1.95028 5.67973 11.2536 64 68 64
19.0006 17.6266 2.76521 92 94 100
2.3072 29.7465 -1.17516 100 118 124
10.2038 -13.7485 -9.46871 155 168 191
32.6343 -13.1026 -2.11708 36 38 48
9.21422 27.8414 7.14363 38 47 51
16.8892 -0.17487 6.32327 52 53 50
-24.9075 5.47459 0.162834 112 96 105
-6.09976 12.7321 -4.19751 73 75 70
-16.8459 5.61169 -1.67361 117 96 110
19.8483 18.0117 -0.294056 32 64 95
-0.565796 -12.8897 13.789 51 53 51
15.2572 0.464025 -8.9009 156 171 180
11.0013 28.307 6.76522 12 27 39
2.73844 7.25286 -11.0276 173 183 182
17.358 -9.38717 3.49701 18 26 29
-12.4107 -2.93649 -6.55798 137 133 121
26.4815 -8.48257 4.8157 18 10 19
16.5627 4.4849 -8.577 188 193 206
-20.8808 -0.260883 -5.22291 165 164 168
20.856 1.81127 5.23374 13 14 18
3.86108 9.98415 10.7676 60 64 54
22.3471 11.3248 -7.24363 188 146 200
5.94538 -11.1763 10.3538 32 38 42
3.48226 7.05519 -10.8455 166 177 175
-0.548759 10.2391 -12.1099 177 181 177
21.4912 3.70722 -2.88085 20 12 32
26.9228 8.13468 -1.59781 135 118 129
-18.2078 5.68277 3.6387 99 84 92
15.6411 -10.5535 -7.72076 146 154 153
-1.2775 3.00885 -12.3843 180 187 194
-0.469387 11.315 -9.49794 148 128 129
4.64635 -14.6855 13.1641 50 55 57
-20.045 6.56984 -1.19584 97 82 92
26.4738 -2.89542 1.14973 21 30 40
5.10614 31.8225 6.8385 18 35 38
14.7549 -9.18139 4.15955 78 82 78
-2.31662 -13.3613 10.8151 51 54 50
4.01628 18.1714 -5.19925 153 163 169
0.716669 2.9418 -11.6614 169 176 179
-23.9077 -17.1986 -2.27188 96 108 118
20.4066 -7.14939 -5.58719 58 63 67
-31.1087 -2.09106 2.38888 29 29 29
-26.7252 0.478085 6.33154 85 80 81
-10.9571 1.85661 -9.18028 88 93 82
-6.84032 -10.1005 -8.5653 119 107 114
12.3023 29.5492 -1.15708 11 35 45
21.6469 -1.56609 6.22056 12 15 18
-13.828 -9.23673 -5.70853 136 143 163
33.3246 -7.82087 1.03517 27 28 30
-6.02498 12.7711 -5.79055 75 78 73
15.781 5.09362 7.99522 71 72 69
5.80589 26.8759 -4.83696 115 133 135
7.0954 20.9525 7.29494 39 47 46
3.30758 5.74172 -11.0169 165 171 174
17.3522 16.1725 -6.7309 209 165 199
-32.3844 -4.32623 2.54472 26 32 31
-2.59892 16.7935 -0.455543 21 27 31
-8.34713 0.857761 14.9346 68 75 76
3.4556 24.7363 -4.11113 139 125 152
6.6647 16.8448 -5.18917 169 172 200
-1.45566 3.39233 -12.4594 176 185 190
10.8549 17.709 -3.20483 38 39 95
12.1253 28.1718 3.13345 1 42 58
28.5842 -1.41537 -3.30227 74 73 91
3.40014 -1.8064 11.4441 74 78 73
-0.558578 1.47149 -12.11 174 179 185
31.1674 -15.7523 -1.80455 69 71 80
7.97811 28.3969 7.01997 40 49 50
-0.374439 6.36591 -12.0255 178 186 196
10.0117 23.1619 7.1434 59 67 60
3.69635 -2.25649 11.4311 75 78 74
-8.99607 -12.9056 10.4514 46 52 44
16.3437 -15.0551 9.5928 13 19 16
-20.1146 1.11711 -5.27176 151 154 155
27.8843 -0.895531 -2.02818 38 39 42
-1.65874 -1.9799 -12.2007 157 168 167
-24.943 -1.50096 -7.00096 139 139 135
14.5009 -5.37781 5.65759 73 77 73
32.8985 -5.8485 1.25193 47 49 54
8.31637 -9.60894 11.0109 57 70 57
-2.43236 -1.1799 -12.3091 180 186 186
-3.17546 15.6791 0.533489 23 28 30
18.1753 1.87802 6.57139 38 34 33
16.0892 11.6285 -11.1439 147 161 167
5.02635 9.67378 9.36831 44 42 39
8.56762 4.93982 -10.0669 189 197 189
-25.3175 0.603222 5.90981 87 68 81
-4.82956 -11.178 11.2946 53 53 48
33.1836 -13.6358 2.01839 14 18 23
-28.4304 4.09481 -3.82779 176 174 178
30.0884 -2.05925 -2.64391 21 23 35
1.14159 28.8266 1.64435 2 38 46
7.47045 32.295 5.89577 3 34 44
5.62773 30.4123 7.35784 33 44 49
15.5434 -11.8421 3.3076 22 28 33
-16.1194 -2.31083 -7.50033 154 129 154
-20.3474 7.05059 -1.45366 94 86 89
-17.3502 5.63213 0.136265 112 96 103
30.1044 -1.87027 -0.612888 33 35 36
25.2708 -7.65552 6.8045 49 50 54
31.1715 -2.71222 -1.8068 25 26 27
-7.26618 6.13593 -9.94423 123 127 123
3.09019 -6.40168 11.9252 61 64 62
11.4013 31.4024 -2.67888 97 126 131
-19.5634 -1.36386 8.48512 78 74 77
28.679 -12.0998 -1.47693 115 133 141
-28.5994 -0.554953 0.959095 23 27 28
-18.4258 7.00967 1.70166 95 80 88
21.1574 0.877568 -3.23415 10 0 13
4.07015 28.0925 6.52857 22 26 35
-24.3782 -14.3138 -1.33627 67 69 91
25.8099 -12.8693 1.93965 14 28 43
4.1737 -3.02116 11.3358 73 76 73
-18.6733 5.78719 -1.51553 174 145 165
18.1881 7.3943 7.17408 82 73 78
26.3281 -5.17217 -3.08749 149 166 179
15.201 2.70477 8.27222 65 73 78
3.47125 -7.03204 11.7656 58 64 61
20.6415 16.1573 -4.18724 116 142 175
22.1999 -1.22442 -4.94866 24 28 37
25.3981 -0.980408 0.872093 22 28 32
-22.8013 1.56758 5.75185 62 65 63
-0.547188 24.2275 2.4379 70 77 77
-17.4441 5.65581 0.935003 110 88 103
12.1263 8.93031 -9.65407 128 134 135
9.06944 18.385 6.0504 70 71 67
-2.00523 3.02493 -12.5835 174 183 186
28.1896 -7.87778 2.4242 5 16 35
2.43252 22.2607 -4.91367 155 167 164
12.1234 18.2939 4.45641 67 71 64
-4.92535 -15.9943 13.4684 46 48 49
-2.70121 -5.31013 -9.13217 99 105 108
-34.4539 -8.68247 0.208355 30 32 34
-1.40263 14.1029 -6.21039 160 170 156
24.4047 -1.83754 1.30761 19 23 33
-5.74924 3.65405 -12.1697 142 152 152
14.3038 7.68661 8.24451 74 69 70
-32.4635 4.62217 3.07822 100 88 96
21.8112 3.75225 -2.22025 19 17 27
22.1761 -2.99714 -4.63519 28 31 37
11.7134 16.1582 5.68412 18 19 21
-4.78006 1.28587 -12.8116 56 59 56
4.94617 11.2667 -7.18367 73 77 75
-15.2281 4.00272 5.06403 82 73 77
17.8629 13.849 -7.64394 215 171 206
12.841 17.2611 4.82611 40 40 39
1.2037 10.4469 -12.5664 60 64 62
28.2675 -9.31991 2.42788 7 21 36
-21.0633 -7.96191 -5.63843 132 142 175
-22.4785 4.25069 5.32264 77 72 72
14.6471 5.51359 8.247 73 71 67
-28.1586 -0.814457 2.72883 36 39 40
-23.2435 -17.6218 -2.26608 94 106 120
-6.0224 10.8884 8.38035 66 69 67
-19.7948 6.45961 1.83613 218 193 196
-3.33694 19.0325 -3.02968 140 152 139
13.8316 27.1729 3.9678 8 31 45
-14.7109 -4.16846 -8.05516 147 160 148
-2.71829 21.2237 0.341934 90 99 93
31.5849 -9.74258 1.90654 21 29 34
-19.4863 1.68919 -5.59409 150 163 157
0.369324 17.656 -6.62269 105 86 98
10.9498 12.5403 -10.8202 90 103 106
33.2448 -5.61474 -0.356686 28 26 37
20.4984 2.08236 -5.89124 56 60 71
16.3898 -6.23992 3.54567 44 42 43
-20.7822 -1.75072 -7.51876 177 166 175
-14.01 3.45441 -0.436741 94 95 87
6.31946 35.6051 0.891197 51 63 70
1.85451 30.6145 -0.322258 60 70 77
-25.3497 -17.9494 3.27043 27 38 41
21.6227 11.9402 6.5933 91 81 90
23.3723 -6.41558 6.53754 33 33 34
-6.73755 -10.1375 8.30636 50 51 46
-4.78922 13.9389 6.31069 65 68 66
15.3297 18.5084 -0.309231 6 8 8
30.4761 -15.681 2.78838 20 23 31
0.0149727 19.5574 -4.54444 54 57 59
16.9311 16.0645 -7.03098 206 165 202
-2.38829 6.01406 -12.4902 185 196 199
4.99964 -9.22378 -10.0464 150 167 178
0.815063 -2.06728 12.7109 64 66 63
-32.6211 -12.8412 -2.2437 93 102 117
15.0033 -15.5887 -8.69115 70 77 76
15.7045 -3.28932 -7.78532 182 182 191
0.488701 23.9792 3.12455 67 71 74
-2.6684 6.45501 13.9645 81 86 83
2.59148 -0.0971394 11.3332 72 73 69
27.4408 -15.4836 -1.86178 145 154 170
9.64014 -15.9992 -9.85138 24 28 31
-32.4212 4.77857 0.145588 100 87 96
5.68941 -10.0094 10.3802 26 48 51
10.3655 9.54116 8.90003 26 27 25
-25.7737 -0.433205 7.4241 79 72 77
-18.0091 6.71607 0.256065 97 94 89
2.56955 12.6572 10.7391 72 70 64
-5.35913 1.98239 14.1632 70 80 89
-14.9187 -0.97393 7.04863 74 73 68
6.00989 1.21982 10.2697 58 61 59
2.51053 -12.004 10.6752 41 44 50
-13.2379 -1.43153 -5.89426 194 183 188
0.799152 -13.5395 12.1889 99 103 102
-11.9097 5.25252 1.42714 82 83 77
12.0306 14.5172 -8.77298 41 46 47
-11.8868 2.27129 9.52015 75 71 72
2.59847 9.70229 -10.5808 102 101 104
8.0513 30.6084 -4.82903 147 167 179
-7.79624 -10.8259 8.05812 55 54 52
16.5965 -3.96986 -6.95486 177 174 185
12.3955 -3.3205 9.76556 71 74 68
5.23571 -6.67127 11.6362 60 64 63
11.8264 -0.463118 10.3113 59 63 61
13.5438 27.5792 -2.57067 26 48 56
-23.1852 -6.37025 -4.44497 47 51 52
-10.5346 6.78045 4.51887 83 84 77
18.4018 5.47294 7.21096 73 76 77
33.4493 -13.3575 -0.471275 24 18 32
24.6594 13.2393 -0.073053 41 63 84
-14.6108 4.29518 -2.96957 100 99 90
14.1401 -14.3853 9.26924 53 58 55
17.5946 15.7689 -6.84859 211 164 203
3.88725 23.4652 7.15031 56 67 71
4.94052 13.6098 6.31025 83 79 74
7.61352 9.52059 9.31056 99 101 91
-3.17948 -1.17793 -12.3963 173 174 176
0.415334 9.01489 -12.3444 190 193 199
26.0479 -4.48353 -3.47821 160 174 188
16.6726 9.95699 -10.9404 219 174 224
-3.91871 13.3214 7.78978 66 67 61
12.3242 -15.6282 9.66591 49 48 46
2.63911 14.6343 9.96684 71 73 67
14.2296 28.2251 0.699352 28 47 54
20.7667 0.312302 -6.53019 10 8 57
-29.8728 -2.33607 3.16257 24 33 35
11.3259 -11.9952 9.74676 54 53 56
26.6999 -14.8548 3.02245 31 40 50
22.7465 -1.89317 5.13851 36 36 37
-22.2754 -10.0269 -5.93986 149 152 169
-0.0416298 11.5266 -13.1879 30 31 31
3.85591 6.86231 -10.7662 160 170 167
14.1237 -5.26541 5.96063 73 77 73
-30.5128 7.09488 0.304178 100 95 97
19.2048 15.1778 -6.26692 204 159 197
-31.7678 -2.34943 -1.25371 25 26 29
15.5461 17.2936 -6.32782 113 107 103
8.1173 3.79235 9.87091 58 61 55
0.496933 14.7971 -9.10408 172 171 168
5.20578 -7.16999 -10.4385 175 185 191
10.0719 8.726 9.07505 71 76 69
22.6004 -1.28118 3.41066 5 1 11
12.2831 11.9636 -9.83998 84 87 102
1.83916 16.2295 9.46365 71 74 69
-26.4321 -2.82 6.85846 94 87 94
15.216 9.20579 -10.9291 171 139 166
-2.37909 16.8295 -4.08821 26 35 35
2.21454 -15.4643 -10.9886 43 44 47
-28.3344 -3.18259 3.88166 21 24 32
22.5767 -14.0042 3.08728 6 12 25
-19.682 -3.46783 9.19893 64 64 58
14.8895 -1.07463 8.56919 76 79 73
24.9333 7.89109 -4.51374 227 187 235
-17.2587 -7.90598 -5.68619 115 119 148
6.90895 31.6965 6.64758 1 23 34
2.81926 9.02174 12.6429 68 71 67
3.74751 -16.0917 -11.2924 140 151 151
8.89119 24.2545 7.09615 42 49 50
26.1817 -14.5444 2.88559 24 33 39
5.94513 21.6707 7.55365 26 37 37
-11.494 5.70838 1.5992 82 83 76
-7.53026 1.89813 12.9025 59 67 63
26.0168 -9.59366 -7.27715 144 154 170
-17.0381 -5.48439 -8.15512 186 165 184
12.1685 16.4834 5.45676 18 18 22
16.2841 13.1029 -10.798 196 178 204
28.3793 -13.002 -1.47338 92 106 114
-4.23038 6.06599 13.5971 59 58 59
-22.3968 6.02631 2.28698 85 83 80
6.81535 33.4075 -0.400627 57 78 97
15.4219 -6.26234 -7.46515 162 171 174
-1.47423 1.86911 -12.3396 177 183 188
7.3484 -12.4472 10.2669 43 55 57
10.9045 -4.5132 -9.61492 168 180 186
-2.23606 0.154688 -12.332 171 178 178
12.8494 20.1109 -3.65835 94 105 122
0.926147 17.793 -6.07695 104 88 97
-22.4739 5.56945 3.22513 99 83 94
-0.927158 11.3629 12.1461 74 70 73
13.7839 14.0959 -9.14627 138 141 133
13.9202 -5.8137 -8.70588 168 173 177
16.2632 -7.99226 -6.80247 173 179 179
14.5561 -16.8324 -9.09122 30 33 41
3.6808 32.8817 -0.680187 68 76 76
14.2489 -9.42548 9.24448 75 76 72
5.21754 -3.74622 10.6096 66 69 68
-24.2048 -10.0382 -5.66901 165 162 184
-14.0615 2.75082 -4.07349 186 173 181
-19.5923 -0.911564 7.86011 90 73 85
15.5872 5.66998 8.03704 72 72 68
-3.15717 -11.0931 10.933 50 55 51
-28.1669 5.37472 1.59146 128 89 120
15.8913 8.74537 -9.35507 153 122 158
3.88436 -7.6453 11.6252 61 65 64
7.71413 12.2638 7.03469 15 13 12
14.8729 17.4002 -4.95943 14 0 2
-33.6417 -13.3861 0.589622 21 17 25
-0.440384 -5.68915 12.5866 81 76 79
-1.58006 17.7319 -4.57845 28 38 41
32.59 -9.60579 -2.79953 54 65 93
4.46269 22.2926 -5.60183 147 163 162
11.3517 14.4183 -8.91369 22 27 29
-25.572 -8.72147 5.68281 48 53 56
26.736 10.0903 1.01648 103 87 97
6.00615 34.6809 2.2837 1 25 36
-4.73595 -9.09451 -9.5858 136 127 133
4.21044 5.94857 -10.841 172 178 178
-16.8702 -1.07093 -5.89145 170 173 167
-14.8236 -13.0498 -4.48608 31 33 34
33.5645 -7.03128 -0.894236 13 15 24
2.18821 30.3656 -1.03264 124 140 144
-2.03152 -15.0216 -9.84872 177 167 189
23.2857 8.9447 -6.66848 216 171 221
-7.25132 3.59584 11.8442 79 70 78
-26.3315 -10.6054 -3.94847 35 38 43
20.7663 -12.7104 3.63719 7 12 30
33.8087 -8.32635 -0.482733 10 8 16
-1.96716 10.0313 10.5 119 109 113
13.2079 15.8279 -6.52566 25 28 32
-22.3363 -1.10747 8.38428 68 72 67
14.3662 21.3794 3.78635 69 74 70
5.94123 10.979 7.798 15 9 14
-26.0044 4.33303 -3.93871 179 165 173
-1.02375 15.2643 -7.47583 111 100 103
-34.2569 -7.33515 -0.00180817 20 19 24
14.5697 -6.99133 5.07762 79 80 77
6.03864 16.6473 5.85503 17 13 16
-23.5037 5.54168 1.29293 106 88 102
21.0841 0.700203 0.992737 4 3 3
-33.8002 -12.8728 0.779395 21 29 29
9.8843 14.9286 6.249 55 55 55
26.7345 -6.82082 -2.11073 120 141 166
2.68981 6.81254 11.0829 71 74 70
