ply
format ascii 1.0
comment Created by Open3D
element vertex 1381
property double x
property double y
property double z
property uchar red
property uchar green
property uchar blue
end_header
1.43188 16.9741 11.4985 57 49 20
-5.14266 6.32724 -11.0974 130 124 89
2.84381 16.2228 26.4062 97 90 68
-1.70898 13.8116 34.8572 56 41 8
6.93246 11.7031 -1.96291 88 97 80
6.69871 14.2487 2.16845 110 70 17
-8.35086 -10.0813 1.24247 61 75 65
4.27985 -12.9932 -7.61198 66 82 73
-3.06109 3.36321 20.5329 73 86 74
4.95037 -0.525978 -12.7535 77 91 79
7.66696 6.43719 10.4552 86 97 81
6.1979 11.3714 15.7487 67 76 66
8.65508 3.73429 10.1931 112 111 87
-0.263165 10.5256 19.798 66 53 28
-6.63311 9.58063 -3.25238 66 76 63
-0.463806 9.88088 34.683 76 91 79
-2.30407 11.5323 30.7087 58 64 52
-4.43848 3.66029 18.6304 60 68 57
8.10972 4.1401 -7.58952 64 76 65
2.0239 17.1141 1.61878 93 60 15
-2.51978 10.1094 32.2242 62 70 57
-2.60861 9.45644 12.8611 64 66 49
7.6459 -21.934 -10.9458 145 139 106
-6.74477 5.42056 2.94003 62 75 64
2.92512 16.3328 0.480947 107 76 45
7.75277 10.3283 8.78614 62 72 65
-7.89255 -8.92994 -42.5399 56 70 54
6.87541 14.6352 3.14094 95 94 69
3.75834 2.20659 -14.5245 121 118 90
-6.67894 -9.52935 -37.7037 61 70 58
-0.355543 11.4765 21.9924 86 64 26
-1.16635 11.1696 14.6059 54 50 30
-0.57814 18.3471 4.20164 59 41 18
-9.28963 -7.06258 -51.2981 105 116 105
2.62245 15.4754 -3.67212 74 40 7
5.63754 15.5025 3.36222 81 59 25
-1.24032 10.4295 15.3167 55 53 32
4.32372 16.1534 3.6901 68 42 14
-2.90349 8.39497 15.6541 55 36 9
-5.37768 10.3538 -6.75094 127 108 69
3.28607 15.2495 12.4524 66 62 41
-0.900635 9.52808 17.8143 53 30 0
-0.757732 13.7794 12.749 67 64 46
7.59691 -21.3237 -10.3544 71 70 44
-8.54059 -25.3969 1.68404 138 165 144
4.78146 7.79157 19.9558 69 81 70
0.16264 14.3153 -6.36066 80 43 4
-5.14182 -8.63657 -38.7095 117 120 98
9.61285 1.60499 12.324 68 75 64
1.4389 -22.7225 -8.50208 76 88 74
5.36525 14.8628 -3.84203 80 76 53
-7.35478 7.29063 -4.8756 66 77 67
6.75507 14.6651 6.4031 72 72 56
-0.988352 11.5136 14.4612 55 48 24
-5.36283 12.4866 -2.64604 112 90 56
-7.91454 1.73672 -7.98827 70 82 69
-0.783245 7.91381 -13.6025 108 71 8
-6.11094 -1.21529 -11.3499 60 72 62
8.94349 6.48172 1.51891 84 98 85
5.23249 14.4877 -1.75635 74 74 54
-7.14395 -11.2241 -39.3123 56 66 59
0.108402 17.2756 10.5118 50 33 0
1.32573 -3.18421 -20.8807 110 122 98
3.27675 -19.2221 -11.0294 127 150 126
-3.92314 -10.5929 -35.7737 71 91 76
-3.32625 -1.55046 -22.8599 94 91 69
3.13654 13.7931 25.8162 64 73 63
3.89278 -17.39 -11.7034 132 150 127
7.4411 7.89609 10.8505 68 79 66
3.60562 -10.2837 -12.1283 164 185 157
2.77136 13.1776 -6.64268 156 131 104
7.64173 6.89569 8.99609 69 80 71
-3.62946 -7.63336 -32.5231 91 87 59
-2.592 13.118 9.71434 66 73 61
-0.949089 9.60765 17.2036 52 43 23
-1.05085 15.7895 27.6713 81 73 40
4.48208 10.3932 19.8972 109 85 42
0.855116 7.48608 -13.6518 145 111 69
-5.00006 -8.48182 -30.2377 72 82 69
-6.22211 -21.8354 3.52469 68 79 71
3.85722 -0.145103 -15.3692 133 141 115
-3.27407 10.684 -9.58169 134 123 83
3.87604 15.2629 -1.45185 84 64 31
1.63113 17.4335 28.5211 79 50 17
8.89939 -7.43805 -9.47515 131 137 122
-0.950928 9.81174 21.4325 61 61 50
2.36173 13.776 30.9935 56 67 57
8.85189 -0.332565 -2.93391 61 71 64
-3.4915 10.8046 -8.95497 82 62 32
-1.00064 1.05915 19.8007 71 82 71
4.23964 15.8071 7.73155 69 64 43
-3.57462 8.54952 11.28 72 84 73
5.55045 15.1495 1.32497 75 71 44
8.29991 5.83841 12.6147 74 81 68
7.20477 -4.86029 -10.1005 145 139 112
0.235035 11.7614 18.1272 60 55 32
-7.43833 -9.16689 -40.97 57 68 55
4.87199 14.5733 9.6173 71 60 36
-3.57405 -28.1354 7.53197 65 73 59
0.192265 8.30409 -13.2617 136 99 46
9.61292 -0.437233 -5.36655 81 95 84
-7.90287 -6.0521 1.21894 64 77 65
0.480946 11.8754 38.4301 65 75 63
-0.333302 18.4774 3.8859 80 53 19
6.45579 -3.27337 -2.52496 57 74 62
-3.21987 7.9641 15.8419 49 36 8
3.862 2.1601 -14.4277 125 122 93
7.49414 3.87005 14.0266 74 86 76
-8.18787 -21.5886 2.69923 74 92 83
4.64357 9.72809 -10.7428 122 95 46
-3.31027 0.279503 -19.1446 76 79 62
-0.421848 16.8058 9.9225 65 60 37
-7.94794 1.8422 -7.00412 64 76 64
-1.46605 15.5143 -4.27976 98 60 10
-1.59305 -2.44935 26.2242 71 82 72
-1.50845 3.01244 -18.2534 117 73 7
-4.48774 -6.71658 -27.8141 68 75 62
-10.425 -6.96989 -50.2202 61 73 62
1.87304 3.9618 -14.8716 150 118 62
0.260736 -4.68207 -23.7289 125 124 92
1.95237 17.1291 31.2603 65 57 36
3.84168 -16.6974 -11.7957 130 148 126
-5.13955 -5.89746 4.34801 77 92 81
-8.45207 -27.2132 8.15419 66 79 68
2.28557 13.4237 22.2854 97 82 31
2.73644 15.1189 30.2504 59 73 64
-8.15577 -10.6934 1.85899 71 85 74
-3.86744 7.72206 -11.8399 126 114 83
7.92048 8.72831 -1.68174 88 107 94
4.77537 14.8626 -1.03768 89 76 46
4.44928 15.0045 9.6846 80 72 40
-4.02512 -4.26821 -24.9841 65 69 58
-6.58068 6.5666 -9.00775 120 128 98
-8.31597 0.267471 -1.27929 60 74 63
1.45702 -22.4995 -8.37323 78 92 77
-8.25894 -26.2953 7.6401 62 74 63
-0.33651 -8.19812 -20.7847 64 76 65
8.24416 2.18776 -9.89226 76 89 77
-3.93508 -8.20972 -34.9467 94 94 67
3.68463 1.71923 -14.883 128 127 90
3.43126 16.2627 7.76877 68 61 39
7.17992 13.8347 7.25653 68 79 68
8.27815 2.62997 2.79078 63 75 65
6.22589 12.4238 11.9765 70 72 59
-0.692421 10.2797 16.737 52 33 3
6.27804 14.7299 5.04685 76 74 54
-7.26135 -18.2553 -0.381958 158 181 160
9.0259 1.05808 -6.76505 107 121 102
-7.79523 -10.5474 -41.5238 55 61 52
-6.77586 9.05357 3.13605 68 75 62
6.24773 14.3681 0.624762 80 87 68
8.89419 10.2747 2.92074 64 77 65
-1.72291 15.7933 32.1108 54 46 27
8.62106 -24.0588 -8.91071 59 70 61
-8.12123 1.59792 -4.82126 76 88 73
5.1853 10.6936 -8.87232 111 83 41
-4.27873 8.25532 -10.528 112 101 73
-1.47479 14.9745 32.7485 71 84 71
-4.75775 9.82722 -7.85486 129 138 99
2.25327 17.4194 5.24054 77 62 29
6.4101 14.0934 0.630284 84 91 81
6.28983 9.58292 -8.8014 110 115 92
3.78736 -19.3312 -11.4466 152 172 145
-3.34996 14.601 3.02027 50 30 0
7.13702 11.1927 -3.02403 59 66 54
2.43121 -11.4821 -8.80816 61 71 63
6.74796 -11.5451 -7.85348 65 80 71
1.86319 17.6897 4.42284 67 51 23
-4.82111 -0.66069 -16.2174 97 100 75
2.79843 16.9585 6.8154 71 66 37
-1.41044 8.77982 -12.8654 126 83 35
-8.72394 -26.4529 2.02692 131 152 131
-4.02057 2.11581 20.0482 68 80 69
5.8018 -17.1766 -9.76644 64 79 69
4.37935 6.9342 18.9028 116 137 118
-5.78001 -25.1351 6.65913 60 69 57
0.274597 4.87436 -15.6119 109 91 59
-2.3888 12.7358 34.9396 57 50 27
-3.33669 14.2276 5.28519 46 27 0
-3.20422 7.9843 15.1462 71 55 26
-6.51294 7.05154 -8.80486 129 133 97
0.819969 10.719 -10.9163 105 73 31
-8.29051 -25.7803 7.11034 64 76 65
-5.28364 -7.06966 -23.3744 71 81 71
4.30836 15.9877 2.66534 82 72 36
-5.25121 -8.76005 -30.1615 81 86 73
-4.08729 -7.15987 -32.5629 102 99 70
0.680705 16.8567 11.5328 54 42 17
-2.08554 7.44212 -13.8853 126 96 39
9.0892 7.63175 3.98357 66 79 68
9.18084 1.70923 -6.18722 100 113 97
1.65855 12.6961 17.3777 62 46 21
-2.63525 11.6613 26.9893 93 79 37
-3.21537 -7.448 27.4319 77 89 77
-7.54594 -10.3248 -40.0294 57 68 61
-7.83937 -5.92166 1.57457 64 77 64
6.83 -4.183 14.7986 69 80 70
4.68007 10.9203 16.3499 67 60 39
-8.22655 2.24029 1.7556 65 81 68
-5.46297 -9.40482 -29.2387 58 69 59
-4.92151 7.43064 -10.3255 125 104 70
1.2303 12.4325 19.7755 58 35 3
-7.35956 -19.27 2.85737 77 91 80
0.93536 6.12411 -14.3101 141 108 56
8.68162 -3.97258 15.051 67 80 69
0.642918 17.6081 10.4172 61 50 29
7.24467 10.6797 -2.17153 78 90 77
-5.52662 3.3766 -12.5843 144 139 110
3.12826 11.9634 32.1421 63 63 52
-0.896228 9.79033 -11.9958 197 139 78
1.81242 15.4988 13.4557 65 53 31
-8.10434 -7.21658 -47.3344 73 80 68
-6.54736 5.39206 5.68993 57 67 59
6.91429 10.9183 12.1163 68 73 59
-5.28243 -19.9136 -0.0121536 112 131 114
-2.52412 10.0498 33.1863 62 68 55
-1.35675 15.5217 28.4689 80 72 54
-2.88631 8.72436 13.4646 64 66 46
0.911436 16.1064 35.055 66 59 40
7.32526 9.42546 12.9124 63 73 63
-6.35062 -25.2653 7.28496 61 68 58
4.50586 15.6278 0.949678 81 52 8
-5.60734 -9.49192 -30.253 68 74 63
0.0458374 16.5911 33.2604 56 37 2
2.10847 -20.9185 -8.11178 56 68 56
6.88073 7.07483 -9.77906 120 139 120
-7.76495 -7.35304 2.23083 64 78 67
6.76939 -5.61323 -10.6436 148 138 93
-0.0383224 14.4727 -6.15297 96 55 7
-4.55878 13.2021 1.57822 56 51 31
2.76401 -1.64404 -17.3721 83 96 87
1.4317 5.57699 21.1352 65 76 66
-6.52978 -9.75439 -35.8792 58 66 55
7.17769 13.7496 2.01372 113 97 57
-1.47526 16.8353 2.87003 56 36 8
-0.951897 11.7331 14.2779 57 54 34
-1.80841 13.4947 36.5985 58 56 37
-5.23646 12.0581 6.1816 63 60 42
-7.10996 -6.47016 3.4832 72 84 73
-3.55295 6.21747 18.8856 58 59 43
-0.681221 9.29251 35.28 70 81 70
4.33722 10.1368 -10.6467 135 119 92
-0.446877 18.3266 4.62046 55 34 12
-0.403313 10.3183 17.3212 53 37 12
5.41335 15.1685 2.4228 72 55 23
3.55808 12.252 24.1198 66 80 69
1.1012 15.0419 -5.03398 113 70 35
0.471031 15.127 -5.0023 107 67 19
-1.61887 16.6889 0.711609 64 38 5
4.66477 15.2577 -2.84473 81 68 52
0.292572 14.5644 -5.91334 116 68 17
-7.73928 7.65946 0.244907 59 63 48
-1.01908 17.2806 5.93966 59 36 6
-5.66661 -26.4065 7.98895 64 72 59
0.125824 11.191 18.8097 61 58 43
-4.15892 10.0857 -8.4863 92 77 39
2.65619 15.0833 30.684 63 76 65
6.841 11.1681 10.0916 66 76 67
-2.315 10.3923 12.8078 61 56 41
3.36549 -19.7813 -11.1433 145 166 140
-4.69902 -27.0059 7.53439 67 79 66
-3.46778 6.86816 15.417 85 80 58
-7.83731 -10.0395 -1.1876 150 179 158
5.64617 15.0854 1.18103 78 75 47
2.47553 13.6107 32.4384 78 88 77
-5.74243 10.0742 -6.88699 133 95 33
5.61561 14.0785 -1.766 67 68 57
-0.0192032 10.0833 -11.5899 141 96 29
-1.8651 13.6939 26.5568 91 54 1
-2.95746 1.19693 22.0079 61 58 42
1.16106 12.6785 17.4814 58 39 9
-7.69863 3.01833 -6.72055 63 75 64
-6.8021 9.27638 -3.89981 66 79 69
8.59641 11.4288 5.34483 69 82 72
2.73873 16.4217 10.8314 64 56 39
-3.83115 13.4506 -3.16595 85 50 3
5.68474 15.4701 4.31963 75 71 46
-0.0271187 15.6744 36.415 61 56 34
3.13677 12.2009 -7.35585 119 84 31
5.2935 10.4646 -9.33791 78 48 9
8.16738 12.7651 4.98037 91 106 97
-4.10477 -5.3111 -26.7198 76 85 72
-4.9017 4.18163 -12.6117 125 115 80
-3.30092 -1.75935 -23.2743 83 78 53
6.31796 11.953 14.3817 71 80 64
-7.88884 5.50428 -2.68027 64 74 60
-3.78815 13.6273 5.5559 52 49 20
3.1518 12.6381 25.8474 98 111 94
6.35416 14.2463 0.755242 83 85 68
3.40509 11.7609 15.8144 69 63 41
7.9099 9.91023 -3.24059 56 61 51
-2.29578 8.56405 17.1907 52 38 14
0.277214 1.99808 -17.8742 159 142 111
-7.744 -4.47643 -0.406464 60 72 62
5.94825 14.3393 -0.151588 105 94 70
-6.80086 7.31078 -8.01879 94 104 86
-8.49361 2.62453 -2.43246 64 75 63
-3.68814 14.1312 1.75903 55 37 5
-1.52052 14.3081 10.0633 56 45 20
-2.36103 15.6385 2.04878 59 33 7
-8.6267 -19.349 1.21088 83 100 87
-5.09601 11.7874 7.6112 57 61 48
3.52908 11.7667 -8.26618 84 55 14
-2.7326 1.65956 -19.3617 138 123 99
-11.3855 -6.70099 -53.3239 139 167 148
-3.24398 7.94817 15.4347 59 46 20
7.21572 14.1376 6.76396 74 75 54
-2.74865 11.555 28.6367 57 53 36
-3.77259 3.31261 -14.6491 94 100 80
6.27579 13.4789 9.55315 71 80 67
9.48662 3.10052 -4.80492 85 101 86
2.69293 16.7934 8.97988 65 58 35
-1.24965 2.82241 20.4146 71 83 72
1.72282 13.1437 21.8678 96 65 29
8.99159 7.07734 -3.98793 85 98 85
2.49314 11.9191 -8.55541 104 64 9
7.835 9.73151 8.72768 59 70 61
7.1726 8.93074 11.1612 79 91 77
5.86269 -12.9613 -11.681 156 153 117
-1.46701 13.9598 11.2006 56 49 26
1.46001 14.6566 14.5934 60 56 34
1.52601 13.1882 -7.41266 84 52 9
-1.17891 16.7494 30.5812 49 34 4
6.23466 -19.8823 -9.75706 57 67 58
1.72792 17.268 0.508406 86 57 21
1.7607 12.4136 19.3662 71 35 13
9.00452 8.47566 2.12894 132 153 134
-8.15453 4.65744 -3.78857 59 76 63
3.81416 15.1805 11.7916 72 72 51
7.47747 -4.42853 15.0772 67 81 69
6.85245 6.30987 -10.767 81 90 77
-7.73513 -2.48113 1.27988 62 73 63
-4.55032 2.19759 -14.4228 135 128 92
-3.26632 7.59901 14.9505 85 82 62
2.89068 16.3197 31.3972 58 65 53
-0.965736 16.0417 33.4501 50 33 5
1.72666 17.9399 5.17049 100 80 43
0.118561 13.8518 23.6375 84 46 4
-3.13765 14.0325 7.12213 48 37 13
-5.72983 -18.8142 -0.339684 126 154 129
2.90539 16.2602 26.6624 73 71 56
-6.91885 -2.41043 3.6248 67 79 68
-7.4034 7.21521 -5.3164 67 78 68
-1.93837 11.7482 26.2343 108 89 46
-1.10387 15.6458 33.6014 55 43 23
-6.82335 6.20628 3.23251 78 92 79
-5.46445 7.4495 -9.64224 132 123 88
0.96085 16.7579 11.8393 52 41 9
8.9446 3.90023 12.1255 63 67 55
-6.05746 -3.88481 -7.1952 104 124 105
2.48412 -11.3014 -9.65831 58 69 59
-7.38002 -1.89354 3.02574 67 81 69
6.58826 2.09764 5.15576 58 73 63
-5.37717 -10.6253 -29.9897 61 71 62
3.52918 11.2534 19.5885 71 70 56
6.00434 -21.3755 -8.41766 60 69 59
-4.26792 -5.89129 -27.9622 61 68 56
5.67792 15.0767 1.44372 74 73 55
-4.98181 12.6511 3.19109 66 59 28
-4.07848 -0.0382614 -16.7572 149 145 111
-8.61233 2.34023 -3.40562 91 101 84
0.641504 18.014 1.20659 90 69 25
-5.52419 -21.2522 2.48207 65 75 67
0.113918 -3.25381 -22.6609 133 116 68
2.17438 -3.08235 -18.8886 75 99 84
8.86103 4.96677 3.2555 67 78 68
-3.55788 -7.30916 25.1391 134 143 125
-8.02186 -19.3477 0.349957 113 139 121
-2.0841 13.3446 34.1115 41 31 9
-7.12663 -19.421 3.09577 72 85 76
-6.79551 7.29296 6.28989 65 77 64
3.7585 2.05178 15.5011 74 88 76
-5.07608 -7.61118 -34.2526 65 69 52
3.96893 16.0542 7.01269 70 47 5
5.78523 4.77003 -13.008 156 144 101
4.64655 0.887817 -13.76 115 131 107
-4.82289 11.082 -6.47055 116 92 51
1.62049 -21.7277 -7.97361 60 72 60
-3.04953 1.05955 22.3256 58 52 33
8.35367 4.32513 13.3063 69 80 71
-5.0584 -6.76205 -24.6478 95 105 87
8.6428 7.48279 -4.8167 80 94 82
7.64216 10.7311 -0.289108 93 110 94
1.9785 -0.756443 -18.2287 101 88 61
-7.91295 1.45913 -8.73797 63 75 62
-1.75486 11.6124 -10.0901 124 76 12
5.77205 15.0088 1.30065 85 87 66
1.62808 17.759 9.18326 63 56 38
-6.79835 4.1201 -10.4499 137 130 90
8.63744 3.91116 1.30044 101 120 103
4.89915 14.094 12.4055 76 68 38
0.511197 12.6944 21.5449 78 42 5
-8.03812 -0.559753 -4.10109 68 84 73
8.9396 6.66446 1.79376 68 79 69
9.65831 2.56662 -3.08751 70 83 72
-3.3461 14.5152 1.89655 65 44 11
2.62868 12.6567 15.8821 66 62 42
8.39522 11.7258 3.37208 66 78 68
-2.85169 14.8435 0.527016 71 47 4
-5.76974 -0.392082 -14.0449 98 114 94
-3.5381 -1.71357 -21.5182 68 71 56
7.27047 -4.79172 15.0965 66 78 67
-5.63026 -27.5279 8.52424 66 76 64
2.09022 10.5434 -10.4333 119 77 33
-1.85809 -5.49258 -27.2021 123 106 70
8.06549 1.03452 -1.61017 59 68 61
-2.15923 9.02368 16.4789 49 37 13
6.93213 8.91685 -8.2925 103 100 81
-0.233475 17.6784 0.00221634 76 46 6
3.2002 7.57764 21.7316 58 68 58
0.310246 17.6463 0.155967 107 71 15
-4.43526 4.64093 -12.8151 122 117 86
9.04778 1.33338 -6.61958 110 123 105
-1.81551 10.2822 25.2509 72 64 37
-1.36584 4.86935 -16.3885 123 77 0
-8.1325 1.03806 -8.32478 82 96 82
9.69338 3.15986 -3.31095 68 82 71
7.84446 3.16708 13.6149 72 85 74
7.82219 9.54885 -1.31596 107 123 104
6.63333 4.81697 -12.34 146 150 126
6.08311 7.89026 -10.8256 121 119 98
7.20301 14.29 5.62693 84 69 37
-2.87136 8.90965 13.0724 61 53 34
-2.68663 15.1504 4.51866 62 60 44
-2.56373 3.16931 15.9199 121 135 119
-0.258097 16.1695 26.6518 83 46 5
7.16667 9.4788 11.4547 93 107 92
6.13248 13.4505 -1.2735 72 82 65
8.63243 10.8599 4.70549 93 112 96
0.8172 16.6178 33.1662 64 57 40
-2.24862 11.8773 31.1709 68 68 51
3.07885 16.2007 10.6981 63 55 33
-6.04318 -19.4831 3.0752 71 83 76
-4.44255 -6.59743 -27.4588 62 68 55
-4.06941 -1.53543 23.6922 63 66 52
2.49963 11.9982 -8.4364 94 56 10
-3.35611 6.02601 15.3145 84 92 76
-2.53545 10.9273 31.599 61 77 68
-3.44413 9.07519 -11.3394 111 91 75
-5.20363 10.7461 8.98912 62 70 58
4.68271 12.9442 14.2694 62 45 6
-1.32569 14.7169 34.8482 77 74 46
1.9339 14.0622 34.8301 63 71 62
-6.89147 -15.0342 -0.618881 154 186 162
6.59239 11.4564 -5.0592 112 125 111
4.26351 16.1112 5.56785 67 66 48
-7.30452 -6.18244 3.30146 69 82 71
-4.37872 -2.59973 25.7559 58 61 46
4.78073 -6.23632 -3.76847 62 83 71
4.7033 15.4193 0.653487 98 53 3
-2.15851 9.8246 26.5163 69 74 57
3.27282 14.7916 28.2275 66 72 61
3.31242 -15.8521 -10.936 73 87 72
6.51887 13.5439 8.7979 82 71 45
-3.90453 -3.73451 27.6549 69 83 66
7.18256 5.87186 -10.1195 92 100 82
-7.41237 -4.6012 -1.67634 59 73 63
-6.74479 -12.8768 -1.11847 174 206 182
-5.54545 -14.1507 2.62846 67 84 75
3.12443 15.5458 -1.34419 87 64 26
9.41957 0.492249 -5.94863 91 105 89
1.54154 -4.02763 -20.41 88 102 88
9.36519 -6.31891 14.0383 68 78 66
8.2296 5.82812 12.176 84 87 69
-2.04802 11.0596 26.2741 92 64 25
-3.76362 -2.67937 -22.612 65 66 56
-4.05691 -4.03475 -23.2072 87 91 72
-2.18584 15.8762 2.17246 56 34 4
-2.01898 3.24171 21.0411 79 91 79
4.89168 15.1966 -3.63066 90 67 32
7.08603 12.4443 9.29525 76 81 69
4.40487 3.72676 15.5353 75 89 78
1.22937 -2.92873 -20.9592 123 128 104
-5.14863 10.9714 8.85879 62 72 62
-5.60467 -21.4869 2.72728 66 75 68
3.46361 15.8208 -0.0941639 86 78 55
3.90398 11.9996 15.4281 66 55 30
-3.1453 4.89793 20.0467 72 84 72
2.2109 -1.5965 -18.5832 95 92 67
4.19774 16.1299 5.06037 92 81 60
6.9043 13.2003 0.324019 92 97 73
5.87834 -5.71919 -10.9171 166 167 127
1.09326 8.74146 -12.6197 125 85 37
6.77743 10.7936 13.9189 70 80 72
3.52188 12.9686 24.5006 65 75 65
-8.60488 -10.7245 0.43259 64 77 70
4.16745 15.8674 1.19733 88 53 8
3.42149 15.7758 11.201 66 49 23
-2.83289 14.6147 -1.77766 71 50 8
5.03782 9.81594 18.3296 71 77 65
3.22096 14.9615 28.5903 64 74 62
-1.88496 1.90613 21.6104 70 84 73
-1.8105 14.415 -6.13414 121 103 77
-7.30699 -27.7972 8.96745 69 81 70
-8.32736 0.343323 -7.1757 67 78 66
1.93035 17.2096 1.62386 87 54 11
-1.51386 -4.30836 26.6044 71 80 70
-5.19001 2.07607 -13.7903 127 128 90
7.9016 9.29978 -1.30423 117 135 115
6.26939 14.4066 0.881472 79 77 60
8.60046 11.0894 2.2879 92 107 90
3.3823 16.0193 0.699821 80 54 19
-3.66736 3.12779 17.2905 82 88 73
-5.00096 9.14208 -8.32841 120 113 79
-5.39703 -15.2043 2.62348 63 77 68
-1.5063 16.4935 30.215 57 38 14
-9.62789 -26.8722 7.54224 67 79 68
5.44713 15.1768 5.27917 72 71 47
-6.26634 10.0338 3.78989 64 68 54
8.25362 6.92973 7.17587 60 71 61
-7.026 8.91067 -1.02229 59 61 45
-6.26067 10.1891 3.27317 64 62 46
2.83821 12.2183 16.3024 68 71 53
5.22559 11.9313 15.6382 66 59 33
-0.97374 11.107 14.9479 57 45 26
-3.76723 -7.73012 -33.0264 100 97 69
1.68083 14.1171 -6.05367 114 70 5
7.44269 9.20967 9.24779 63 74 65
-5.66222 -8.28703 -38.6925 92 96 79
-5.07596 -4.43775 -19.0809 73 83 69
-5.32807 -6.93192 25.4213 118 115 81
-2.88746 3.72287 15.8441 105 125 102
-6.95048 -14.4417 -0.894241 165 197 172
-5.44081 -9.02049 -31.5882 62 69 57
-3.25878 -1.74854 -23.5639 86 75 48
7.94278 -0.800667 14.6373 66 77 66
-7.39557 -14.7444 -0.457207 131 158 139
-1.42236 14.0345 -7.13446 99 58 6
-8.59167 -0.548416 -2.84502 82 97 81
8.76631 4.37106 2.87206 64 76 66
-5.4935 8.18156 -8.82063 179 152 108
8.73338 -5.15226 -8.89633 103 114 92
9.15878 7.45395 2.83613 65 77 66
5.06117 15.1368 -3.25573 82 73 48
5.47471 15.1077 2.28916 140 130 94
3.03016 8.83704 -11.6516 130 99 49
-6.56164 5.99096 6.5048 55 66 56
-7.64945 6.2775 1.24407 72 85 71
-0.968302 3.77448 -17.2734 142 95 41
-3.70039 -1.86656 -20.4422 74 77 58
9.13056 -0.102707 -3.12499 63 72 64
3.98658 15.735 0.752542 89 53 6
3.27567 11.3109 31.186 63 66 54
-1.40841 9.83916 23.4869 63 67 54
1.05108 18.451 4.28972 75 55 18
-5.93964 0.143257 3.51173 69 82 71
-10.2103 -6.10073 -50.8469 58 62 55
-4.33184 0.0884018 -16.3494 129 122 90
3.08519 15.4474 25.7186 95 80 53
4.5165 14.6861 11.0591 71 68 47
-3.58696 -3.95053 24.8619 136 161 134
8.94763 5.13812 -6.20254 83 99 82
-7.97015 -8.94952 -48.2511 93 109 92
-8.45741 3.63966 0.710928 64 75 63
-6.37119 -10.9959 -1.49981 184 216 193
-2.91024 11.3861 27.7743 60 60 46
-0.526604 13.4144 24.7976 75 82 71
-1.23583 2.37557 -18.8219 118 81 11
5.75557 10.9424 -7.73015 117 106 76
1.0173 -5.1107 -21.5218 73 86 73
-1.35283 8.55527 19.8072 54 44 23
4.37553 -7.23371 -11.6579 156 172 142
6.06628 14.7261 1.08237 72 74 57
-3.02913 -1.02668 -22.4699 68 66 48
-5.26588 -7.38276 -23.3237 61 73 64
6.11247 -19.5484 -9.79729 63 75 65
-6.85829 -9.20684 -38.8526 59 65 55
-1.43156 8.62169 18.9259 61 54 32
-1.87106 14.4102 27.7014 69 50 19
-4.28683 10.2979 -7.92318 123 98 66
8.91586 9.59458 5.73714 67 81 70
-1.98921 12.4433 27.9987 64 73 62
6.2647 14.3097 1.72512 75 76 56
0.664566 17.3962 10.8105 58 43 17
-3.2984 10.3415 -9.90545 102 81 43
5.23329 15.8068 3.69538 96 79 51
-5.3586 -24.7554 5.63869 59 66 54
0.411135 16.9144 11.23 57 41 14
8.3264 5.29133 11.8125 99 98 76
-2.87994 -3.73912 27.7948 75 86 75
-1.93088 -6.22701 27.626 73 88 77
-7.58352 2.17974 -9.66772 97 112 96
4.35982 8.86188 21.3206 67 79 68
-1.64778 -0.94001 -22.4783 127 101 45
-5.14323 -5.76931 -21.3871 65 79 67
-4.93893 -7.48743 -31.1689 62 70 62
-0.926628 14.2997 25.7945 88 70 33
-2.90314 13.7833 -4.45818 79 53 7
-8.26407 -7.16597 -46.6702 61 68 57
-8.16508 -24.0182 4.54548 68 82 71
-3.84253 0.156906 -16.7698 136 135 107
-6.45699 -18.5271 3.1244 78 92 81
-1.09055 17.1741 6.30949 54 36 4
-4.09964 -3.26767 -21.6236 87 90 68
6.91794 7.30947 -9.66124 121 140 119
-2.01789 12.6061 27.728 66 81 70
1.89658 17.6188 8.56319 67 56 37
3.63351 16.3162 5.68807 62 39 12
-3.82702 -7.91276 25.1327 129 139 115
-1.16867 4.01223 -17.0854 145 121 71
7.06253 14.1327 5.22156 105 104 78
5.92229 14.6778 0.378286 98 82 50
-0.847094 -4.83305 -25.4059 120 103 56
1.8647 15.7633 -3.16985 79 50 9
7.42643 14.0564 6.16201 71 70 53
0.686556 -2.61195 -21.4261 103 94 56
8.4573 2.23989 9.86499 146 162 136
-1.99159 14.0147 27.3219 68 58 27
-0.25024 3.76197 -16.9528 135 101 61
1.24119 7.87618 -13.1401 147 120 61
-2.70096 13.3926 9.21175 49 41 19
-3.75935 -9.16166 -36.5284 88 102 86
5.4485 15.5792 4.35144 85 76 49
-5.16534 12.7571 0.863831 56 59 39
-3.42339 7.65918 -12.6499 116 108 83
4.62754 15.5225 0.788226 89 53 6
7.1078 -3.61846 14.9076 70 85 75
-1.56492 14.9711 28.4621 60 53 32
-2.02201 10.171 33.7357 66 80 68
-5.28506 -3.74603 -12.7854 58 72 60
-3.11369 -9.67352 -34.5682 73 89 73
-7.52834 7.69831 0.581932 65 65 51
-7.33785 1.39153 2.68128 70 83 70
7.62038 4.02142 5.85151 58 70 61
-1.61351 -2.67293 -24.2703 102 87 45
-5.87383 -1.3762 -13.2822 90 107 92
-7.95907 3.72756 1.75842 69 82 70
3.24218 14.6997 25.3707 81 89 75
7.40524 8.89921 13.5798 61 69 60
-6.39532 2.30303 -11.5626 93 102 84
5.5676 -4.43123 -2.7199 55 76 64
-2.65055 11.2644 -9.76404 134 111 75
-8.88832 -23.8912 2.90232 85 103 89
3.90211 15.6817 9.13377 72 72 48
-2.01941 6.37714 -14.8784 138 94 43
0.365692 -6.10051 -17.4327 71 84 73
0.293949 12.2131 17.2786 46 27 1
3.88927 10.7294 19.7568 98 65 25
-5.07757 -7.45351 -33.0335 68 71 57
-8.1464 4.07797 -2.40026 62 75 63
-7.47598 -23.2252 4.32924 62 75 66
-3.79334 14.1019 0.23674 62 39 7
5.0233 12.6803 14.8095 64 51 25
-5.81953 11.0397 -5.4828 90 63 21
-5.08627 12.2449 6.84842 56 54 32
8.24018 11.5346 4.10052 62 74 65
-6.6004 10.0087 -1.97674 69 78 66
2.5989 14.0008 29.5227 63 72 64
-1.70309 3.96361 20.9123 81 97 85
9.01227 -5.80582 14.7867 75 85 74
-0.464684 16.3288 10.4854 53 38 13
-7.16163 6.87315 -7.4925 88 98 83
-0.746899 -8.70282 -22.6156 60 73 61
3.31328 15.9911 0.315459 78 63 33
-4.51669 12.7431 -3.68891 96 70 19
-8.61252 -8.99237 -49.231 100 121 106
-1.9107 0.597792 17.3146 125 150 127
9.0952 8.60559 3.68091 71 83 74
3.50613 15.3811 11.9729 66 65 49
6.87997 8.90054 -8.45747 85 89 72
-2.87172 -5.17236 -28.2591 118 107 70
-2.39371 12.5352 32.384 54 48 23
4.19096 16.1044 2.92668 67 48 6
-2.55828 11.4648 -9.67264 126 95 53
1.32731 5.19732 -14.5138 138 114 73
-2.40982 13.0314 34.3898 44 34 12
-7.79831 7.85822 -0.46563 62 57 40
3.18559 11.7279 32.086 64 66 55
-8.43238 2.9899 1.14178 64 78 66
-10.6991 -5.82951 -52.0219 57 71 60
3.32361 1.27419 15.2842 74 86 75
-4.10532 13.7504 1.44782 51 40 10
3.118 11.7526 31.07 69 70 55
-8.2186 3.52817 1.41766 64 79 66
-0.343837 18.0253 0.651126 76 46 10
8.00997 1.63498 13.5839 71 83 72
-1.88119 -5.42371 27.6283 73 85 73
8.74354 4.41869 3.35824 66 77 68
2.36095 17.2314 4.50399 64 54 30
-2.56789 0.00350952 24.7456 61 58 42
-2.5006 12.1417 27.8643 56 56 41
-3.0904 8.67945 -12.2216 140 116 82
8.23369 -1.25771 -2.75755 66 78 68
-8.66426 1.23055 -2.36581 63 76 65
-3.485 -1.35532 26.2397 59 51 39
9.00986 -1.50635 -3.61038 63 76 65
0.878586 6.28937 -14.2923 145 105 51
2.77642 12.5163 15.7233 66 63 48
-5.66384 11.1584 -5.31978 92 77 50
-5.96115 -21.7823 3.27867 63 75 65
-8.17945 3.28393 -1.80529 65 78 67
7.58732 -2.00019 15.055 69 81 69
-6.82294 8.76155 4.2172 65 72 58
8.71274 4.00793 2.69853 66 78 68
4.92925 14.5071 9.85598 74 66 41
8.60733 -0.596672 -7.8863 124 144 125
9.31068 -6.27203 14.2855 70 80 67
-0.921677 10.7007 22.824 88 61 27
8.70226 -5.96737 12.9562 147 160 131
-5.01219 -3.35744 -17.9005 78 85 70
-2.51118 1.7454 -19.4853 143 112 72
7.29428 11.8291 9.31128 66 78 68
7.45572 13.9743 2.98823 74 85 75
4.24659 14.7186 11.8289 68 58 35
-7.77367 -22.1938 0.789749 121 142 124
4.67085 13.2672 13.9156 68 49 12
7.12807 10.2791 11.5618 103 110 90
-3.62649 12.8693 -4.66207 89 61 3
2.74413 -19.3417 -9.08892 58 70 60
-7.43595 3.24034 -9.68044 61 72 64
6.02805 11.2854 -6.64718 102 106 85
6.01535 12.4076 14.3189 68 76 64
5.99701 -5.03367 -10.7711 159 160 122
-0.597702 10.3107 16.9148 52 35 7
-4.23757 3.79174 18.024 88 88 63
2.17849 14.1284 34.373 61 68 56
7.31182 1.94023 13.9647 71 83 72
-2.16243 0.491386 -21.1157 128 100 47
-3.25268 9.31654 -11.3757 129 114 77
6.56502 13.3219 9.35376 64 80 61
4.77548 -17.3157 -8.90358 66 80 67
3.27263 15.9823 0.0566607 71 57 33
-3.17176 -7.45449 -31.2539 99 90 58
-5.6317 -25.0033 6.36425 61 70 58
2.11462 17.3997 4.26395 81 66 34
1.72593 16.0893 32.9772 61 54 36
6.13019 -19.5602 -11.1655 157 160 127
-0.536852 6.07893 -15.2542 151 120 77
8.79184 -2.65906 -3.85702 66 81 70
4.83157 13.9306 13.0153 68 58 41
8.07514 13.103 5.34197 83 92 77
-7.40216 -7.51901 -45.2522 61 71 59
6.91875 12.6737 -0.513139 101 102 80
-1.87646 -0.416588 -21.9694 127 94 44
2.123 11.4564 -9.38024 94 70 42
-4.00631 13.3524 5.49075 50 46 28
-2.01836 9.10233 35.0432 63 69 56
0.752605 16.5709 33.3262 62 52 34
-1.72179 10.8708 13.8405 59 61 54
-6.82445 9.17596 0.307515 61 62 50
-6.68245 7.08584 5.61489 68 79 67
-7.15095 7.77609 -3.49125 72 83 71
-7.63362 6.54198 -2.43384 77 89 74
-10.8307 -27.9144 5.59 101 113 104
7.91018 -9.32681 11.9367 116 97 56
2.52244 17.0202 2.32847 69 47 6
-7.54937 -21.8537 0.435112 147 174 152
1.19503 16.6405 12.0551 57 39 9
-6.77128 5.69866 2.83882 60 74 63
8.95956 5.60232 -4.55807 83 97 85
7.14859 12.8393 8.76974 69 72 55
-8.33767 -10.464 1.56198 72 86 75
-2.19522 14.8844 -3.93569 92 63 10
-8.13712 -7.37057 1.23054 62 76 67
2.99779 15.6169 25.7031 98 75 41
-1.10343 15.5377 9.10861 58 58 38
-1.86762 14.6446 -5.39685 99 72 27
-4.05607 5.55039 17.9805 73 81 69
3.51474 -19.0146 -8.26235 65 80 71
-1.70102 -1.06003 25.3845 63 74 65
-1.35902 10.4266 24.3131 78 56 18
-3.37474 2.53719 -16.8677 93 89 63
-2.25027 15.3263 -2.31538 66 42 5
3.71554 -21.9 -6.67324 59 71 60
-4.83603 -8.24821 -36.8894 95 95 75
7.26903 -12.465 -9.14474 64 75 65
-5.11468 0.0876694 -15.2383 108 110 84
7.6857 12.8631 7.33632 67 77 68
-0.766167 16.7857 31.7919 50 38 16
-2.09162 10.1287 14.0261 55 46 24
-3.77081 14.0389 1.64803 54 36 3
-8.75157 -23.5116 2.96844 65 77 68
4.33564 15.1021 9.55574 66 60 37
-8.09116 -8.30338 1.4118 71 86 75
-5.56123 -2.32141 -14.1105 74 89 73
2.60036 13.9874 23.2241 121 89 31
4.88303 15.8639 4.55642 97 96 70
9.33266 2.99443 -2.28874 61 72 63
1.62796 2.59605 -15.9208 169 141 91
-4.95184 -5.66931 -19.4097 61 71 60
-6.27172 -9.87239 -34.4687 57 63 53
6.3643 12.1234 -4.34947 64 73 58
0.601248 4.61451 -15.28 117 106 73
-3.36545 3.67915 -15.6987 104 100 80
-2.93159 -1.98944 -24.315 139 120 79
-8.60682 1.80289 -3.68058 87 99 85
-6.01748 -28.9927 9.00525 65 83 71
-5.57482 -10.7869 -31.2501 58 70 59
-0.893524 17.7743 4.36882 56 38 7
4.99359 15.8303 4.4044 84 83 58
-8.24962 3.14705 -4.64775 86 99 85
2.51539 -1.73582 -18.0412 103 104 82
-3.97141 -5.19782 -28.4566 84 84 67
-7.57416 -3.02367 2.3521 59 70 60
5.76316 8.30865 16.1883 65 77 67
-0.685547 11.9234 23.9363 72 64 41
-1.42057 13.2822 -8.2981 108 66 19
6.17546 13.0958 10.2679 68 64 49
2.38527 12.5819 20.5028 67 39 6
1.85663 -22.803 -6.51809 54 67 59
-6.76085 -8.68287 -1.5741 146 176 155
3.64729 16.3537 2.33323 64 44 9
5.83558 15.0385 7.07007 73 62 37
-3.64547 13.9463 -2.00571 79 44 5
-5.26003 -9.12187 -26.6735 58 75 64
1.2052 12.8611 37.2417 64 74 60
2.38035 13.9225 -6.12381 117 69 20
2.8966 13.0628 14.8207 66 68 57
1.20155 14.8395 14.3189 62 47 28
5.01772 14.2293 -4.85959 137 112 62
3.21297 14.3305 28.1329 68 74 64
-1.64398 14.761 -5.50233 112 82 28
4.26007 -3.49806 -11.3316 162 186 161
-8.28595 0.385384 -3.79599 85 100 82
2.57122 -7.78785 -12.3214 177 204 173
-0.658157 -1.54401 -21.8379 115 97 49
2.63701 15.5286 32.1912 57 65 59
-7.87347 -10.3416 -41.6583 55 65 56
8.17144 1.11335 -1.66685 60 69 62
-1.69335 8.78183 -12.8252 127 85 32
-5.22095 -8.31087 -37.8961 82 87 70
-1.95515 15.9432 31.3642 50 38 18
0.322838 -6.38155 -16.7145 66 78 68
-6.34767 10.4101 2.61104 63 63 50
7.08143 11.0143 -4.83212 73 69 51
0.589027 6.53549 -14.3836 140 103 47
7.27019 9.05777 13.7365 61 71 63
-1.73951 10.4232 14.5625 57 49 31
-4.64096 -6.73289 -30.1957 60 67 58
5.14207 1.91866 14.8872 75 89 78
0.0985641 18.4816 7.04185 57 40 22
7.98586 3.42764 4.09998 62 73 64
-1.66488 16.0118 -1.37159 70 46 13
5.61728 11.9656 -6.44912 110 94 61
-4.83304 12.9577 3.19946 55 38 14
-6.48977 3.9367 4.50263 67 80 68
8.70559 10.8324 2.32291 148 164 149
0.110966 16.1119 26.3248 82 51 10
6.27395 11.8188 15.0338 67 76 65
2.43005 -11.0688 -9.93291 59 71 62
6.76438 -20.4716 -9.99296 62 67 58
1.42074 8.22125 -12.8386 142 101 57
6.71104 13.1469 9.29894 69 77 60
8.51114 0.364086 10.0941 149 164 137
3.6803 11.4623 -8.87769 87 50 5
-6.77482 5.37274 -9.87496 139 134 97
6.98774 11.3151 -4.00015 84 86 76
-7.98418 4.91382 -4.83757 85 102 86
5.03478 8.0066 19.6556 68 79 69
5.01395 1.26729 14.9138 74 89 75
2.96804 11.9937 -8.01377 78 46 14
-3.47422 0.695004 -17.8782 69 74 66
-7.3204 -4.60663 3.4906 69 83 71
-7.62532 7.86389 -1.71568 85 91 73
4.7737 15.4876 0.897722 88 52 1
8.41545 -2.62876 14.9839 66 76 65
-5.3323 9.35471 -7.69856 123 98 61
-0.675098 2.2339 19.126 73 85 74
6.51369 -2.25467 14.5525 56 67 57
-5.03082 1.83022 -14.1212 126 125 92
-2.03582 14.6715 -5.10318 96 72 29
-8.05367 -20.5067 0.475082 120 143 127
3.39813 11.5826 27.0396 64 70 60
0.0697708 16.0587 -3.5548 76 41 2
8.64682 -0.638756 -2.87404 62 75 64
-5.81605 -22.6368 3.37187 63 69 62
-5.32917 -11.8251 2.27947 71 82 76
-3.26931 0.0808182 24.3161 45 34 9
-4.27431 13.6619 3.16761 70 66 45
-7.99459 7.18793 -0.58004 73 87 72
3.70552 -15.3948 -11.7772 106 127 106
8.28899 4.66778 10.4844 90 90 70
7.40047 1.47395 14.028 71 83 72
9.3364 -1.71678 -4.16498 62 74 65
3.43968 11.7021 20.1546 103 88 49
-1.41425 9.43204 22.4831 85 63 31
-5.75571 -8.39785 -40.4539 66 71 58
7.80359 4.53865 -10.0815 77 80 65
-2.54655 12.1897 -8.84781 91 72 26
9.35998 -5.20738 -6.85748 65 77 67
0.24633 14.6424 13.7443 63 57 35
7.0868 9.63193 11.2934 105 120 102
-4.75689 -4.57514 -21.6934 87 95 76
-4.70774 -3.7734 -20.2287 81 78 60
3.39229 16.1788 1.21079 88 50 5
1.4697 16.1097 -2.44536 89 58 12
-3.46471 1.49837 -17.4697 88 96 76
-7.97351 -1.91396 -4.5101 59 73 63
-4.00166 13.8897 4.25861 47 26 0
-6.02112 9.99813 7.30937 63 75 64
4.07804 16.1276 2.01281 80 57 21
6.56368 11.4482 11.18 101 116 104
9.20301 4.58588 -4.78117 75 88 75
9.22178 -5.53157 -7.81926 74 87 76
-0.767559 12.7813 13.7012 64 57 39
-6.71355 -9.8191 -37.0397 59 68 55
0.0843029 -6.20287 -25.3857 108 113 92
-5.77882 7.01344 -9.66795 110 103 75
5.5389 8.9967 17.8442 67 81 70
-2.65604 -28.4327 7.04655 61 67 53
3.0211 9.29169 -11.2741 135 93 51
6.37617 14.8423 6.59219 79 81 62
-0.289452 6.29688 -15.0095 131 91 34
2.34527 -2.28019 -18.6635 92 109 91
-1.55327 8.49676 18.7019 55 43 21
3.78741 9.41372 23.5516 67 78 67
-7.33001 5.90833 -7.28115 86 97 80
-0.28455 17.7633 8.47472 58 40 7
-4.18352 -3.5685 4.51688 59 73 63
-8.02361 4.56563 -4.99614 88 104 87
-2.48336 -2.56744 -25.0368 131 117 78
7.29791 -8.6759 -10.9611 154 145 109
9.58352 -3.43435 -5.624 63 76 66
3.54148 1.72535 15.4802 74 88 77
5.58187 14.0655 9.256 77 67 48
8.42293 7.81872 -5.66734 63 77 64
4.06548 -16.7577 -11.9353 154 172 149
4.84677 16.0038 3.73612 64 58 28
0.868647 14.7642 -5.53677 108 66 32
2.50444 17.1434 4.97302 73 57 24
8.09988 2.37994 -1.12952 62 73 64
-3.86097 -8.70763 -36.0723 91 99 77
-6.71693 9.16237 3.38328 63 73 59
2.59145 17.1111 7.11439 64 51 23
-5.17989 -17.5094 1.89758 65 77 68
-1.11457 15.4204 36.3037 43 29 11
0.91666 17.4978 29.0178 77 43 10
2.44495 17.2369 5.23419 71 60 31
-6.58452 -8.54018 -45.5132 91 104 90
-4.30952 0.561637 -15.9887 146 134 101
3.66092 16.4998 4.19376 70 54 28
-3.02686 3.23 16.3214 93 110 90
-10.2422 -27.485 7.5476 69 84 73
-7.91809 5.88319 -4.84583 84 92 74
-1.8662 13.4875 36.112 55 40 14
3.06704 12.2292 20.5867 66 45 6
-7.19187 -26.9605 8.50943 70 84 75
-7.7176 -12.383 -1.00546 158 189 166
-1.08145 16.0094 34.4069 47 33 19
-0.651436 -4.22257 -24.5137 118 101 55
-5.24631 -9.83157 2.67863 71 81 75
-2.48871 11.2506 31.036 67 63 45
-0.49351 16.1175 10.7254 64 56 34
-5.32524 -5.8821 25.6792 127 123 92
-3.5473 -1.20772 -20.0169 66 69 56
-5.22649 12.2868 3.09574 82 89 73
8.4535 -23.9176 -10.6767 120 135 119
3.88552 16.2508 2.3 69 50 19
-10.8218 -7.37296 -50.3611 60 73 62
6.90899 6.66819 -9.93713 109 125 107
6.08554 -1.89035 13.9723 53 62 55
4.89582 5.69884 -13.2101 152 137 92
8.3688 2.91331 -9.70235 83 97 87
-0.508221 12.1566 14.6155 60 60 44
5.90284 14.2306 -3.14218 58 72 56
1.84722 11.5996 -9.48745 85 59 18
-5.3876 -5.9042 4.33722 78 93 83
6.04918 14.914 5.83086 96 62 11
6.16577 12.3107 -4.3232 88 100 84
-4.19532 10.3971 -7.90615 129 112 79
-6.28981 -25.1179 1.38081 151 179 159
-1.73599 -7.26018 -8.07035 72 86 76
1.41338 16.5584 -1.00824 97 72 37
-4.57555 -24.8363 3.80156 66 81 68
4.33677 14.9254 -4.45766 117 66 9
-4.8345 -7.54265 -27.8904 81 83 66
6.6563 14.4928 4.697 71 77 64
8.44111 4.6181 13.123 65 76 67
2.80347 13.4526 29.2163 63 71 61
-3.83492 0.846886 18.9037 78 93 77
2.61646 14.1348 30.2402 66 78 67
-3.36484 5.97649 -14.0487 139 122 75
1.69327 17.7675 8.4956 71 62 45
1.17828 17.8058 1.52479 77 53 5
1.25809 15.0051 24.375 109 77 33
7.60781 6.21384 9.03696 66 78 65
8.14497 6.56521 12.7864 69 77 64
-5.93762 -24.3896 5.68455 61 70 60
2.90761 13.0338 27.1402 64 75 65
-5.05776 -5.2067 -18.521 62 72 62
1.6235 15.5911 13.4087 65 49 23
-6.54375 -20.6022 -0.446381 175 205 182
-3.69795 8.85301 -11.0126 101 94 71
1.23506 18.0066 3.14818 91 72 43
7.98424 13.2285 5.3362 93 96 76
-3.68496 -0.756546 -18.0327 99 96 66
-3.48656 -9.62012 -35.5931 92 111 93
-2.04266 15.6417 30.7872 73 84 69
4.29837 16.0764 4.9143 83 71 53
-0.0211411 14.9801 -5.42606 80 45 3
-4.76694 6.04457 -11.6664 131 117 97
-6.07744 -9.78262 -33.5987 57 64 54
4.68753 0.380177 -13.6376 103 118 102
7.41818 11.0835 -0.826536 106 123 107
5.75851 -25.1563 -6.99998 60 75 61
0.523006 12.9877 37.8671 63 72 63
7.11238 -0.569099 9.80965 162 184 161
1.59177 12.2863 -8.54219 101 62 15
-1.17876 17.2659 2.50655 56 34 4
2.40006 15.0954 33.0091 51 66 57
-7.79968 -2.12728 0.936356 60 71 61
-7.96904 -0.596046 0.500042 66 79 68
-7.73633 -20.0386 2.78124 78 92 81
-1.86288 15.0807 7.58765 53 41 14
-6.24036 9.9775 5.3469 63 68 53
-0.917735 14.6599 11.5473 62 48 26
8.44819 6.63296 -1.50179 60 74 64
-2.21304 7.38062 -13.8852 131 102 52
-1.71699 13.1317 29.9389 64 62 51
-8.02357 5.20467 -4.56376 86 99 83
1.57281 8.87925 -12.2813 151 123 71
-5.76271 -20.5607 2.92134 65 76 69
-4.57711 10.9768 9.43811 66 76 62
0.123489 15.5618 25.5546 102 56 7
-2.4003 14.7853 -3.53179 74 53 18
-5.44058 -24.1076 4.51522 58 62 59
-3.22642 2.17952 20.8459 73 83 70
-1.1261 16.5454 31.7277 53 41 16
6.03885 -15.7407 -11.2356 107 125 108
-1.28426 9.17097 35.3764 67 74 61
7.71166 6.6017 10.9633 78 85 70
9.04184 -0.642002 -7.22909 120 136 116
-2.10099 8.87225 16.9456 48 34 7
-5.28803 -8.25149 -32.3051 60 67 55
-6.8811 -8.18648 -46.0626 80 92 79
6.53503 1.94639 7.99921 85 99 86
-6.48744 -26.1295 8.33927 61 72 61
-6.98225 6.93701 -7.87344 112 120 101
-0.0481606 15.4188 -4.73394 98 53 8
-6.74069 -28.4539 9.31759 73 90 79
-6.82987 0.603828 3.08014 69 81 70
-1.84484 12.6826 26.1814 100 70 20
2.79273 -8.86595 -12.2626 178 204 176
-7.73159 6.11002 -2.77485 67 77 65
-8.67506 2.19013 -2.88676 64 76 63
-0.112648 4.7448 -16.0691 143 114 71
3.52866 16.4395 2.21106 72 48 6
3.60645 15.8864 0.673423 82 50 14
-2.99217 10.0405 11.5697 61 71 61
-0.618641 14.6325 -6.08386 95 56 4
5.57022 -11.5734 -7.33105 66 80 72
6.9812 11.4499 -3.58562 65 71 56
9.32003 5.98326 -2.21792 63 72 63
-2.38603 -5.55295 -28.0355 115 103 64
-4.25702 -5.99662 -29.6119 64 63 48
3.19723 16.6416 2.24801 72 59 19
-3.22796 14.0263 -2.38608 85 56 8
4.2367 11.927 15.5213 62 50 17
-2.08403 12.3654 28.261 69 73 60
-7.81351 -10.2668 -41.0354 58 68 59
-1.56967 4.66032 -16.5768 127 73 12
-8.09379 -0.0572929 2.10965 64 77 66
-0.741736 11.756 24.2092 65 62 44
-0.537018 -1.97355 -22.0522 114 92 35
6.105 7.51089 -11.1325 108 98 76
0.434887 -6.27893 -24.2874 83 95 80
-2.05206 16.024 2.47269 55 34 4
-1.9521 11.6576 -9.92626 118 71 4
4.22128 -16.4537 -12.0592 161 183 157
-4.51436 -5.07979 -23.3344 92 88 64
-8.0819 3.0139 -5.05839 84 101 85
-2.59287 15.3417 2.12966 56 34 3
-2.55822 8.02896 17.4766 54 50 33
-4.19711 -7.25046 -32.8421 112 109 80
6.6843 -5.4511 -10.6265 144 135 92
-0.842837 12.1768 -9.66899 125 84 32
-10.1303 -7.10014 -49.478 53 62 53
-5.03552 11.6051 8.32524 51 49 30
-1.95282 2.20269 16.1538 124 138 117
8.40771 3.05905 -9.14142 64 77 66
7.25232 10.8431 -4.97955 86 77 53
-6.7692 8.90131 4.30518 66 72 57
-1.9566 3.94962 20.8931 79 93 83
-1.80633 5.34423 -15.9016 170 142 92
-1.34909 15.4209 28.199 72 66 41
-5.62395 -19.9491 2.70525 59 74 65
2.61743 12.6078 33.7868 65 71 63
2.84138 -12.5483 -9.16493 57 68 57
-6.32494 10.1746 -6.27441 118 118 88
-3.98151 12.7456 -4.47231 102 65 6
1.61681 17.6916 2.453 78 45 8
-2.41143 15.6697 3.82846 57 33 2
5.72514 12.1477 -6.04439 108 92 66
-1.98482 -7.70793 26.9154 75 89 78
-8.32067 -21.6846 2.3004 70 84 79
-1.81366 -4.86609 27.4602 71 85 74
6.42541 -7.66239 -11.2131 171 160 116
4.48123 10.0249 19.071 66 72 58
6.19349 6.0583 -12.1213 126 108 67
6.93356 1.50793 -10.8452 136 153 132
6.84026 -6.81564 -10.9328 162 151 114
-8.17892 -0.849792 -5.29539 63 76 65
-7.94573 -25.3739 1.35994 164 184 164
3.35576 16.0032 0.57325 80 60 28
8.83186 -0.778526 -3.10337 62 75 64
-0.45284 15.5632 36.5724 55 40 10
-1.35343 16.797 0.201746 83 55 6
-2.26346 13.0805 33.5194 54 41 13
-2.79934 0.594026 17.9577 109 121 97
-0.722057 17.9225 2.53545 56 35 9
10.0624 -0.477684 12.0146 68 76 60
8.85429 8.67169 4.30124 66 77 67
-5.3367 -5.38888 26.226 63 72 62
-7.42099 -8.6483 -1.23354 153 179 160
-0.0327415 2.18966 -17.942 106 84 45
-7.84248 -15.9417 1.04869 68 86 74
-3.78359 12.6377 -4.96033 100 65 4
-6.39598 -22.6126 3.98324 63 77 67
7.57401 8.06533 12.1307 88 97 80
-7.35282 -9.69665 -39.5813 57 65 52
9.41821 0.0111847 13.2689 71 79 67
4.74452 2.38949 15.0984 77 89 78
2.81145 5.77097 19.7788 67 77 68
2.93365 15.5331 25.4536 81 78 46
-6.28842 -19.7956 -0.526367 170 199 174
8.32001 8.00856 -6.06725 64 65 52
3.62558 16.0645 1.18024 84 48 9
-4.30688 -3.9138 -21.9857 102 100 75
4.91259 8.35862 20.0643 69 81 71
8.70006 10.1837 3.87337 69 80 70
-7.20349 8.70918 -0.834045 56 57 41
-7.97079 -6.55354 1.47094 60 75 66
6.52693 11.6695 14.9159 60 70 62
-8.24354 4.34589 -3.11143 66 73 63
-5.69481 5.22151 7.81035 53 65 54
9.27493 2.96741 11.8829 68 74 63
3.24416 11.1205 30.4221 77 83 68
7.18651 -4.99086 15.0913 68 80 69
-6.74144 9.37139 -6.61567 118 111 84
-7.41943 -16.4822 -0.00517273 121 154 137
0.225914 15.4231 -4.68748 85 45 1
9.05715 6.5711 -2.06453 62 73 64
1.42076 18.0734 3.97381 65 55 32
-1.11565 17.0775 0.137436 75 49 8
-0.623394 -3.71816 -23.914 151 131 83
5.90082 14.2484 -3.27982 62 73 62
-2.19041 8.58038 -12.871 116 83 46
0.851357 10.3767 -11.2716 122 84 33
-4.28167 13.7739 0.816431 54 41 17
7.46741 13.5347 2.08485 116 121 94
-1.84818 -6.93761 -28.7663 117 106 62
0.139679 18.3793 1.95418 77 46 7
8.23476 4.3303 -7.12889 103 119 104
-6.71727 9.41521 2.07647 75 70 54
1.31908 17.519 0.555651 66 46 1
-7.90424 1.92213 -7.45267 67 79 67
-5.52229 11.3326 5.3883 59 61 48
-0.757866 11.6968 23.7879 64 54 30
-5.96826 -1.16572 -12.8062 56 68 59
7.84947 -24.0573 -8.40998 61 73 63
3.07791 1.39117 -15.5074 152 128 92
-5.16693 -8.56094 -29.713 78 88 74
7.65968 -8.01444 12.8891 116 112 88
3.46725 16.5394 3.54029 102 73 42
-0.946142 1.17065 -19.9275 112 81 15
-1.76035 13.5241 33.5161 54 54 37
-3.2677 0.762772 22.8629 50 39 16
-5.91226 -8.37872 -37.2624 69 75 58
7.48295 7.42281 9.88356 70 82 70
2.0228 12.2651 35.2765 63 70 60
-5.80335 -7.62903 -2.67936 116 140 123
2.70258 9.54347 -11.2 126 93 49
2.01242 17.6407 8.047 62 50 26
4.90038 9.82729 18.5578 70 74 62
-1.46919 3.69204 -17.4729 118 76 17
-7.49019 -27.4654 8.67274 65 79 68
9.06629 1.60183 -6.47427 110 124 105
-1.44083 15.5247 8.07022 54 49 26
-5.9685 -8.23296 -39.9587 61 73 57
7.46835 7.59711 10.6748 70 81 70
-3.03523 13.8462 -3.78131 84 60 20
-3.6363 -1.12253 5.04542 64 76 67
7.70517 11.2405 0.224041 102 121 107
-0.15374 11.9663 16.1082 57 52 32
-6.69807 7.26485 5.24613 57 71 60
8.70418 7.30167 -4.67395 81 98 84
-4.44807 10.7179 -7.30956 128 109 68
-0.583958 17.1917 30.8824 51 36 5
2.72211 16.5013 0.498778 80 63 32
6.53795 14.9933 3.68551 74 72 52
-3.58531 0.392807 23.148 54 44 21
7.98174 11.0036 1.03648 72 85 72
-5.08927 -8.21966 -28.5839 83 88 72
-0.41515 16.935 9.8194 66 52 24
6.94374 10.5057 13.2489 70 82 72
3.0437 12.1252 29.2696 64 69 57
-7.19147 -1.76984 -7.8951 116 135 117
-2.1158 14.909 -4.07031 96 64 6
-6.83378 -8.83325 3.01526 77 93 82
-6.53881 -8.41271 -39.309 60 70 53
-0.146942 15.2903 37.156 68 72 55
-3.83309 -0.101547 23.3631 58 51 38
0.448833 18.1352 8.98273 50 36 9
-2.11053 -1.20454 -23.1033 131 106 59
-6.74609 9.36097 -1.00695 63 75 63
1.87317 -0.39373 -18.0647 117 101 56
-2.01462 -2.62144 26.7086 71 82 72
-7.73123 -15.0487 0.574921 65 78 71
7.64196 -11.4387 -9.71895 69 83 71
2.50328 17.1231 7.83972 78 68 38
2.35535 12.2994 -7.95995 105 79 42
2.54473 16.8852 28.0114 63 61 49
-0.866211 16.5444 27.9665 92 71 34
-5.27726 -8.7965 -31.4421 62 70 60
5.76348 -14.3485 -11.8841 141 154 121
8.13825 3.4904 13.4256 77 90 78
-8.04125 1.23631 -6.11501 65 75 63
-3.79554 10.6679 -8.22449 95 78 44
-8.20774 4.49502 -3.32871 67 78 66
-5.71967 11.4142 -4.00061 68 63 48
6.4364 14.3462 2.07271 109 81 38
-1.31356 8.58034 20.9814 63 69 59
-2.62045 -1.00516 -22.9102 125 113 72
2.53395 -6.904 -12.2571 161 185 159
1.3683 16.2076 33.6666 63 52 26
1.79306 12.57 18.03 64 48 17
-2.9502 2.07738 21.1677 71 80 65
0.981049 15.7319 25.3867 102 62 7
-4.83121 -12.0007 1.36668 64 77 67
-3.08113 8.23158 15.0644 56 43 18
-2.25514 9.57896 31.1809 57 69 56
9.08156 2.81672 10.5933 125 136 116
-1.20919 16.0661 28.9973 76 81 61
-5.02564 -2.49012 -17.0134 85 97 82
6.85752 -20.8562 -9.62682 54 59 47
7.62451 0.534676 14.3309 68 78 68
-2.43594 9.3808 14.433 54 50 35
9.84703 -1.21153 12.9235 66 75 64
-7.27979 8.50144 -0.410583 59 59 43
-5.58448 5.07447 8.04053 58 69 58
6.80185 6.26809 -11.1104 83 92 78
-3.06174 6.38308 12.6613 58 64 56
-2.25944 -1.69333 26.4796 75 78 71
-2.17237 15.9129 1.29035 56 38 5
3.46973 16.6178 4.32554 68 59 29
-6.63409 -8.42884 -39.7664 65 74 58
8.76021 10.6666 5.13882 74 87 75
-2.35989 -4.63852 27.734 76 89 78
5.75531 15.1647 2.7532 92 71 34
7.6604 13.6765 3.80981 66 78 67
0.859859 12.3894 20.2533 68 37 4
-8.50894 -0.792908 -1.21034 60 74 63
-10.1622 -26.371 6.92105 60 72 61
8.77109 6.91589 -4.66727 86 105 89
9.14179 -5.50547 14.5489 67 77 63
5.12479 -9.29675 -6.22344 67 79 72
-5.52549 -23.5072 1.70235 111 128 111
-7.34929 -22.66 3.87717 65 79 71
-1.71407 11.1264 -10.5447 136 88 12
-2.76711 -27.1466 5.75562 61 64 52
-8.17915 4.23301 -2.61739 64 74 63
0.245483 18.7162 6.14554 58 36 12
8.21831 12.2465 2.72701 85 104 88
-7.58608 -3.24836 -5.83363 91 110 96
2.35281 17.3286 7.98245 74 61 29
3.89754 16.3877 4.00741 69 55 17
1.98126 9.34967 -11.7803 118 81 24
1.99034 0.744217 -17.101 145 122 76
-4.38439 13.7934 -1.79228 65 39 6
-7.15322 5.61162 1.89052 69 83 72
6.41337 3.45279 14.5824 74 84 71
1.17814 12.8648 -8.05866 113 69 23
2.74843 -6.31071 -12.0955 165 191 164
-4.53556 -2.76754 -19.1647 78 85 67
1.76205 -21.1746 -8.57175 60 72 62
5.59552 14.4522 -4.1915 105 100 71
9.35574 -3.45029 14.2452 68 78 68
-2.58804 5.92857 -14.7058 128 112 80
5.36189 15.1949 0.857491 87 68 35
-5.34476 -26.1685 7.35039 61 68 55
-7.97602 5.24209 -3.17529 63 74 61
8.6174 3.41119 2.44874 64 75 65
-2.74004 14.8872 -0.754217 64 40 3
4.65181 15.7702 1.80299 81 73 53
4.19658 6.7552 -13.0308 162 137 93
7.49701 -22.3946 -8.8186 59 67 55
3.40937 13.7574 24.207 77 76 56
-7.25407 -9.54099 -39.4516 57 66 52
0.416283 -0.220547 -19.272 124 96 24
-5.78767 -15.6986 2.95005 73 88 78
-8.42797 -0.124779 -7.63651 88 102 88
3.09598 16.6926 2.39407 73 61 26
-2.29845 1.70945 21.8118 73 85 70
5.61077 -18.4808 -9.57331 67 80 68
-3.27126 7.02779 17.8575 57 49 34
-5.28322 -8.41017 -38.4414 111 119 97
-1.85246 9.36552 16.3519 49 32 6
0.526403 6.23697 -14.5483 134 102 53
-5.39443 -20.1288 2.40963 59 72 63
-5.05441 -8.9881 -39.479 71 76 62
-1.37489 14.7774 36.3812 57 58 46
-8.69799 0.306381 -2.3164 62 75 64
1.71086 -2.47303 -19.913 116 127 107
-8.10668 -7.2227 0.281593 71 90 79
-4.97004 11.8284 8.1132 47 38 18
-7.81032 -28.1637 8.70893 72 87 76
-2.67487 3.04391 20.9592 73 84 71
-1.12332 10.1302 15.9089 52 41 18
-8.41226 -24.1056 4.4413 68 82 72
-7.60566 4.67649 -6.91361 91 105 91
-6.13878 10.2519 -6.45288 115 115 72
-7.63029 2.37873 -9.30614 81 90 78
8.44054 7.59846 0.208031 111 131 115
1.66652 17.4822 1.86522 63 44 6
-4.74739 -2.96072 -18.4781 84 89 73
8.32798 6.76831 -7.75404 137 155 134
-3.28106 11.9114 9.80452 64 71 55
1.55713 16.8387 11.6825 58 47 13
-3.82932 -6.09191 -30.2968 134 133 96
-1.29711 10.1184 22.9569 95 66 23
-0.0435944 -5.44807 -25.0879 113 108 76
-1.46438 9.94097 15.6735 49 38 13
-11.5182 -6.55472 -53.2586 102 126 107
7.7138 8.30214 -7.53723 91 83 58
-0.663937 -0.166473 -20.8344 101 89 62
-5.57318 -2.48067 -13.8574 71 85 77
0.863174 13.5139 15.7304 57 51 34
-3.16248 0.362362 -19.8273 99 97 81
8.00174 2.55325 -0.11591 74 87 75
1.14103 16.7189 11.9332 56 40 11
-4.08554 5.14999 18.9152 64 78 68
9.80722 -0.386318 12.8484 65 71 61
2.84364 13.9793 14.1916 65 68 50
8.52672 3.66313 9.93664 135 140 113
9.2533 3.30871 11.5235 63 70 58
2.89075 14.1347 23.4861 117 91 41
-3.36692 7.45564 12.1052 60 72 59
-1.06084 9.53469 20.9004 64 74 64
-5.76607 10.2953 7.77276 52 55 42
1.16567 -2.00019 -20.3271 143 116 75
-4.57002 2.00647 -14.5567 137 123 84
1.81268 12.902 21.366 96 58 4
-8.47213 -7.01029 -48.4563 71 78 67
4.72796 11.8918 -7.72636 96 72 37
-4.14606 9.45703 -9.26698 114 100 66
-8.26812 4.6167 0.870161 66 77 66
-2.89078 12.8713 -6.79963 77 58 13
-7.6634 -27.1672 8.38377 65 79 69
-7.1897 -4.32469 -4.90346 92 113 100
7.39046 2.9642 8.6741 134 155 136
1.05561 12.506 37.3673 62 72 59
-4.5358 -6.48418 -30.5308 68 65 53
-0.0559196 12.1493 -9.53243 101 60 10
-1.78935 9.4928 24.5932 99 80 49
-6.95127 -10.4706 -37.2943 56 65 50
-1.58983 14.0026 30.6159 96 108 91
-6.01835 -19.0175 -0.478836 157 181 160
3.07568 -14.0835 -10.0535 80 92 77
2.59721 12.1178 18.0751 65 55 34
-3.26868 13.1665 -4.6216 103 74 32
-1.61162 13.9868 35.2171 60 47 23
-3.93212 13.5496 6.75809 45 27 0
7.83472 -3.06052 -3.38396 62 74 64
-2.44051 13.7562 -5.96666 100 65 22
-3.46647 -4.97449 -28.5536 127 119 81
3.33017 -11.2163 -6.6332 66 80 72
8.41288 2.70245 -7.31484 76 87 74
7.00763 -23.9472 -11.7273 160 170 140
8.04419 -5.47407 -9.73094 143 121 75
0.375843 12.9261 38.2428 64 68 54
-8.87489 -27.0381 7.94788 68 79 69
-4.27037 -5.93932 -26.9312 60 68 56
8.43928 7.99438 -5.23669 93 105 90
4.62676 -9.74565 -6.28686 70 83 76
-8.43439 2.69665 0.356445 75 87 73
-2.91656 4.82786 15.1527 78 89 73
-1.53513 12.9034 29.0997 84 92 68
7.59323 13.6191 5.48002 95 81 44
1.22836 17.5947 0.784019 68 50 18
3.30796 0.776558 -15.5697 125 109 64
0.954224 6.96649 -13.9248 130 100 50
6.54606 -7.90409 14.8339 73 86 76
-2.83936 10.5368 -10.4413 125 101 81
5.30933 5.7334 -12.9432 151 122 78
-0.952488 -5.99258 -26.6296 114 104 63
-4.11802 13.0199 7.47114 60 61 49
3.32886 16.5878 2.2723 76 61 27
4.66565 -13.3714 -12.183 163 173 132
-2.23667 0.18837 24.4078 65 66 51
-5.30617 -2.98547 4.27499 64 76 65
-2.06785 7.17262 19.8894 63 70 54
