ply
format ascii 1.0
comment Created by Open3D
element vertex 1374
property double x
property double y
property double z
property uchar red
property uchar green
property uchar blue
end_header
7.51238 7.18188 10.5064 71 83 71
8.49604 2.528 -7.17193 91 105 88
7.97998 12.7314 4.43921 67 78 70
2.11465 6.59204 -13.5523 153 137 97
9.70165 4.63167 -2.78571 70 83 71
8.69919 7.14234 -6.40682 66 77 61
3.06498 15.3118 26.6907 69 78 65
-6.69089 -8.4253 -45.7179 85 97 84
7.76174 4.01654 8.93031 114 129 112
8.73907 10.6578 3.30826 63 76 65
7.37588 13.9691 2.45894 88 99 90
-1.45374 14.8696 -5.46856 101 68 14
-0.972923 2.89477 -18.2934 115 72 23
8.91158 5.67923 -4.78035 76 94 81
6.83093 9.80673 10.8554 99 112 96
0.0204906 4.12584 -16.5377 107 81 41
7.46769 9.08778 9.21105 63 74 64
8.64478 5.83521 0.320637 66 78 67
7.12044 13.1766 0.692998 101 106 93
2.7952 9.11867 -11.5814 157 118 74
8.81242 4.71146 1.4439 66 78 67
-0.316988 -3.7964 -23.7002 122 103 60
4.40939 14.4771 12.2614 70 62 50
-1.03996 -3.2112 -23.8927 114 93 45
0.400372 13.8717 23.4538 100 59 7
2.98102 10.7165 -9.89053 130 88 39
1.35208 -1.86609 -20.0641 124 107 67
1.98126 9.34967 -11.7803 118 81 24
4.70058 -7.08558 -11.5145 157 172 142
0.641396 18.3661 2.5066 85 59 29
7.79754 11.7226 1.37541 104 121 106
-0.247913 16.3636 26.9421 88 48 7
7.78149 4.06929 -10.851 89 101 88
7.90326 11.6716 1.53439 142 161 137
8.95956 5.60232 -4.55807 83 97 85
1.58345 15.9734 25.4721 145 141 148
5.52537 15.1424 2.48066 87 58 17
4.87027 15.3745 6.41297 75 58 25
8.85069 6.65437 1.22227 91 106 92
9.49715 0.682301 -5.58735 78 95 82
8.25769 9.50738 7.37115 67 78 68
1.60987 14.3903 -5.73351 112 71 27
9.38202 -4.46648 13.7165 67 77 66
8.61042 7.31391 -6.68604 77 88 76
1.80584 16.1807 -1.43513 90 68 39
3.44225 14.0308 -5.59819 100 56 10
-0.362526 11.7537 -10.0176 118 79 45
2.92437 12.7099 28.2578 66 77 66
3.12305 16.6458 7.21281 75 60 37
4.60495 6.89492 -12.7684 166 141 102
7.72541 -22.0341 -10.914 146 143 109
5.81958 -14.5289 -11.8245 135 149 121
0.719101 13.4691 22.794 94 54 2
1.38525 8.0112 -12.9935 145 112 66
1.87177 16.2012 -1.04601 91 70 34
1.18198 4.82285 -14.7459 153 127 82
8.36124 11.4012 3.85653 66 79 68
3.10567 11.9143 15.99 67 68 53
-1.34826 2.10073 -19.1859 134 105 65
2.9896 16.6104 8.22266 65 54 28
0.407816 10.954 -10.7194 112 65 9
3.46823 11.6887 24.702 69 77 68
9.34209 1.59707 12.6634 71 78 67
-6.48915 -8.68866 -44.9064 91 102 90
0.480066 17.3297 -0.506104 89 59 16
1.1101 9.338 -12.1383 153 114 71
2.53014 16.6442 10.7425 67 56 36
9.64971 4.3903 -3.20754 88 102 88
-1.05522 13.045 -8.6088 103 69 31
0.937366 3.48923 -15.7886 104 82 44
-0.422356 -2.81138 -22.7486 109 83 36
0.838005 11.0841 -10.476 114 75 30
8.88962 -0.174744 10.4701 158 175 149
1.24448 8.49253 -12.7992 193 155 99
8.39826 3.33475 -9.28894 64 77 66
7.9587 4.55745 -9.51637 98 98 74
9.08701 4.14687 -5.94111 101 119 100
8.05197 5.17607 10.5271 90 94 74
2.99572 15.9606 26.8772 74 83 71
3.88613 11.0367 21.974 64 70 60
-4.06542 -6.25311 -30.6417 111 110 79
1.73406 15.5662 -3.80117 76 43 3
-6.54554 -8.22231 -40.3734 63 72 59
9.66291 1.1959 -4.23991 71 82 72
1.22133 9.24237 -12.1546 149 113 69
-1.07134 5.56927 -15.6493 128 90 25
5.21428 13.9466 12.3441 67 58 32
-0.670549 4.52512 -16.5882 170 116 56
7.9454 3.27895 -10.8941 123 146 123
8.03556 10.5583 8.12283 72 84 76
7.24245 -9.38846 12.4984 97 94 64
8.42008 1.86702 -8.38379 82 96 84
-3.8101 -5.72098 -29.5367 100 95 65
8.22071 1.88326 -9.57275 73 87 75
-6.06919 -8.61182 -43.5773 81 94 78
7.4832 12.7055 7.68614 69 79 70
-5.08881 -9.10522 -40.1459 88 97 78
7.39187 12.1902 9.11308 68 79 70
2.16496 -1.652 -18.7541 114 114 80
6.18056 14.8477 2.496 110 75 18
8.81691 -5.3046 -8.76645 100 112 93
3.81894 13.4642 13.9263 69 67 48
1.15718 18.3717 6.22119 67 52 20
7.15664 10.3907 12.4123 62 68 56
8.59226 6.50946 -0.547023 73 87 73
4.71364 10.8724 -9.28918 104 90 69
2.01931 17.7104 5.35039 76 51 12
0.253616 6.3493 -14.7005 174 139 83
7.92677 3.91092 9.22959 131 145 124
6.01535 12.4076 14.3189 68 76 64
1.14655 18.0709 3.10857 89 73 45
-2.14551 -8.6231 -31.1339 111 117 90
1.48245 9.54219 -11.7893 196 163 91
3.25035 9.53309 -11.0261 131 86 24
3.57067 12.9267 24.2633 63 73 62
1.02552 6.43034 -14.1396 145 109 55
2.43659 6.9776 -13.3083 159 142 109
-1.0778 15.3272 -4.84649 86 48 5
9.15953 8.25032 3.57403 71 85 75
0.50386 18.7088 4.32139 59 38 4
3.05228 16.7364 5.19802 76 63 44
6.28415 -4.54914 -10.5954 157 156 118
0.0231018 11.504 -10.1485 129 92 47
7.25093 14.0499 2.34118 114 116 81
-4.04831 -6.37309 -30.9306 98 96 65
3.09289 11.3703 25.9478 113 135 115
8.44305 11.5052 2.3883 99 114 96
-0.292522 3.6181 -17.0485 126 92 57
-1.78507 -4.95986 -26.6621 122 111 63
1.58957 17.5567 2.1514 77 59 23
5.96302 14.8366 1.03833 73 75 58
3.31572 -0.484543 -16.3898 121 130 103
2.21805 14.3677 23.466 117 96 67
7.48092 13.8643 2.74229 75 88 77
2.66665 15.8412 -0.820792 89 54 15
8.58568 11.2707 4.9512 82 98 84
-10.6946 -5.78194 -52.5177 76 85 75
-5.51319 -8.65756 -40.5856 64 69 57
7.2582 12.2566 -0.208599 116 135 116
5.76908 14.2876 8.36349 72 77 61
-3.59249 -4.94788 -28.5362 121 116 82
8.00805 5.11942 -7.84341 105 124 108
3.0703 -0.390656 -16.7891 123 130 111
4.5075 8.83411 -11.4843 201 179 139
3.42592 13.804 24.7606 59 66 53
7.49757 10.6873 -4.34081 59 54 37
8.93467 5.58875 -4.70252 79 95 83
5.0219 8.55233 19.2645 77 94 77
7.37173 -21.6962 -11.0664 162 150 113
6.9033 9.60559 10.1657 67 79 70
8.94545 7.17954 -2.15636 61 70 62
0.595104 11.0999 -10.5221 118 69 26
1.25842 16.5677 -1.50746 62 47 12
-5.94394 -8.82742 -43.4762 76 86 73
3.77888 15.3882 -2.6536 69 52 21
0.702328 -3.41018 -22.1918 123 125 95
-1.17674 10.3686 -11.4443 169 171 126
9.27259 1.14615 -6.10105 103 119 100
-2.41597 -6.36588 -28.938 111 98 65
9.1478 1.81333 -6.26031 105 119 101
4.36995 12.2772 15.1234 62 46 10
7.66785 8.15878 13.5932 64 73 62
-0.19355 4.25471 -16.5869 183 144 93
1.6465 13.8523 22.8902 114 91 55
3.60397 11.7982 20.947 83 58 10
3.1594 11.7679 29.5219 60 63 52
9.03344 7.76789 4.12387 63 75 65
8.0582 2.83728 0.155968 70 83 72
0.395687 7.1125 -14.1875 138 103 49
8.92409 7.16757 2.26433 112 131 114
8.73706 10.7804 5.13914 76 90 78
7.77605 8.39354 -7.00865 84 75 48
2.3134 16.7933 0.549499 62 46 4
5.44498 14.3764 -0.722044 88 82 55
0.659039 -2.62597 -21.4907 99 90 53
5.2093 10.1514 -10.0424 95 58 14
2.91187 16.0956 26.3272 90 85 65
5.80586 13.6921 -4.49395 125 128 106
-1.06015 4.06249 -17.0321 139 114 65
8.33318 8.31993 -0.846828 81 95 81
1.92497 8.03049 -12.6735 155 121 79
-0.119358 9.37162 -12.3162 142 98 40
8.64141 7.6783 0.559498 113 132 115
-9.60764 -6.35845 -50.0285 58 66 59
8.11012 8.96548 -1.0202 92 104 90
1.81543 1.67799 -16.6608 182 144 100
4.90908 14.4426 10.0977 73 66 45
-0.0364037 5.79017 -15.2528 130 90 35
8.83618 6.34798 -1.76415 61 71 63
9.20077 6.55872 -3.55844 79 95 82
3.83281 14.592 12.7293 66 59 34
1.89824 8.48272 -12.4133 142 107 60
0.153851 -2.25218 -21.6654 115 101 62
3.17068 16.6505 5.32248 71 58 38
1.60003 -3.94267 -20.2292 83 95 83
-1.54498 14.7523 -5.59145 101 67 12
3.09097 16.7307 3.69653 78 57 34
8.57074 6.50511 -0.691224 87 104 88
6.07375 9.9916 -8.88183 91 101 87
4.19577 1.94122 -14.1216 129 138 112
7.32112 9.53013 -6.21748 109 125 105
7.12714 9.41913 9.71281 63 74 65
9.40544 3.39099 -5.06393 78 89 78
-3.12143 -4.79143 -28.0917 135 123 79
-10.3273 -5.99066 -51.1595 55 61 55
3.39331 10.8529 28.8804 68 72 62
-6.1659 -8.60055 -43.8686 66 77 64
9.55064 -2.06847 -6.20371 100 115 102
-1.73564 -3.7218 -25.6176 108 100 61
4.11923 -6.85325 -11.665 161 179 148
-0.18681 4.47443 -16.4066 175 132 79
8.24196 7.18403 -1.58944 66 77 68
-0.732861 14.6175 -6.12461 91 53 5
1.33561 0.269699 -18.0759 144 111 62
-1.99704 -3.85713 -26.0571 121 107 64
5.90204 -12.4581 -11.5626 153 152 116
-5.23474 -7.87638 -36.1985 100 106 83
5.46319 10.4609 -9.21876 83 53 13
-2.34022 -8.26753 -31.3113 103 106 80
6.34094 12.2221 11.2973 60 65 53
2.15763 14.7863 -4.84932 101 57 13
7.08255 6.81242 -9.51712 117 135 113
8.52025 10.995 4.56311 105 128 108
6.54554 13.5252 8.93176 74 68 48
8.10407 9.68394 -3.22849 55 57 45
8.47279 7.26405 -7.38609 112 127 107
5.90173 14.568 7.91083 69 77 66
2.64985 10.2429 -10.5837 170 130 79
-3.4178 -8.56229 -34.7483 70 74 56
8.89314 9.7987 2.14832 111 125 111
-1.7333 -8.62784 -29.9479 112 121 100
-2.86866 -2.33932 -24.8285 127 113 71
0.546852 10.1921 -11.5005 124 76 14
9.00879 9.43695 3.42826 65 79 68
8.94239 9.04699 3.94128 63 75 65
8.57759 -6.01032 -9.39768 146 148 118
-3.94143 -8.41585 -35.5396 94 97 75
-3.18738 -5.95561 -29.5107 107 97 62
5.86835 -9.80569 13.0242 75 69 40
8.66988 11.1096 5.2408 66 77 67
-0.653013 14.5189 -6.27349 95 55 3
0.608656 6.19371 -14.5038 140 108 59
8.37225 -7.55951 12.7808 138 122 76
7.77466 13.5797 6.57214 68 75 66
-0.771469 10.7256 -11.1761 133 87 45
3.1967 15.5426 -3.10141 63 44 16
8.86343 3.91662 -6.34817 129 153 128
-0.475344 3.64541 -17.1887 110 80 36
6.29528 10.5896 16.1049 63 74 63
8.75437 10.7775 5.27751 71 83 73
7.23285 11.4854 -0.850555 106 128 109
2.09253 15.7418 -3.06282 75 49 11
2.42968 16.2811 -0.255438 84 50 8
-2.42208 -0.222755 -21.8936 134 105 52
3.3327 12.2648 26.5919 62 67 54
4.65148 14.7638 9.48458 68 61 43
3.91469 14.2091 13.1832 67 59 32
6.74389 10.5981 15.0333 65 76 66
0.960348 7.36468 -13.6727 139 98 47
0.442282 16.9461 -1.26247 76 55 28
1.348 8.97026 -12.3315 136 102 56
5.68882 14.2712 -2.27987 71 74 61
6.48874 13.5266 8.52322 73 66 41
2.45485 12.1485 18.6155 73 66 46
-3.68034 -5.81172 -29.7292 109 103 69
9.04763 6.97794 2.56434 93 110 95
8.07545 8.57278 -2.02737 62 70 61
-1.9243 5.51451 -15.7156 120 97 43
1.96011 15.339 13.647 64 58 39
-0.555622 -1.02726 -21.2957 101 90 54
2.9911 13.6032 14.3325 64 67 54
-2.62648 -4.32336 -27.1191 150 130 85
3.77775 16.0403 1.28664 74 41 4
8.67319 4.66602 0.560588 78 94 81
2.0323 8.6076 -12.2702 142 115 61
1.14238 -3.85898 -21.2578 94 109 90
8.69164 5.51781 5.03433 66 78 69
0.5089 -3.3552 -22.3475 117 113 80
-1.06705 11.7236 -10.2224 119 84 39
-3.63071 -5.05492 -28.6829 128 123 87
4.52806 11.0837 -9.26173 97 76 53
-0.00826263 3.3167 -17.0153 140 115 81
8.21513 12.806 5.61812 63 74 66
8.80433 10.5671 3.02117 63 76 65
4.69325 9.92939 19.5831 112 91 58
9.2971 -8.77066 12.458 125 127 92
6.36713 10.6751 15.9721 65 72 62
-1.4591 12.3925 -9.35698 124 78 21
-0.663235 -3.31093 -23.5879 124 98 43
4.24251 15.8765 7.52839 69 64 40
5.87431 13.1646 10.8122 68 70 53
0.108816 18.5299 6.83236 55 33 8
1.10818 7.3547 -13.6189 151 113 55
9.5278 0.167896 -5.57433 90 103 90
7.08699 10.5912 12.3027 64 69 57
1.93862 12.4109 19.4587 68 36 3
-5.27379 -8.94482 -40.653 59 63 51
-1.85359 0.294312 -21.2285 138 111 59
2.5381 8.75213 -11.9546 145 120 74
-1.90389 -3.62679 -25.7713 109 95 53
8.20314 5.82073 12.0317 94 97 77
4.66179 11.0414 -9.10435 93 77 56
8.24746 11.3849 4.45679 92 111 95
-9.51954 -6.29153 -50.4323 63 68 57
2.60764 16.1634 26.1238 92 70 55
6.91443 10.4775 14.2594 60 72 63
0.365032 -5.83894 -24.2887 87 96 79
5.13812 -5.55439 -11.1659 160 174 143
2.66078 16.4017 26.5381 97 75 49
8.24637 0.41188 9.92541 154 172 143
8.28168 9.26131 -4.5511 98 110 92
-2.81528 -7.93462 -31.6072 99 94 67
-5.66704 -8.94058 -42.5951 84 98 80
2.63016 7.50851 -12.9346 141 102 57
0.248608 5.63707 -15.1407 121 75 27
3.17383 14.1991 24.075 96 87 59
3.60089 12.994 14.4358 66 59 41
-3.21325 -5.33158 -28.8189 156 144 103
-1.89719 2.21016 -19.1491 122 82 13
2.98943 6.47601 -13.392 150 119 66
4.27556 9.20567 22.8131 66 78 67
7.88275 10.2096 -4.21647 62 66 51
-1.19933 1.98936 -19.2933 159 128 85
4.49815 15.8958 1.94145 98 86 61
-3.73808 -6.08327 -30.2449 186 184 147
3.85479 15.0998 11.8632 71 70 48
2.03455 16.4957 -0.468885 100 75 20
0.657612 18.6166 7.1032 56 40 16
0.529604 12.8671 21.7932 82 52 2
-0.0199299 16.7799 27.6305 81 45 6
-3.23773 -5.631 -29.1491 198 185 141
9.34445 2.03653 10.6822 150 144 111
3.15887 -0.30278 -16.6244 108 124 101
6.17478 12.9943 -2.13915 87 101 81
0.444769 16.2674 26.4497 85 51 9
6.51443 7.63994 -10.3034 113 127 108
2.98647 12.1374 19.826 74 51 13
1.48815 17.4004 0.888729 71 52 22
4.21992 15.3477 -3.66146 79 54 9
5.64482 14.9419 2.06514 69 65 40
1.22015 10.003 -11.5213 135 97 43
-0.149542 7.02906 -14.3512 130 96 68
8.68489 5.20178 0.0789976 78 92 79
6.68444 11.8015 -3.97138 72 76 55
3.82972 11.8606 -7.86312 77 49 5
-1.95962 -1.27789 -23.1253 147 122 78
1.41368 11.1574 -10.1118 200 161 116
0.785275 13.5524 22.8811 94 55 0
0.549532 -2.45564 -21.4549 109 89 44
-4.66284 -8.85413 -38.4107 81 90 72
-0.896046 -8.07481 -27.9453 71 78 66
3.59396 11.4133 20.0764 104 81 35
9.77344 -0.3629 11.1221 123 135 115
2.60139 14.8754 -4.71719 107 63 25
2.06236 12.498 19.9735 80 42 6
1.84378 17.5517 2.7828 68 49 22
8.02078 -22.7542 -10.888 148 145 118
8.59008 11.3505 5.78699 72 84 75
3.45379 16.2263 1.45871 86 46 10
9.48187 4.49351 -3.63114 96 109 93
1.57908 9.36679 -11.8864 139 104 39
3.31429 15.8855 -0.341265 95 83 57
2.98181 16.3721 9.61437 66 54 25
6.49429 12.0078 -2.68698 71 86 75
2.05475 14.1722 -5.83575 115 62 4
6.46244 14.9849 3.16801 82 60 21
-0.162766 16.3687 -2.99636 86 45 6
6.1465 12.6378 -3.80486 88 105 94
1.55773 9.65123 -11.6453 184 151 80
5.31512 14.4542 -0.839751 79 78 59
4.08134 11.6294 -8.5985 93 63 22
5.08302 9.6085 18.4187 71 79 67
5.66826 9.76361 -9.96908 82 82 63
7.07987 -11.0643 -10.8631 147 157 130
7.18951 4.92745 -11.6488 122 136 114
1.62744 16.2268 -1.81052 80 66 44
4.15746 -0.24334 -14.8095 92 96 80
-1.35279 -4.32034 -25.4901 121 111 71
-1.44305 -4.21638 -25.5387 108 102 64
1.12319 7.89828 -13.1953 130 103 51
2.82581 10.6731 26.2089 92 108 93
3.12724 15.0794 27.5215 82 92 76
7.66755 -2.20971 -8.92206 144 158 133
6.45065 12.0685 12.7925 62 72 61
6.58593 13.4523 8.36757 68 67 49
6.30089 13.6404 -0.281575 121 119 95
7.77356 13.4659 3.39896 72 84 70
1.84134 9.41252 -11.7627 127 91 23
8.9908 6.00176 3.78388 71 84 73
0.318552 -2.45733 -21.7799 117 97 51
1.38696 18.0882 4.77185 69 50 19
3.76908 15.7039 0.397409 90 57 12
1.01544 13.4981 -7.19629 94 55 8
2.32923 2.62947 -15.4928 192 140 86
-3.3818 -5.89962 -29.6696 105 96 59
5.57066 9.83734 -10.1309 101 92 63
4.8165 15.3542 0.639871 97 53 6
8.6211 8.7136 -2.86788 62 72 63
7.39204 3.77369 8.20187 97 114 98
9.83286 -1.88867 13.0983 68 75 65
-0.629646 -3.47814 -23.7028 174 151 97
7.75784 10.4076 -4.62906 60 63 46
7.34845 13.5083 7.34214 69 77 66
2.12117 8.92689 -12.0442 155 135 102
1.72738 14.1205 15.1126 65 57 35
8.7997 7.76514 1.90455 106 124 109
-2.11722 -4.37576 -26.6915 108 99 61
9.31794 6.25718 -2.58316 70 78 69
0.498156 -2.52032 -21.6322 104 86 44
7.26557 5.38007 -10.8987 77 79 61
-1.63915 0.719505 -20.7779 151 124 74
5.68599 14.409 -0.349192 108 88 47
6.89603 10.9829 12.1965 70 75 63
1.20666 3.29513 -15.6675 202 173 122
4.27546 15.5969 8.18781 69 69 48
0.74712 6.5982 -14.257 144 108 56
8.90283 8.6087 6.21776 71 84 75
3.69905 15.5938 -0.0475807 77 67 37
8.36138 8.0936 0.137664 121 142 125
8.17303 11.9004 7.22099 65 75 66
-0.0856552 5.1352 -15.7849 131 93 53
7.02527 -4.72109 -10.189 148 145 119
-1.60317 0.989658 -20.4734 139 108 58
3.95395 14.5185 12.707 66 57 31
1.44842 10.5529 -10.7855 115 72 17
4.1767 11.7487 -8.3303 92 61 23
3.33081 16.4447 1.8514 83 50 9
0.733442 18.653 6.25895 57 46 16
1.4427 2.64595 -16.0623 112 86 49
7.26361 9.41098 11.8809 75 87 76
-8.89312 -6.73881 -50.1538 68 74 63
-0.463552 10.4315 -11.3735 130 82 27
4.22514 10.2888 19.5868 85 57 22
-1.64794 -4.02827 -25.7619 99 96 59
2.37809 14.5955 14.1223 63 61 42
3.01272 12.5261 15.2358 69 67 48
2.92431 16.8049 5.07949 87 76 58
8.27157 11.9502 2.38745 85 99 83
1.89012 8.82595 -12.1722 144 122 66
7.82299 11.4327 1.16181 82 98 85
7.94123 5.88674 11.1719 92 98 80
0.42482 5.60688 -15.0058 126 84 42
-0.144718 17.0424 -1.43458 77 40 8
4.4291 14.0293 13.0966 62 49 9
3.34801 11.1784 28.9539 62 69 55
4.80533 14.9993 -0.251921 83 54 11
-5.26197 -8.96326 -40.478 61 66 54
6.75501 13.8257 1.66765 86 83 57
3.67158 10.7466 24.0544 65 70 62
1.12155 14.8015 24.2195 119 79 39
2.57022 15.2826 12.983 68 66 50
7.19101 14.0894 6.92063 73 78 60
3.35625 10.9861 29.1552 66 72 61
7.90253 7.21806 12.6974 76 83 69
2.39499 15.7379 12.7005 66 65 50
8.3581 7.37425 -7.51463 110 120 99
-9.616 -6.23735 -50.5083 60 69 56
3.23691 11.0819 17.6467 68 63 42
-1.60634 3.6266 -17.5788 124 83 24
1.79079 -3.55231 -19.7218 94 110 95
2.90425 16.4365 9.88827 62 46 8
4.56702 14.8324 10.4009 67 69 57
-0.510023 17.7921 0.294994 91 52 4
7.84908 1.93758 0.901476 63 74 64
8.41942 9.56396 1.11158 71 87 76
4.56246 10.461 20.1576 83 79 56
0.279385 13.296 22.8726 86 46 3
-2.72966 -1.45275 -23.5031 129 106 74
-9.79782 -6.19308 -50.5007 57 67 54
8.07442 12.9448 6.33179 65 76 67
-1.41862 11.3694 -10.4354 136 102 43
2.85988 15.5794 -1.67337 76 59 38
-1.25842 13.0062 -8.72551 114 80 42
0.815945 6.44738 -14.2747 147 107 55
-0.99811 -6.91611 26.3888 102 117 102
6.22564 12.6899 -3.41003 79 92 82
7.66523 7.31137 11.8352 94 105 87
5.21265 -22.0392 -7.46022 62 73 63
-4.12209 -8.67266 -36.6108 92 98 76
8.34897 4.56403 10.5742 87 86 66
8.41227 6.81775 -1.58459 61 74 64
-3.5157 -5.14606 -28.7643 170 162 119
2.63426 13.7171 22.8723 117 74 18
6.41127 -19.8933 -11.0136 137 139 109
-0.825726 -0.0756073 -20.9814 136 118 78
8.16842 8.46237 -2.03736 60 68 59
8.94479 6.28851 2.58813 81 97 83
1.27543 -1.64448 -19.9517 198 177 132
8.46461 4.76766 12.9942 65 74 64
-1.01904 -4.32504 -25.0442 146 113 64
-5.87546 -8.7907 -43.0929 73 85 68
4.2369 1.13732 -14.3751 112 117 89
4.45737 15.2439 -2.62611 72 56 33
1.70608 16.6037 -0.655497 99 73 31
-0.251554 15.5657 -4.57135 88 46 9
-5.3983 -8.93911 -41.5623 66 75 61
6.78847 13.7054 1.39846 77 83 64
-0.911564 -4.46785 -25.0705 187 166 113
0.202322 11.1327 -10.5427 112 65 2
4.01934 10.5049 19.3164 66 70 53
3.98053 11.422 21.3253 53 57 47
6.51646 14.6759 5.77322 97 60 9
1.24119 7.87618 -13.1401 147 120 61
7.34835 11.7577 -0.315785 124 144 122
0.628485 18.2391 8.64258 54 37 9
0.305986 14.2821 -6.40829 80 42 7
7.22863 13.0531 0.960228 63 69 59
0.0856438 16.393 26.8022 87 50 5
7.90759 11.9413 7.72016 67 77 68
6.50433 11.8729 13.1209 68 67 52
0.869305 15.0888 24.6014 102 63 8
8.56353 10.9824 6.57909 69 82 72
-1.72559 12.161 -9.4799 129 75 21
6.35467 -12.4027 -11.2403 141 147 121
-6.56124 -8.20964 -40.5511 64 73 58
0.356009 16.8519 27.5902 81 51 10
4.15381 10.4329 19.7012 107 73 24
4.17172 15.9136 6.86175 87 59 12
8.48094 7.24006 -0.0187759 63 75 64
8.17091 4.46482 9.86946 115 121 96
9.03521 1.17738 -6.69779 109 123 104
1.57999 10.2946 -10.9573 120 86 29
7.80108 9.96804 -5.17616 100 118 99
7.21781 6.06541 -9.69368 89 102 88
5.94349 12.4923 -4.43178 103 112 98
8.99869 7.1779 5.05962 83 98 85
4.66832 0.223572 -13.6857 116 135 116
-1.63589 6.87349 -14.532 121 97 50
-3.72619 -8.4661 -35.3599 97 104 80
3.6841 10.6118 17.9844 92 64 23
8.56274 7.18708 -7.20905 85 97 83
-5.5274 -8.10671 -35.3379 63 67 55
0.06954 5.66169 -15.2761 130 87 35
7.00171 10.1757 11.3339 110 123 102
4.23155 13.2659 13.9822 66 55 36
3.18463 11.7571 28.2525 64 69 57
0.860893 16.8258 -1.05857 93 84 59
2.30878 4.85991 -14.2129 159 150 104
-1.3918 14.039 -7.14324 99 57 6
1.36015 5.88298 -14.1463 143 120 83
3.50117 -1.11039 -15.7487 87 99 83
-7.39441 -7.57953 -44.6677 61 71 58
4.42757 15.3621 -3.29751 74 57 32
0.813086 -2.74772 -21.3513 97 94 66
5.01855 9.08857 20.0231 63 75 65
3.34055 15.7376 11.6132 64 57 29
2.93199 -8.01643 -12.2383 159 182 154
3.32578 11.5515 26.2327 100 114 97
7.29769 -4.94131 -10.0607 148 140 109
6.69247 11.502 14.1896 63 72 63
1.11574 8.37574 -12.9449 134 97 41
7.73624 8.03667 13.4506 65 74 63
3.95616 4.60213 -13.7585 162 141 103
6.77317 12.019 9.92911 67 78 71
8.60845 8.96531 1.47487 71 84 73
5.25399 15.5479 3.06216 96 70 28
9.22452 0.720024 10.4928 154 166 140
-2.74847 -7.87955 -31.4134 114 109 73
-0.0188808 18.6919 5.10194 57 38 8
1.09042 10.0771 -11.5041 131 88 40
5.88593 -6.60787 -11.1163 162 161 118
9.64501 -2.38084 -6.04362 78 86 70
8.54418 1.19292 -7.89044 103 119 105
0.658236 7.4658 -13.7845 155 123 85
-6.37065 -8.5508 -44.4784 82 95 81
2.77953 16.0264 -0.390516 109 66 17
6.22327 13.4914 9.61259 72 79 66
1.19506 -2.12608 -20.4299 111 92 58
8.688 4.24635 12.5558 68 77 65
1.97859 12.809 16.8016 67 52 25
7.66752 -2.91183 -9.0743 127 134 112
7.50115 3.97614 8.37385 98 115 99
7.4423 13.0059 1.47056 125 128 105
1.32808 9.8317 -11.609 179 143 77
-5.98004 -8.49637 -43.0932 66 74 61
7.5167 -21.5095 -9.61573 53 56 46
5.81874 13.7292 9.74189 72 70 54
-1.70959 2.17862 -19.1609 126 83 21
-2.13628 0.89856 -20.6348 127 95 39
8.13145 9.54366 -4.68005 100 110 90
9.29411 -2.06884 -6.82269 111 126 108
8.79184 5.48835 -6.61607 113 132 118
-2.58224 3.37305 -17.3462 121 97 39
-0.668133 3.16788 -17.7943 138 105 72
2.11192 12.5786 17.5773 80 71 53
-0.0718231 15.576 -4.46328 102 52 10
7.03005 14.5654 3.83192 72 70 50
5.53401 13.8843 -4.70086 130 111 77
8.26804 11.6003 4.55582 97 117 100
8.99092 -2.7553 -7.42707 129 142 119
-5.1665 -9.40489 -40.7897 75 87 77
5.56765 10.795 -8.12744 100 83 44
6.27617 9.9318 -8.34303 78 84 74
6.91616 11.8542 -1.35615 77 89 76
-2.31588 0.828461 -20.7172 123 95 32
2.89985 15.8009 -0.790603 83 43 7
9.16299 -3.36993 -7.27638 112 120 104
2.04624 12.6222 20.5161 75 43 10
9.4181 5.90146 -2.37899 63 71 62
-6.1874 -9.17258 -44.1761 88 102 87
4.08103 16.1744 2.93827 68 47 9
6.64042 11.6023 13.1483 72 72 54
8.46936 8.41526 -2.23923 58 66 56
4.78345 14.9513 8.57805 70 65 42
5.24759 14.4441 -1.48516 75 63 37
3.93821 13.5424 13.8181 70 66 49
8.07379 4.40081 -7.88687 76 89 77
1.39118 -1.14707 -19.291 124 97 58
7.62554 13.7421 3.1386 77 89 77
-0.13578 11.9114 -9.82281 113 64 2
-3.7897 -5.47406 -29.1295 134 126 87
9.18867 1.87306 -6.11181 99 112 97
6.99826 8.84171 14.2031 70 82 72
5.58839 9.28331 17.7537 62 73 62
-0.255859 -2.65805 -22.3902 133 103 56
7.71446 8.51779 -6.85787 90 89 64
-10.095 -5.99706 -51.8597 81 91 82
2.2756 13.3657 -6.67929 115 87 49
-2.69782 -4.90276 -27.8466 117 105 67
-4.99286 -8.96515 -39.1027 90 102 82
6.31343 14.0411 0.115652 102 114 95
8.96283 1.51085 -6.76456 107 121 102
1.55358 10.9916 -10.1963 136 93 50
9.17174 2.79486 12.3121 66 72 61
8.93215 7.38789 -2.2512 67 75 66
-7.80792 -7.63406 -44.5285 60 68 57
-3.53851 -8.99422 -35.7971 97 112 94
7.04053 9.59592 9.82603 63 75 67
1.1113 17.8707 1.56094 71 47 3
6.02542 14.1637 -0.249535 106 109 78
7.94275 8.0216 -7.60342 96 105 77
-0.559055 2.83212 -18 126 95 60
2.1618 7.2955 -13.2004 141 97 38
8.81876 6.0502 4.71645 64 76 66
2.35181 17.5087 6.66228 71 62 46
-1.43443 1.35869 -19.935 130 97 40
6.95874 10.5247 12.8903 65 77 65
6.87039 8.71377 -8.74363 109 108 83
5.92259 14.992 6.7894 81 76 52
5.39233 -22.1529 -7.48483 61 71 62
0.518021 4.48654 -15.4422 108 95 56
5.31329 15.2362 7.10673 74 48 11
4.20984 15.2385 -0.0322285 85 57 22
5.01524 14.6464 -1.6222 75 73 55
-4.08809 -5.98905 -30.2129 122 123 86
7.4615 13.6419 5.25801 111 93 45
9.45109 4.82833 -3.54102 100 118 99
2.55708 16.2113 26.2307 112 86 60
-1.94197 -5.68397 -27.5604 113 98 61
3.99154 9.90913 -10.9485 149 124 83
-1.84438 -0.220459 -21.7594 152 121 68
6.50644 -20.4944 -9.66644 61 69 58
4.55666 15.0524 8.74592 71 66 42
3.21179 16.3613 8.9142 72 68 46
0.72353 8.21589 -13.2215 141 110 66
4.20077 9.29869 23.127 66 78 67
-1.90149 4.55656 -16.64 153 127 78
0.0322075 15.798 25.8429 104 66 5
8.73642 6.68429 -4.94226 88 107 92
0.301298 18.1325 1.15734 91 59 9
-3.3682 -6.72692 -30.634 102 95 65
3.02913 15.2383 27.0433 65 77 63
4.9952 14.0348 12.6562 75 62 41
3.92042 11.969 -7.59607 100 69 20
3.51881 16.4097 6.42133 71 58 30
3.93171 3.26846 -14.1654 147 144 107
9.48141 -2.7999 14.0417 69 80 69
-0.868149 5.33424 -15.8496 126 86 30
0.86797 -2.30301 -20.9424 153 134 89
-1.53405 2.1332 -19.174 128 91 42
5.68136 13.8256 -4.58682 127 117 87
-3.59409 -5.95674 -29.9353 120 113 72
-0.7584 3.51526 -17.5009 130 91 40
-0.544403 -2.69266 -22.7272 114 88 42
-1.64878 -3.88924 -25.649 94 91 56
6.4069 -23.4468 -7.46564 64 75 64
1.08734 18.1361 9.08767 59 42 16
7.99258 4.57549 -9.37138 88 91 69
6.50253 11.1209 15.3368 58 67 57
7.22934 9.48492 13.23 62 73 63
7.5903 7.79206 9.1267 64 73 64
5.25006 15.6902 4.67556 88 80 56
-0.0868683 -6.18977 -25.7331 103 112 82
5.03373 8.14734 19.1136 89 102 88
1.11803 16.6164 -1.62083 78 64 28
5.77372 13.9638 -0.891314 92 89 63
1.12906 18.0714 2.98009 70 59 35
8.39957 2.83538 -8.0771 60 70 60
-0.911459 10.7687 -11.1579 129 87 53
8.0702 3.84784 -10.292 110 110 90
8.48896 5.96786 -0.916572 108 127 112
1.56056 6.55881 -13.802 152 128 86
-0.198175 7.22158 -14.1764 131 84 44
0.0859604 -2.30925 -21.8398 133 118 77
-1.94798 12.0411 -9.52734 130 83 22
7.18087 8.39864 10.0586 65 75 64
0.55435 18.4385 2.645 81 55 28
-0.45833 14.5498 -6.16334 92 55 5
3.58538 11.9305 22.2288 65 71 59
2.76736 15.4305 25.1277 113 103 87
7.37667 -9.46397 12.2894 89 84 55
-4.19005 -8.49158 -36.1872 85 88 67
6.69821 11.0762 14.3123 67 77 67
9.03803 7.84948 5.65477 65 78 67
1.22025 9.04865 -12.3145 133 101 53
9.57922 0.708645 -5.13511 85 96 85
3.99427 10.812 23.035 62 68 57
6.98981 8.43933 14.3367 69 79 69
-2.10737 -0.180801 -21.7938 134 104 55
4.02002 9.32789 -11.3629 148 124 84
-4.85927 -8.77635 -38.5843 105 110 90
2.20272 10.5737 -10.373 141 98 55
7.69672 8.03295 12.6211 74 87 70
8.90614 2.93901 -6.32936 150 169 142
8.54843 -8.30727 12.408 139 116 65
2.24299 16.2993 26.3288 96 68 18
8.7589 6.8081 -4.73914 86 105 89
-1.02357 3.05402 -18.1107 111 67 5
-0.0975838 11.6508 -10.0535 147 104 71
5.92942 14.8326 7.56508 70 73 55
1.50531 12.4627 19.7224 63 35 0
9.42695 -0.963947 -6.31055 102 116 98
8.42127 3.14222 -8.96459 66 79 67
9.65374 1.60044 -4.44901 76 89 78
3.22462 16.5939 7.06602 69 57 34
-0.430435 17.5492 -0.226826 79 46 8
0.77483 -1.78265 -20.5153 127 102 48
2.34375 -1.76271 -18.4491 99 100 75
9.3351 2.74666 10.998 101 107 90
-6.2229 -9.23054 -44.2778 82 97 83
0.656384 -1.63781 -20.4841 134 107 50
1.79788 17.9106 5.24384 74 50 11
-0.672127 3.38001 -17.6095 150 111 66
5.04568 9.14475 19.836 61 71 61
0.713724 -2.55321 -21.3124 109 98 57
3.79924 14.2799 13.1928 66 60 35
-5.39009 -8.83898 -40.899 64 71 59
-9.78232 -6.35657 -51.9226 119 134 119
0.811037 18.5681 3.88492 80 66 38
8.60533 7.38343 -5.81965 60 69 59
1.90203 17.5296 3.30458 89 65 26
8.30059 3.39268 -6.94966 100 117 102
2.23456 16.8272 1.08469 69 53 33
8.77088 4.40749 2.28025 77 93 82
8.25339 8.67313 -5.23241 102 118 100
8.62351 7.38887 -6.20435 69 79 69
9.55402 -1.96864 -6.14439 98 114 101
1.46145 10.3796 -10.9408 113 77 20
6.95384 11.7433 -1.52266 65 77 67
0.219864 -3.39359 -22.6852 115 103 64
9.79801 -2.09666 13.2504 65 72 60
2.94963 15.3186 -3.98565 103 52 5
5.40321 14.3505 -1.09904 81 79 62
1.44402 9.74359 -11.6272 186 151 81
0.884399 12.2426 19.0495 53 31 0
7.90523 0.454201 14.1931 66 74 63
-9.61907 -6.34547 -51.6367 97 107 93
-2.51066 -8.16142 -31.471 105 100 77
3.65016 15.3835 -3.5686 71 43 19
8.96382 -5.21289 12.8167 108 123 103
6.68814 8.78722 -9.14876 99 109 94
6.95731 5.59355 -11.5961 119 118 96
0.257336 18.373 1.92497 76 46 5
3.35677 13.0241 22.8252 88 90 72
-0.883654 -8.10408 -27.7717 76 84 72
1.36304 12.0758 -9.12719 106 57 8
4.49922 16.0322 3.27333 80 48 12
-0.585915 3.66878 -17.2621 109 80 31
-4.08092 -8.63787 -36.4163 81 86 65
9.53826 -0.350895 -5.71511 82 94 81
-0.775826 1.32586 -19.6372 155 120 60
4.93951 10.517 -9.46682 104 82 32
7.97637 5.0163 -7.87653 99 116 101
7.12611 11.6111 -0.955979 107 128 109
8.80379 8.33101 1.90156 138 160 141
3.02562 15.9326 27.3243 64 74 62
9.76367 -1.17898 13.1706 64 73 62
1.46522 8.98822 -12.2624 158 127 78
1.10036 16.0886 -2.78462 84 49 9
6.40415 -19.4099 -10.4767 63 71 57
2.17608 8.74304 -12.1283 145 129 81
5.72033 15.2662 2.96433 102 72 39
2.62667 8.17102 -12.3534 128 90 44
8.15785 9.72526 -4.26892 69 73 57
-0.647808 -2.55104 -22.7024 125 101 53
9.32852 -3.53372 -6.96308 106 125 106
2.6583 16.9862 4.56923 64 48 17
9.11402 -0.921143 14.1054 66 73 60
0.401714 14.3832 -6.14716 91 50 4
9.10482 4.86443 -4.99254 74 87 72
-5.68733 10.8322 -6.10342 110 84 34
8.92944 1.83241 -6.69778 110 124 104
-1.47824 13.9278 -7.27196 103 64 15
5.83183 14.8797 7.65196 70 74 58
-1.75849 12.8221 -8.71923 117 76 36
4.75765 15.9386 4.43622 95 90 65
8.11029 3.19434 -10.6141 111 128 105
3.30857 10.9765 29.5328 65 74 62
-3.67749 -8.43568 -35.1696 81 83 61
2.35194 14.9432 24.146 135 113 85
7.32209 9.39664 13.0715 63 72 63
-1.22056 15.5153 -4.41815 95 53 4
8.08276 5.18922 10.67 89 93 73
4.8592 0.103432 -13.2281 96 112 98
-1.66239 -8.36841 -29.8051 119 123 99
-2.85191 -9.03402 -33.614 67 72 56
0.114197 -2.51597 -22.0399 175 157 111
3.09809 14.1994 23.8363 92 80 58
8.2388 3.39451 -7.4022 72 85 74
0.342495 17.7709 0.329146 95 67 8
0.273678 3.13317 -16.8926 139 123 80
6.53823 -6.87539 -11.0301 161 150 106
3.74414 10.0366 -10.7714 122 80 23
-2.09521 -7.3121 -29.6656 103 92 68
4.35924 15.0915 -1.65702 77 71 50
0.858196 9.49757 -12.1044 129 82 39
0.800949 -2.60046 -21.2332 110 102 66
-4.65742 -8.25323 -36.6201 93 94 73
2.99331 15.8614 26.1763 80 70 48
0.99938 12.4244 -8.74473 84 49 4
2.7558 12.5813 21.0372 93 59 9
2.16604 8.15026 -12.5426 139 103 53
-3.50728 -5.87841 -29.7389 112 103 65
2.31747 -0.909195 -17.9376 122 118 80
0.549028 -5.84667 -23.7926 91 104 88
8.14054 8.2239 -6.0576 73 69 55
5.28521 14.4466 -1.22243 85 74 47
1.24019 17.9081 2.32226 96 69 36
-3.61174 -4.81232 -28.2808 114 110 77
2.88153 14.1699 13.9112 68 70 54
9.33203 5.43954 -3.71329 100 116 100
-0.309158 4.57205 -16.3888 121 74 18
6.61277 11.1007 14.9309 63 76 65
2.96918 15.4968 -3.46232 74 44 6
7.43839 12.191 0.177427 96 109 92
0.993763 11.6036 -9.81963 109 70 18
1.5884 15.4053 -4.17474 96 48 6
3.48448 9.19209 -11.3081 128 76 2
8.94251 5.01321 -6.24158 89 105 89
8.53765 5.56165 -0.581153 88 108 93
-7.92869 -7.30333 -46.8502 63 72 60
-0.424946 -3.27474 -23.3319 129 102 50
9.56938 2.32533 -4.47554 86 102 89
9.65543 1.68954 12.2325 66 73 62
9.46919 3.52009 -4.67856 76 86 74
-0.0924072 -3.2138 -22.8196 111 89 40
7.45845 11.8413 -0.0684662 111 129 111
7.96974 -7.97434 12.6947 118 110 70
7.405 8.73333 12.3173 76 87 75
4.41294 10.6064 20.892 59 69 57
7.55685 7.92993 11.9407 86 95 79
1.65198 11.9532 -9.12111 100 58 12
-0.710056 2.44422 -18.614 172 136 89
-0.605198 -2.7403 -22.9027 114 89 42
1.97814 13.6365 -6.50191 124 76 26
5.99709 13.6534 -1.18686 70 76 62
4.02192 10.6561 19.0564 68 63 35
-5.33258 -9.03959 -41.3395 70 79 66
1.37144 8.84225 -12.4094 151 116 72
-0.108963 1.00179 -19.0557 112 104 72
-0.918591 -3.51096 -24.0456 115 96 48
5.72665 4.98821 -12.9888 156 134 91
8.36685 2.84766 -7.4132 71 81 69
1.79511 5.43613 -14.1262 152 126 70
-3.03696 -5.43947 -28.752 118 107 70
0.941544 18.5927 5.82733 63 53 25
8.7111 1.77413 -7.19329 99 116 97
2.97646 6.59176 -13.3393 159 134 82
9.65898 -1.9785 -5.3597 72 86 75
9.57384 4.7117 -2.34584 64 75 66
-5.56605 -8.62586 -41.119 66 74 61
8.82813 9.33952 1.94825 132 156 137
5.53905 12.1878 15.2998 70 66 45
8.93368 2.07296 10.3233 145 156 128
3.4059 16.377 7.30181 68 55 42
4.12013 -0.281731 -14.9725 90 93 77
7.62101 5.37091 8.64541 70 81 72
9.97902 -0.504604 11.5561 91 105 89
6.21544 12.4995 12.3193 66 66 50
7.50396 10.46 -2.91577 62 70 60
3.63091 11.8695 23.0044 66 70 60
8.69769 10.7798 4.86504 79 94 81
-4.32853 -8.35543 -36.1438 90 92 69
2.75091 -0.306114 -17.1401 124 115 83
3.47359 11.5004 23.6444 69 77 67
4.72041 14.8614 -1.43106 83 83 66
9.55461 5.01727 -3.23108 91 108 92
1.17857 12.722 21.0506 81 48 3
-1.07472 -7.85965 -28.4301 109 113 91
0.565535 16.743 27.2867 88 53 10
8.27082 3.36748 -7.09874 82 96 83
1.4697 16.1097 -2.44536 89 58 12
8.65236 10.3314 6.51341 70 82 73
2.19742 5.12542 -14.1428 152 131 78
2.77384 8.11592 -12.371 131 90 38
9.65362 3.09228 -3.12168 66 81 70
4.62754 15.5225 0.788226 89 53 6
5.64326 12.0507 -6.32179 111 92 64
7.6636 4.51389 8.75982 113 130 113
-1.96282 13.693 -7.34805 106 72 30
9.22612 -3.99121 -7.51117 107 123 100
-1.31182 12.043 -9.74842 126 78 18
-3.10572 -8.54898 -33.7355 75 74 55
7.53608 8.59459 -7.26179 80 81 70
9.46936 5.87144 -2.72572 66 71 63
-1.94585 1.73764 -19.7006 136 112 56
7.7366 7.35048 12.1072 82 90 74
9.52422 2.44474 -4.73854 73 86 76
8.77005 3.1277 -6.39712 148 168 141
1.48535 7.04435 -13.602 145 106 50
3.13581 14.2113 26.0989 63 72 62
9.01189 9.0847 5.51366 69 81 70
0.151936 6.46457 -14.6828 165 129 72
8.15096 12.5544 2.88727 83 98 84
0.754459 10.7373 -10.9146 108 76 28
3.95247 1.21795 -14.787 130 122 95
6.22063 -14.111 -11.2825 141 154 136
-4.0917 -8.38778 -35.7885 105 108 83
-0.142994 -6.52847 -25.9701 102 113 88
9.28387 6.53421 -2.84089 69 81 70
4.2965 14.5874 12.1192 73 61 40
0.58325 14.2223 -6.44732 87 48 10
2.23939 16.6385 26.9897 90 61 16
6.09148 11.6638 -5.96386 111 119 103
6.03656 12.9658 11.9656 58 69 55
5.0964 15.8882 3.83601 73 64 40
-0.514103 -3.7647 -23.8564 118 99 55
0.827919 18.5669 4.01311 72 59 36
6.75357 14.6034 6.67969 78 72 52
-10.1945 -6.02811 -50.9889 59 63 57
6.16242 14.473 7.71089 71 76 65
0.806938 18.6727 5.57771 67 50 18
3.48111 13.2099 23.5758 89 92 74
6.87769 14.1632 4.85073 70 77 67
9.47928 2.78893 -5.10503 72 85 72
9.88701 -0.0993729 12.5057 66 73 63
8.5248 7.25148 0.26615 120 140 122
0.507454 16.8939 -1.44146 71 46 13
1.41178 15.1799 24.5076 128 116 72
8.39513 11.7014 2.50488 89 107 89
8.82127 4.18135 11.9241 65 66 51
7.30423 8.62936 9.51507 64 74 64
-0.139931 7.8604 -13.6708 115 72 7
0.888046 10.6864 -10.9326 124 91 52
0.573284 18.619 3.50408 76 44 3
2.76291 13.8049 23.0851 103 66 11
-0.362179 -1.10995 -20.9809 99 83 44
7.77979 9.49868 -5.61073 119 125 107
5.33666 14.3625 -1.38836 85 70 42
8.95583 4.78116 -6.23727 103 122 104
0.172117 10.6277 -11.143 115 62 16
1.74475 16.2737 -1.16446 86 65 32
8.31575 2.84787 -10.0419 79 95 81
9.33878 0.412598 -6.24682 95 110 93
2.07899 16.3125 26.2422 85 58 11
8.42905 1.57964 -8.23028 84 100 86
-0.501282 -4.56062 -24.7458 97 83 42
6.38284 12.0683 13.6963 69 68 52
-2.07606 10.5917 -10.8481 125 89 28
8.60583 6.05308 -7.19521 103 121 106
8.60758 6.49655 -0.399735 59 71 59
-0.845951 -3.2015 -23.6532 116 92 40
0.444849 -2.58965 -21.8105 114 95 48
0.64838 5.64214 -14.791 127 91 56
7.41495 5.97673 -9.13079 106 123 107
0.127304 8.45116 -13.1523 126 83 37
-1.39853 -6.68067 -27.9317 144 137 102
8.57939 8.50451 -4.08274 90 103 91
6.84658 14.6108 4.09265 76 73 51
6.20889 14.4023 0.483194 77 86 63
-9.73102 -6.17445 -51.5606 89 92 81
4.67375 15.0299 -0.230367 75 46 8
8.54171 2.24807 9.9592 140 157 133
3.16465 11.9979 15.7908 65 63 42
1.34183 -3.89458 -20.891 104 118 101
3.64729 16.3537 2.33323 64 44 9
6.45337 12.1462 -2.54883 85 101 86
7.84017 -5.80796 -9.98848 146 141 105
1.38193 18.1681 4.36086 70 53 22
-4.77239 -8.71157 -38.2772 83 90 73
2.88165 13.2402 27.4305 62 73 63
5.27324 14.7853 8.36053 71 73 55
-0.553169 3.49086 -17.4434 149 116 70
1.6172 9.21041 -11.971 161 127 74
-2.08601 2.32829 -19.0171 128 89 15
0.210428 14.3547 -6.2571 91 49 3
-3.5755 -8.68832 -35.5173 82 90 71
1.29119 18.1248 8.37182 62 54 35
-4.8043 -9.20367 -39.2492 88 95 79
0.983089 -2.66821 -21.0813 130 126 94
8.97746 6.25555 1.68855 69 80 70
1.70968 15.4744 13.5339 63 48 23
8.96987 6.75034 -4.18261 88 96 85
6.1362 -12.4055 -11.4013 154 157 126
8.71888 10.782 5.00134 76 90 78
-1.57396 2.30782 -18.9871 132 84 15
2.01336 12.5968 20.3901 74 43 11
8.22325 8.71875 -0.581468 63 73 60
-1.05344 2.16888 -19.0271 130 92 51
1.86785 -2.52416 -19.6953 105 119 99
3.57724 16.3525 6.23056 85 74 46
6.57578 8.12159 -10.0094 105 122 107
0.915211 -3.75305 -21.9119 93 108 89
8.18297 12.5248 3.30175 63 76 66
-2.33311 -3.55317 -26.1021 170 146 92
8.29406 12.3692 6.38195 61 76 67
9.51264 -0.356842 -5.86821 83 92 81
5.67418 14.992 0.652976 83 72 41
3.85834 15.8651 8.82298 70 68 54
3.82281 16.1928 6.47698 66 59 42
8.71988 -1.41399 -7.56957 124 142 122
9.1624 0.679607 -6.6229 102 117 99
-1.36402 -7.99104 -28.9111 110 120 88
7.71563 13.5759 3.28448 75 87 73
2.00927 6.10079 -13.7877 168 129 79
5.14984 14.5438 -1.47731 79 69 41
8.14487 1.74606 -9.73316 74 88 76
1.82448 14.9009 24.067 151 135 99
9.47047 2.54774 11.6373 63 65 51
8.02798 10.3282 8.17498 70 81 73
3.26092 15.5012 -1.36366 89 65 30
3.53453 0.782822 -15.4264 138 117 71
2.4371 -1.29295 -17.9873 124 123 90
2.35323 15.5304 -3.63106 74 41 10
-0.199526 15.0594 -5.38447 83 46 3
7.40477 8.35276 -8.10148 105 102 80
8.8018 7.67904 1.03741 86 100 85
7.32141 8.08334 10.2382 87 100 85
-1.51809 -4.28168 -25.723 105 98 60
8.94489 9.1761 5.80675 70 83 73
5.38614 9.44978 18.053 62 70 61
7.18525 9.49068 13.3492 63 74 64
5.39532 15.0894 0.427204 93 72 42
8.51718 7.19176 -0.756912 91 108 91
6.13504 12.6618 12.0126 69 74 59
7.61044 7.12333 11.4042 77 86 71
6.3024 12.8696 -1.73711 83 96 83
3.72758 11.7679 21.4585 70 67 44
3.23349 1.68953 -15.326 133 124 94
2.89549 16.2636 0.337596 110 82 40
2.29732 16.1891 26.0855 80 50 22
6.18843 12.6449 11.1275 64 71 63
6.77924 -20.7214 -11.1693 149 146 121
-9.09842 -6.60894 -50.6667 76 86 74
8.73912 10.7103 5.57981 64 76 66
8.31756 11.6476 2.11345 97 113 93
6.17137 12.7732 -2.99538 64 78 67
0.992512 9.42659 -12.1217 129 85 43
0.329828 15.1852 25.0346 96 62 3
6.20647 12.5115 12.1735 64 64 49
-3.29873 -6.92893 -30.6785 103 95 64
3.0541 11.4527 17.5305 67 67 48
-2.00238 12.1918 -9.37117 130 74 22
7.6465 6.59099 10.4825 86 97 81
7.74074 -21.6376 -10.6313 123 114 84
-1.15147 -3.71708 -24.5918 112 96 56
0.337191 5.47225 -15.1661 116 83 39
1.33274 13.9007 -6.55085 98 58 6
6.00106 -19.3526 -9.77981 62 74 63
-3.45037 -6.06119 -29.9544 124 115 74
2.87581 13.3466 28.1101 68 79 68
-5.3734 -8.8084 -40.4399 69 76 62
8.42826 6.69958 -1.13119 87 103 89
0.837437 15.826 25.5351 103 65 9
-0.558041 3.26889 -17.6283 177 145 104
7.42256 13.3453 7.36366 68 77 66
5.91984 15.2437 3.19138 82 51 10
-1.5962 2.81079 -18.4956 120 74 21
1.22857 18.402 6.59433 65 39 8
8.34356 -10.0265 11.726 148 146 116
6.56689 10.7817 15.3429 67 76 67
6.84923 6.27598 -10.8215 86 96 82
7.30353 12.9868 7.75741 67 76 67
4.61617 -5.10307 -11.2981 170 188 158
0.0100899 11.854 -9.84175 115 64 2
1.32271 13.622 22.8139 102 65 18
-0.364769 15.8679 26.2397 78 44 9
-0.976755 4.60765 -16.5525 119 75 1
1.33993 7.36455 -13.4867 152 119 61
2.7971 14.9257 -4.61505 107 63 34
4.06454 10.7919 22.4214 68 70 59
-1.2879 1.50351 -19.7569 133 105 51
-3.6243 -6.70044 -30.9913 104 96 68
5.37915 -5.64102 -11.063 161 171 138
7.65127 5.34181 8.95359 75 86 75
2.31357 14.596 -5.14945 96 50 8
3.1081 12.4188 15.2323 68 65 43
2.54814 7.93401 -12.5985 140 88 29
-0.722389 4.18036 -16.8798 133 105 47
2.09682 12.5266 20.0979 81 41 4
0.855579 11.6666 -9.80128 103 71 19
8.32434 12.4836 5.96892 63 73 65
0.119869 11.7178 -9.9339 127 82 30
8.51191 8.75057 -2.56192 58 67 57
0.465988 14.8703 -5.47918 100 59 11
-1.75548 13.7678 -7.37572 111 69 30
-6.08811 -9.02017 -43.9263 97 110 94
2.58379 16.5512 0.385922 92 78 42
1.01219 11.4399 -9.97257 128 87 28
9.05444 8.52615 3.84989 66 78 68
9.1643 -6.80042 -8.61556 72 83 69
2.27624 9.77116 -11.0556 117 83 36
0.248711 -2.2509 -21.5706 118 99 54
1.60242 5.67983 -14.0915 158 141 103
1.23903 5.54381 -14.381 154 128 83
-4.89093 -9.55019 -39.7255 79 92 77
8.16448 5.04735 10.6771 85 87 68
-1.6015 0.46891 -20.9882 185 158 97
3.58334 10.898 18.5024 86 52 4
5.68689 -20.1574 -8.96252 64 76 66
8.06895 12.5473 2.35228 92 108 100
3.64465 10.7113 18.1574 102 63 14
1.82927 16.8711 11.4081 62 49 23
8.32805 8.41099 -0.616275 59 69 58
8.89642 7.42504 4.73852 90 106 92
4.22818 9.55611 23.016 68 80 69
4.39107 -0.25885 -14.3448 97 110 96
0.222012 0.118244 -19.1833 129 99 34
-0.0603733 11.4629 -10.2093 152 114 71
6.03652 -14.6329 -11.4702 109 126 110
0.885796 17.5732 0.18766 114 80 38
4.26682 11.6583 -8.48297 94 65 22
-0.389231 -2.907 -22.8407 106 80 32
1.31155 -0.434746 -18.8111 126 96 56
3.01661 13.8552 23.2866 107 75 37
8.58969 1.69017 -7.63677 97 115 98
-0.899136 -3.73333 -24.2549 113 96 53
7.90454 -7.78749 12.8541 120 115 81
0.820591 11.8131 -9.64721 101 64 6
8.32123 0.850555 -8.6505 100 119 103
9.40606 2.69287 -5.49123 96 112 98
-0.654434 -1.83537 -22.0843 106 89 38
5.26243 13.8715 12.5699 65 63 43
2.44921 15.0828 -4.4318 98 53 5
2.31008 14.5098 14.319 62 61 42
8.64083 5.99796 0.100579 65 77 67
7.86267 3.46423 9.0759 132 149 129
-0.0231628 18.6769 4.76385 62 45 23
-1.50014 2.37729 -18.8892 168 123 52
2.51583 12.4168 20.0091 86 46 3
6.326 14.4802 2.09838 100 83 37
1.36506 -2.04266 -20.1743 119 108 74
1.44305 7.83951 -13.0838 189 165 106
-0.0621109 10.1659 -11.5294 148 107 48
0.641356 16.5063 -2.33346 77 50 11
-0.881847 12.1915 -9.65164 105 62 11
8.84313 1.97139 10.2139 150 162 133
8.01373 8.06155 -7.32717 85 85 55
-10.4117 -5.86846 -51.6433 58 70 58
-1.57949 10.0205 -11.7164 116 78 29
-1.16937 12.4648 -9.32114 116 79 34
1.38605 9.39209 -11.9342 157 119 64
3.53147 15.8469 0.291412 81 66 39
3.58815 14.0709 -5.51791 99 56 5
7.71656 13.5386 3.81753 66 78 66
2.87666 16.8652 6.68409 102 102 70
8.71215 9.35972 1.78652 132 154 134
3.2249 11.7113 28.8842 65 68 56
1.73874 14.9915 -4.72227 100 57 0
3.7313 10.5434 17.3987 75 54 27
-0.356087 10.4714 -11.3346 133 78 16
1.14131 11.3673 -9.99006 122 77 17
3.39535 14.4853 13.3498 67 66 49
7.71061 10.0261 -5.33535 113 128 111
0.107868 3.94937 -16.5664 111 88 49
7.57265 8.24725 13.7544 64 70 62
-0.490906 17.9776 0.668727 75 46 5
-0.213749 -6.88966 -26.2126 105 124 102
9.26789 4.78507 -4.05658 95 111 94
-1.05306 12.8406 -8.89762 105 70 27
2.69815 5.95164 -13.7056 146 107 43
9.02243 8.61059 5.74348 66 78 68
6.59097 11.7419 10.492 66 79 69
8.09046 12.5502 2.48557 80 96 88
3.24339 14.1163 13.6534 66 70 60
9.42585 6.02509 -2.97922 73 82 71
-1.68657 1.22597 -20.1971 107 75 14
1.07826 12.3146 -8.89821 93 53 3
7.93724 9.94481 8.57885 62 72 64
2.10211 17.6818 6.28359 75 54 18
5.67257 14.0723 -1.0183 70 71 54
7.69911 8.22466 13.4119 67 75 64
1.21832 15.7059 25.3152 108 75 26
7.60653 6.75677 9.23023 70 82 71
7.51012 -3.53291 -9.40302 151 156 118
-2.25652 -8.3657 -31.2446 95 101 73
4.33564 -0.488857 -14.4681 99 113 100
7.72483 5.43626 9.48201 92 103 87
0.666107 6.73471 -14.2395 142 110 57
-1.42491 -3.07726 -24.3621 108 90 50
6.76843 10.065 10.3981 65 75 66
7.6601 5.59935 9.46633 82 92 77
2.16485 6.04065 -13.7547 161 124 72
-0.593676 5.19387 -15.8894 136 101 47
6.55859 14.6489 2.56676 92 64 12
1.24657 -3.18544 -20.9962 112 122 100
4.85129 9.8846 19.7011 102 101 78
5.55732 7.41969 -11.8065 157 136 93
8.64809 7.38813 -4.89792 82 96 84
5.30993 14.3744 -1.65996 74 69 48
8.26943 11.9298 3.7946 64 76 67
0.613167 16.4557 26.7142 82 48 10
1.77298 17.7277 3.46878 81 53 13
6.89052 13.7552 1.78233 111 89 48
8.45107 11.6493 2.94765 66 78 68
-0.181026 15.4416 -4.76226 98 52 6
0.0996437 5.12011 -15.6475 126 93 55
3.3891 15.4629 -1.38313 90 66 37
5.45809 14.2757 -1.26797 81 74 54
-2.28017 -0.127155 -21.7815 130 103 52
0.642193 17.9633 0.798119 75 59 27
5.08287 12.8874 14.42 66 46 18
8.32688 9.16871 -4.51047 101 114 97
-9.52365 -6.38432 -49.9404 58 67 60
-1.76322 1.11622 -20.3744 123 89 35
0.273878 3.88998 -16.4299 109 87 50
-1.45729 0.908058 -20.4898 138 108 57
4.8798 14.4402 10.2044 73 68 49
5.22687 15.1014 7.88299 74 63 46
8.20469 12.0399 2.21217 86 98 83
2.38594 13.0509 15.7647 67 66 49
4.75412 11.2467 -8.72153 142 124 85
9.05251 6.12765 -4.15781 96 113 97
8.55863 7.83122 0.414516 120 141 124
-4.97016 -9.0852 -39.4083 82 89 73
7.50232 5.39304 -9.29675 93 105 90
3.50767 8.94688 -11.4687 132 84 6
8.96242 2.75682 -6.33364 146 163 137
9.51483 5.34708 -3.28898 90 104 89
2.34596 7.7029 -12.802 131 87 28
8.11848 12.6789 3.15512 66 78 68
8.31761 3.08938 -7.30561 67 79 67
4.61988 15.7989 1.81845 87 78 55
8.81817 7.67 1.18193 70 80 68
5.90167 14.2092 -3.00357 60 74 57
3.56705 16.559 4.18172 67 51 18
3.28814 16.3139 8.73823 79 70 54
8.59383 1.27692 -7.74032 107 126 109
3.42448 13.5961 23.846 76 70 51
2.29539 -2.69975 -18.7393 82 102 87
-0.227604 11.7069 -10.0357 130 87 56
-5.90025 -8.7897 -43.2764 67 78 64
6.42939 13.938 0.24167 85 99 84
3.58426 11.4828 23.3167 63 72 61
-4.31367 -6.38806 -31.1218 102 99 69
-2.26461 -8.00121 -30.5351 95 90 63
5.41708 14.3128 -1.81494 72 73 58
-0.384018 -7.65797 -26.711 85 99 84
1.29229 16.9883 11.5184 55 48 22
2.15841 13.4494 15.5792 64 65 50
5.78989 14.9711 1.57077 74 73 60
8.63552 7.95804 -4.3466 85 104 90
-5.27455 -8.78069 -39.8822 64 68 56
1.79978 11.482 -9.71983 150 118 56
4.10049 15.2769 -0.380548 90 73 51
8.39697 2.23339 9.81306 152 169 143
8.03616 4.57142 -7.73272 81 96 84
0.531448 11.9274 -9.60932 99 54 11
9.45564 2.1999 -5.32804 91 107 90
-0.177601 5.32392 -15.6945 141 106 63
1.55583 18.1468 5.67981 66 51 23
-0.490852 2.03036 -18.7458 127 101 60
-0.560749 4.33792 -16.7139 132 87 27
-0.613003 10.457 -11.3553 131 93 40
8.89155 6.78457 -4.39069 102 115 100
3.15991 14.8028 13.2035 67 64 40
7.35956 8.62217 9.4198 63 73 64
1.10397 4.96892 -14.7277 154 129 83
1.47358 -3.63364 -20.6869 101 116 99
2.02751 17.0537 0.723865 72 60 36
2.19262 17.3657 3.93466 70 60 39
-0.43425 4.24368 -16.7316 146 104 43
7.70694 6.01775 10.1329 86 98 82
0.105005 4.82646 -15.8365 123 98 60
0.303726 17.5947 0.0764675 98 67 22
8.95139 5.63347 3.58296 75 88 77
6.59199 13.4803 8.21761 68 71 58
8.26906 3.2799 -7.30076 71 83 72
7.45866 8.12517 11.7604 92 103 85
0.262913 4.75483 -15.7025 110 93 60
6.89132 -5.47742 -10.525 143 126 72
2.42146 16.6532 11.0409 70 53 48
8.1532 3.93307 -0.898495 119 142 122
4.82035 14.1347 12.1154 72 63 36
1.26827 18.2551 4.23757 70 57 28
9.10836 0.693954 10.4149 150 162 137
1.80087 4.99672 -14.3152 174 139 86
7.46417 10.5627 -1.21232 90 109 98
7.45105 8.0136 11.5776 76 86 72
2.51627 14.5547 13.9368 65 66 52
4.21473 15.3067 9.97344 78 59 19
9.39869 1.26877 12.7414 65 74 61
-0.274178 11.8763 -9.88016 112 69 13
7.4085 13.8273 2.33365 100 112 99
8.44061 8.93089 0.360513 111 128 110
7.83055 8.74025 -6.02209 104 123 112
9.73855 1.09444 10.7563 137 147 123
8.21632 7.82047 -1.35468 106 125 111
-0.924805 11.6877 -10.2409 134 89 27
8.9248 6.43365 2.07923 69 81 70
6.90131 -20.3965 -10.3043 63 68 57
4.45312 14.9605 9.48239 69 65 46
9.77266 -0.00517273 12.6742 67 75 65
-5.02824 -8.98656 -39.2944 72 81 65
2.87167 15.5589 -3.31583 79 50 11
9.04065 9.22567 2.29966 99 115 102
0.614901 -2.67423 -21.6659 96 86 49
1.05412 18.1984 8.54584 59 46 28
8.44353 11.3096 3.70802 69 81 71
0.766003 7.34938 -13.8053 143 108 66
-1.09979 9.49778 -12.2475 145 116 81
1.95678 7.33498 -13.241 138 107 60
8.16048 4.15291 -7.29621 96 115 101
-2.16541 9.13154 -12.3105 121 79 25
8.14274 4.45758 -7.40276 102 120 106
5.55192 13.0814 13.6527 71 62 34
3.40618 12.0952 26.652 62 66 54
-0.734959 16.4427 -2.90564 79 38 6
6.82458 8.10424 -9.46378 113 123 100
9.04885 -2.10188 -7.27971 134 149 126
9.06601 9.01344 3.53245 68 80 71
5.7134 -19.4327 -9.37421 65 77 65
-0.0258503 10.8236 -10.965 141 84 60
5.9371 13.6657 9.72856 73 72 57
-0.0132141 -4.10622 -23.6464 124 104 63
7.41639 8.71995 -7.53175 71 83 69
2.73426 13.5339 22.6648 100 66 2
1.65712 -1.41845 -19.1832 121 107 72
5.42427 14.5536 -2.1112 75 77 59
2.03274 17.213 10.1696 65 56 40
8.86335 -4.95073 -8.60636 117 132 110
-3.85696 -8.42467 -35.4348 99 106 81
4.13253 15.3396 0.104632 92 58 16
3.14701 8.46761 -11.9449 120 90 35
1.51416 -2.33757 -20.148 111 115 90
-2.2499 -4.9711 -27.2455 119 115 66
5.49197 15.0455 7.831 70 70 57
-2.0409 1.83467 -19.5848 126 95 40
3.44734 12.4158 22.1033 67 61 45
2.69408 15.5403 -3.41917 77 43 9
1.5107 8.12564 -12.8473 170 131 93
7.17089 12.6781 8.98212 67 75 62
-2.49905 -4.63072 -27.2618 115 103 66
-2.27828 -0.8778 -22.6946 112 95 53
2.88786 16.68 2.03977 83 49 4
-5.68136 11.1052 -5.44297 93 74 43
1.45478 8.4801 -12.6699 203 167 116
4.23917 3.73503 -13.8437 143 138 100
1.69317 13.3122 22.0965 132 111 83
-0.847916 6.21001 -15.1346 125 73 16
6.76065 10.8533 11.3008 91 110 92
3.90752 1.41895 -14.7675 140 129 96
9.03613 -4.04585 -7.92158 109 114 93
-2.17164 11.0241 -10.4162 123 84 17
5.85691 14.9212 1.16229 72 73 56
2.77395 12.841 21.6191 95 66 44
8.52459 7.29018 -0.694077 91 106 90
9.24196 6.69122 -2.69771 72 83 73
5.21547 15.134 0.352082 93 68 31
0.441399 -1.66105 -20.6414 161 125 64
6.88963 3.7177 -12.1325 129 149 127
5.49489 14.2746 -0.999372 80 82 67
10.0554 -0.342636 11.8695 70 78 64
0.554474 10.9273 -10.7377 110 70 17
5.42439 10.2051 -9.78461 86 63 32
-2.7636 -5.35769 -28.3077 114 104 69
8.7674 6.20704 -5.30073 68 80 69
-4.16454 -8.70985 -36.806 84 90 71
1.21971 7.25456 -13.6358 180 142 79
2.81614 16.5757 1.5671 70 47 7
2.49686 15.1402 24.2828 125 102 41
2.09048 15.6001 25.0521 95 57 3
2.99381 12.4484 27.7183 64 73 62
6.64332 13.828 0.864218 99 100 82
