ply
format ascii 1.0
comment Created by Open3D
element vertex 1378
property double x
property double y
property double z
property uchar red
property uchar green
property uchar blue
end_header
-5.05304 0.302509 -15.2156 104 105 79
8.56274 7.18708 -7.20905 85 97 83
-3.49504 13.9723 -2.12975 74 44 8
-2.32626 6.07505 -14.8517 139 115 89
-6.15805 -8.21275 -41.0512 62 70 59
1.77932 17.6319 9.13458 62 56 36
0.546146 7.45326 -13.8681 148 119 78
7.16686 -1.40658 -9.30327 129 150 128
7.58587 13.7181 5.62558 105 92 56
-2.34022 -8.26753 -31.3113 103 106 80
4.12998 16.1523 5.029 85 74 54
7.56019 6.50405 9.45727 73 85 74
6.79025 9.38371 -8.016 105 114 95
6.84188 10.5426 -6.17567 126 133 109
5.86207 8.61562 -10.6028 102 114 97
-6.59149 -21.6329 3.58323 76 89 80
0.641833 0.0596085 -18.8663 126 89 37
8.59392 -1.64952 14.6337 67 78 67
0.415546 -1.18179 -20.1924 127 100 49
2.6955 13.5966 22.7401 107 70 6
-4.73285 11.1902 9.17962 63 70 57
-2.94933 -7.87034 -31.7092 98 91 63
6.50111 14.7615 2.70229 91 67 21
0.222458 -0.34745 -19.5723 115 88 32
-2.43097 -3.12895 -25.7555 122 105 65
3.75075 16.4693 4.0906 66 52 16
-1.81734 -3.14594 -25.0704 112 93 52
-5.20284 -8.56988 -31.7276 63 70 60
-0.129608 4.85167 -15.9899 138 106 64
1.16798 14.0999 15.1758 64 51 32
6.99617 11.5845 -1.79278 76 85 73
8.20822 10.2853 1.22145 89 102 90
5.9342 13.5762 -2.0666 62 76 65
-2.00046 -6.33312 -28.3234 108 95 63
-0.611298 12.9175 -8.6325 97 60 9
6.09437 10.7588 -7.40424 78 67 45
-5.88169 -8.37501 -41.5039 72 77 65
6.52148 4.69669 -12.4841 153 155 129
-2.83269 -3.25446 -26.056 128 108 56
-1.87156 -8.78264 -30.1651 96 113 93
-3.56339 -2.44803 27.053 69 74 59
-1.72786 16.5313 1.02814 57 37 3
-0.244049 15.4402 25.6232 91 55 16
-3.68521 -6.74614 -31.1816 99 92 64
7.35241 10.7569 -1.4296 78 96 81
2.97849 15.62 -1.14483 87 58 12
5.56483 13.2949 -4.84147 149 151 126
-8.4382 -7.79655 -49.7363 100 118 104
6.30344 10.9541 -6.61454 98 84 58
3.72579 8.4791 -11.8107 134 87 31
-2.75099 3.34682 -17.2192 135 119 68
-7.20649 -7.74791 -43.8386 60 69 55
0.178488 16.3168 26.6652 94 52 7
4.2122 15.4766 8.65773 68 64 49
3.11435 8.82294 -11.6291 154 125 69
-4.20414 -8.35556 -35.91 105 107 81
1.78812 14.8672 34.8443 64 70 59
5.02011 8.72408 19.4419 60 73 61
6.93617 10.2374 11.2881 110 122 101
7.15249 -20.7951 -10.1477 58 58 46
-4.83919 11.7732 8.4399 56 48 29
8.68522 4.80912 -6.73295 129 151 132
6.03469 12.2936 -5.13654 74 69 48
-3.24383 -7.95933 -32.3883 94 87 60
1.10803 2.00691 -16.8857 130 100 54
-2.55442 10.4416 -10.696 129 103 64
-3.98207 -1.74527 25.9858 57 51 32
8.17824 12.4971 3.44685 65 77 68
0.786215 2.77432 -16.6063 100 71 33
6.62712 11.8258 -2.4287 116 133 114
2.96857 10.032 -10.6837 114 78 32
-5.14687 -1.55155 -16.3138 101 108 85
1.86663 -1.3223 -18.9466 125 123 80
4.0558 16.2687 3.46087 75 67 42
-1.13887 -2.35374 -23.2068 114 99 54
0.872123 -5.09639 -22.6055 86 104 88
5.33987 -15.0647 -12.1808 156 164 136
6.13276 -20.6615 -11.519 174 167 126
8.97767 7.72968 2.16636 127 149 130
-3.60278 -3.79805 -26.4688 79 71 50
3.36207 12.9322 22.7269 79 85 69
-6.58645 -8.0352 -43.3015 65 73 60
1.25939 11.6494 -9.70455 114 62 25
-4.16325 8.4019 -10.5464 117 110 81
0.183765 17.4732 -0.353813 90 58 19
0.00450659 11.7443 38.9338 71 86 72
4.57306 -9.67273 -11.833 159 170 139
4.01722 16.189 2.41572 69 59 39
-8.34708 -23.1772 1.58568 113 138 121
5.08534 -20.6744 -11.4953 182 187 152
-4.41469 -5.95807 -25.1049 92 96 76
0.686024 -5.89268 -23.2662 74 86 72
6.17196 12.8954 -2.31995 81 96 77
-3.1946 -26.4659 4.63415 92 102 84
1.93176 10.9516 -10.096 123 83 37
7.24005 14.0017 6.97586 71 79 63
3.22731 3.00031 -14.7464 125 116 78
6.29068 -23.8518 -7.22408 62 74 62
5.95847 13.9536 8.59365 73 70 50
1.91186 9.36796 -11.7893 123 87 26
-5.71619 -23.2011 3.54348 59 72 63
-0.63567 -6.69047 -26.8348 108 103 78
4.64868 11.3914 -8.67621 123 95 47
-5.5506 6.4001 -10.4916 142 131 95
0.942537 12.7902 -8.30882 106 58 14
-8.22771 0.8918 -8.09834 76 87 74
-2.94967 -7.36653 -30.6018 106 94 61
4.0932 9.23156 -11.4221 144 122 89
-5.86788 -21.9752 3.22045 59 73 62
5.41687 15.225 1.11931 79 67 32
9.37946 6.0011 -2.35329 65 72 64
4.28724 8.62584 -11.7617 182 158 111
-1.48264 15.6709 -3.83469 80 47 7
3.39201 1.11918 -15.3867 141 128 86
-5.3803 11.4133 -5.095 87 80 56
8.71611 -2.47996 14.7776 67 77 66
-2.3316 -9.92735 -30.9792 73 89 74
-8.68399 -7.36528 -50.1988 98 108 95
3.5301 15.5293 11.6744 65 63 45
3.58146 13.2979 14.1666 67 66 51
3.28896 7.66211 -12.6436 130 90 39
8.18245 12.4059 2.76224 85 102 89
-4.05483 -8.69565 -36.5211 82 88 67
-2.46819 -0.60067 -22.2958 134 112 62
-4.35609 12.7686 -3.88605 95 65 4
-1.15788 15.913 32.9048 49 35 12
2.02007 2.1976 -15.982 131 100 59
0.859884 13.6972 37.3257 63 66 46
0.87731 18.4468 4.9481 67 54 31
-7.61276 -7.46017 -46.2258 69 78 67
8.37571 4.40288 10.2894 91 92 69
9.38409 4.07682 -4.39039 78 91 76
2.60543 1.85861 -15.7516 136 122 82
1.74364 4.63231 -14.5612 139 104 43
-5.32711 12.7996 0.270187 57 61 47
1.20479 12.6834 20.9485 82 47 5
0.840714 18.0592 1.60675 82 52 11
4.57913 12.7723 -6.11524 109 104 78
2.16474 11.1566 -9.75262 104 71 18
5.97381 -23.5505 -7.16702 63 75 63
9.27533 -1.13245 -6.67799 95 112 93
-7.63279 -4.37746 -0.879829 73 88 75
3.09097 13.8991 -5.8982 113 65 10
9.19604 5.98633 -3.87606 94 111 95
-0.162766 16.3687 -2.99636 86 45 6
4.44493 15.7499 1.28416 89 63 15
-2.85227 -6.32249 -29.4581 113 104 66
1.44081 15.1006 24.4147 118 98 58
7.45916 7.69675 10.5536 70 81 69
-1.17412 -0.740433 -21.892 109 87 46
6.47715 13.3138 9.46587 68 81 66
5.37449 -12.0608 -11.7738 158 169 135
-4.22798 -7.8911 -34.8508 91 89 68
7.04888 -23.7988 -7.96281 61 73 62
7.15664 10.3907 12.4123 62 68 56
-1.96596 -3.40237 -25.5699 99 85 45
7.94575 6.46651 11.9546 92 95 74
-4.56199 -8.16197 -36.1566 84 86 65
4.19184 14.7442 11.8945 69 59 35
2.09583 17.4266 30.4188 66 54 31
-6.01075 -8.22118 -39.955 63 73 57
8.42723 0.461128 13.8932 65 74 61
-2.03368 12.2495 -9.292 120 68 13
2.33012 17.2543 4.32432 78 66 40
-2.62581 -28.5793 7.08013 60 67 53
7.24549 12.3134 9.19511 75 82 71
-9.60699 -6.31228 -51.5675 95 104 88
-0.798083 15.8895 35.513 50 33 4
-4.0821 -26.2142 3.44609 146 170 148
-6.0452 -26.0326 8.04575 59 68 56
3.2947 2.80243 -14.812 130 121 85
2.01189 17.6141 29.9733 59 52 30
7.9634 10.0403 -4.2193 62 65 51
-1.52703 8.26017 20.3584 61 61 44
-0.282764 1.44066 -18.9811 109 94 69
-0.936104 -7.16032 -27.6303 120 125 90
7.63374 4.1748 -11.1299 125 139 123
8.45542 -1.97479 14.7886 67 76 65
-4.26455 7.58525 -11.1635 111 105 74
2.76264 16.8714 8.05305 68 59 34
1.42446 15.3244 35.1329 67 70 57
4.02207 1.14389 -14.7227 130 125 105
0.92569 16.7937 27.2639 88 47 5
-7.54747 -3.70382 -1.69236 71 87 74
3.52924 14.336 13.3649 66 66 49
0.49371 15.762 -4.03948 110 68 30
0.10989 10.6923 -11.076 119 63 28
4.01175 15.4906 9.48574 67 63 44
2.39943 15.6418 -3.15707 79 49 20
6.40437 5.11516 -12.4549 134 137 107
1.45723 15.9542 34.1882 64 56 35
-10.2797 -5.8788 -51.7151 60 71 60
3.55709 15.6974 -0.442452 81 65 40
-4.68385 -7.11501 -32.8437 80 77 56
0.0871201 16.3556 34.1094 51 30 0
8.04512 11.521 1.63334 149 171 143
4.19014 7.91238 -12.2275 160 138 97
-2.77741 -1.31582 -23.297 115 96 55
0.718349 14.85 -5.46038 101 61 23
6.91632 8.92074 -8.31935 101 101 82
-1.97119 6.4182 -14.8773 134 87 33
6.34385 -1.59428 -10.2575 134 156 135
4.68353 14.17 -5.04806 153 122 78
0.602272 17.0049 32.2821 58 42 6
-6.9831 -7.77742 -44.8057 61 71 61
7.19162 10.338 -5.68249 108 95 65
-0.408501 13.0056 38.6921 72 77 67
7.69232 5.42126 9.33983 87 98 83
-7.60682 5.64699 -5.89547 84 96 82
0.618378 16.9678 -0.975266 109 90 63
-7.60249 -7.44363 -45.4307 60 70 59
-1.52679 -3.86678 -25.3852 104 97 61
5.32352 10.1807 -9.92596 93 64 27
-3.54598 1.89635 -16.522 72 77 62
1.17587 12.3468 18.7449 63 47 12
1.57677 -0.637691 -18.7492 119 94 45
8.20231 8.0886 -6.73996 83 74 49
9.33363 4.32765 -4.24487 80 90 76
-1.95433 8.35068 17.9447 51 46 30
-3.782 14.1359 -0.808529 57 38 7
-6.95321 -22.4898 3.86983 71 85 74
2.93811 11.9993 -8.02136 80 47 14
0.152069 0.291752 -19.158 131 102 42
8.3033 8.58076 -5.19068 97 113 96
8.75814 -24.181 -9.06188 62 70 62
3.99907 14.9225 11.9584 68 63 36
0.151485 15.2058 -4.95209 105 62 16
5.00753 0.935318 -12.6306 101 117 101
6.64823 13.2224 -0.314651 117 121 91
1.79933 11.5711 -9.62697 107 74 17
-1.00376 16.4567 32.2006 48 37 13
2.0148 12.3961 19.4595 69 38 6
1.18044 -0.34819 -18.7867 119 88 39
-3.25018 3.48657 -16.3512 101 99 70
2.95921 14.8524 13.2561 69 67 44
-2.42047 14.1071 -5.29237 146 129 90
4.71932 15.4736 6.0209 74 65 39
2.9598 16.7956 4.27174 61 43 10
6.31525 13.3897 9.60703 73 79 68
9.50784 2.74923 -4.79841 73 87 75
3.43004 12.4021 21.9191 88 70 41
-0.478499 13.9632 37.8213 78 93 79
3.37225 11.8945 27.06 62 67 57
5.50629 -14.2193 -12.0559 150 162 125
0.37035 15.1257 24.9566 93 62 6
-1.73077 1.29039 -20.0981 114 82 17
4.59123 14.483 11.7728 67 66 46
-8.11686 5.68832 0.866234 65 78 67
-1.49199 -4.52329 -25.8767 121 101 62
5.34907 10.7136 -8.63659 92 68 36
8.72126 10.3929 4.78362 93 111 96
-3.31667 7.68594 -12.7738 136 124 93
-5.78411 8.28781 -8.51571 134 115 68
1.34014 18.2229 7.1388 65 51 27
8.90595 -0.443562 10.5657 164 182 153
-5.32963 13.1462 -1.75406 91 78 40
7.78148 8.79164 -6.07639 104 122 110
7.62263 3.26142 8.79807 136 156 137
2.16856 12.4963 19.9983 81 41 5
-4.00704 12.6549 8.22626 43 35 10
0.118095 12.2796 -9.2582 116 75 41
-3.27057 -0.88728 25.8536 54 47 25
1.64222 14.5735 -5.46078 99 62 26
-4.35869 -4.57307 27.5902 68 80 69
-1.51258 -5.29499 -26.6188 119 110 66
7.20597 4.814 -11.6588 124 137 117
-0.269473 -3.24464 -23.1139 108 84 37
-7.95449 -10.0652 -41.7688 58 65 58
-0.848103 10.6001 -11.2773 151 119 82
6.62059 10.44 10.5875 66 75 66
1.90313 16.4394 12.18 61 50 25
3.34402 11.209 28.8043 62 68 54
7.55829 13.9145 3.86613 66 78 68
8.50738 5.32677 -7.0689 110 131 113
1.41589 17.4876 31.0343 67 48 20
5.94904 -9.63447 13.1515 74 73 44
-1.31204 -2.27464 -23.3527 110 93 49
8.43343 5.32275 12.3917 67 72 59
4.47911 14.4994 12.0292 69 69 49
6.14716 13.7126 -0.532095 103 109 94
1.2343 12.4833 20.0957 68 40 1
6.05106 13.3932 -3.83866 69 85 74
-0.875053 10.891 -11.0421 115 68 20
0.635351 12.9938 -8.08664 99 59 22
-1.17651 12.9422 -8.79537 123 85 51
3.96953 15.2519 -4.01467 88 47 4
-0.135995 -1.47427 -20.9598 115 84 33
3.66597 15.5641 11.2331 66 55 33
9.31669 5.90918 -3.58198 93 111 94
8.684 -7.799 -7.38436 64 75 65
9.70449 -3.20181 13.1704 68 79 67
2.54235 8.18141 -12.3727 127 89 46
-10.7215 -6.13734 -51.4455 53 62 53
-1.71163 16.3444 0.113762 63 40 2
-1.18285 9.74646 -12.041 124 77 28
7.22347 13.1147 1.28586 87 90 73
-1.21656 -4.12341 -25.1068 131 98 62
6.33646 11.5762 15.3356 61 74 65
3.4585 10.9682 18.5139 87 54 3
6.55678 5.74938 -11.9868 128 118 83
3.24524 16.1427 0.765106 82 56 15
-0.418756 16.5265 -2.69765 81 42 0
-2.23821 0.580589 -21.0096 127 96 36
-1.1302 16.8186 30.4351 50 37 4
-4.27692 -7.15916 -32.7754 106 103 76
-6.63074 -8.18371 -44.8994 59 67 60
-5.54197 -8.58779 -40.199 79 86 71
-1.19404 -4.44234 -25.3492 126 112 68
3.22408 14.6739 25.8264 64 70 59
-2.83879 -9.80527 -33.3999 73 87 72
0.245922 4.83113 -15.6751 111 92 59
-0.984152 -5.47385 -26.2814 127 114 64
-0.58579 0.780304 -19.9825 111 89 52
7.26663 11.0441 -3.26418 61 68 57
-7.98619 -26.1621 1.44312 155 180 158
2.05045 9.85294 -11.1123 118 78 46
3.36238 15.8617 -0.278 84 74 53
-2.74758 -0.828167 -22.5546 94 77 45
-0.474081 -0.211433 -20.5878 101 91 44
3.21629 16.2047 9.7218 67 53 24
-0.584599 2.61168 -18.2777 98 72 41
2.64258 16.2367 11.6931 64 56 26
-0.379562 18.2019 1.40701 76 58 34
1.33561 0.269699 -18.0759 144 111 62
6.9384 6.45069 -10.0735 106 119 102
3.51587 15.8997 0.514646 74 53 24
-7.65803 -7.44058 -46.6807 68 78 66
6.77048 11.4681 -2.56146 94 111 95
6.54806 8.08947 -10.0742 112 127 109
-0.025322 15.5827 -4.44633 106 54 10
2.09431 10.1616 -10.8098 178 163 107
2.86366 15.5857 -2.37617 67 44 16
4.28458 10.314 -10.491 121 97 67
5.86155 -4.04995 -10.7106 151 159 127
-2.16043 10.2514 -11.2549 97 51 3
2.15112 16.1406 -0.807655 99 66 21
5.62714 11.8613 -6.55408 94 85 55
-5.34554 -10.7576 -40.1457 76 93 79
5.73184 15.0921 7.01142 80 65 37
0.615427 16.6213 11.8122 51 34 3
2.95266 1.05368 -15.8676 93 84 57
5.51033 13.9753 9.82028 68 66 48
1.69795 10.7495 -10.3671 116 75 16
-0.403099 18.2132 1.48722 74 57 32
5.06617 13.0616 -5.43569 131 132 115
4.72795 9.55268 19.2001 101 103 95
0.221863 12.9466 -8.35247 107 62 15
4.08593 16.1833 5.70377 65 60 42
7.77843 10.4279 -0.127835 132 153 134
3.27147 11.0223 17.7383 70 60 38
5.53032 -8.26334 -11.4081 174 185 145
8.34688 -6.089 15.1689 67 79 68
-8.09097 -7.39339 -45.514 57 64 52
6.25888 7.71652 -10.6839 120 119 95
0.640471 18.2872 8.49365 58 41 15
2.06935 2.93472 -15.4318 125 98 49
3.47238 15.8291 10.6598 71 66 37
5.94828 9.04065 -10.1679 100 110 93
-1.29874 -5.57864 -26.6624 120 108 66
3.42977 10.4351 -10.2404 98 58 0
2.51488 8.59138 -12.0566 152 124 72
-6.24307 0.361401 -12.6905 67 80 66
0.0473824 10.9211 -10.8237 125 72 41
-5.48919 10.6609 -6.43253 128 110 65
0.157583 -0.471855 -19.7663 112 87 37
1.93028 14.4844 14.6647 64 59 41
3.46043 12.302 22.5304 73 83 65
5.66073 12.378 -5.71436 88 66 39
-0.849653 13.2966 -8.20669 94 55 15
-2.23818 -2.76474 -25.0976 189 173 119
2.13753 12.6554 17.0424 68 59 39
9.0969 9.24985 3.05315 68 79 69
3.02765 11.9082 -8.1744 76 48 15
8.88072 3.51465 -6.27937 142 163 135
0.583174 15.8963 25.7351 95 60 8
8.10542 6.45737 12.3758 99 104 84
2.76496 8.55676 -11.9917 153 116 59
0.694096 17.718 0.267387 104 74 30
-2.63188 15.3469 2.62312 55 42 7
8.51179 10.8348 1.92162 131 148 124
4.88004 -21.9652 -11.5963 172 177 140
-1.40467 1.32812 -19.9704 129 95 38
6.81149 -7.39558 -11.0781 145 138 91
5.70023 14.9762 5.68227 68 50 24
1.33502 15.3655 24.769 106 85 53
0.149045 16.3717 -2.81265 88 46 14
-9.89997 -7.57999 -51.8977 106 122 106
6.02095 15.2707 3.71072 83 76 49
0.557035 17.9311 0.604237 89 72 30
-1.58429 -3.16751 -24.758 107 89 49
-4.20416 -6.78554 -31.8027 98 97 63
1.19767 16.299 -2.30392 96 62 18
3.25723 16.3281 8.95149 70 67 45
1.66454 15.1199 24.3252 129 116 84
-1.28328 8.67121 20.0548 88 67 42
0.346445 3.36292 -16.6574 126 110 69
2.35322 11.0289 -9.8028 107 65 4
9.06322 6.90798 -3.84583 94 108 94
9.19814 4.41308 -5.22111 67 77 69
3.09917 12.1593 15.6151 67 63 43
2.971 16.4574 1.38937 81 54 6
8.95425 5.3211 -4.99101 71 83 76
3.01342 11.4345 18.1755 63 64 45
8.07205 5.32551 10.8602 85 89 71
7.18601 13.1545 0.878031 67 72 63
7.79026 13.2919 2.63917 75 84 67
0.876411 12.3246 20.0097 62 33 5
-4.0991 -5.72798 -29.1024 97 98 72
6.41316 -9.65591 -11.3772 168 176 137
6.71929 14.5288 4.54194 72 76 60
-1.87406 -7.49628 -29.3058 88 78 51
8.60763 8.56759 1.53314 65 77 67
3.08739 4.96598 -14.0362 156 132 77
2.28963 -2.21861 -18.8415 95 107 93
-8.34592 -24.2326 1.62138 136 162 140
-0.934481 -5.02082 -25.7211 115 97 55
3.88742 5.00808 -13.7094 153 149 114
-1.35734 16.9933 3.82463 56 34 4
-1.98224 15.6219 -0.530396 60 40 6
-0.182043 18.4782 6.11338 50 30 9
-7.81249 -7.59393 -44.6937 59 67 56
-5.40332 9.85942 -7.20664 131 95 26
6.61576 6.89295 -10.6282 83 94 79
7.06087 11.1382 -4.27744 84 82 70
3.47192 12.9308 23.2051 95 95 78
7.06541 14.4431 5.84663 76 64 37
3.05205 13.9422 26.7045 64 74 65
3.98011 2.1742 -14.2622 132 132 103
7.49364 12.3639 8.00479 71 74 58
-0.955699 16.7025 31.6403 45 33 9
3.32068 13.4976 14.151 66 67 55
-2.91444 14.366 -2.34921 84 60 3
4.497 10.3624 17.6816 73 48 26
-10.5428 -6.91988 -50.3705 57 69 60
5.46074 10.1288 -9.90216 95 76 47
-1.99563 -3.28197 -25.4207 102 90 46
7.36371 7.12854 -8.93962 117 129 110
6.85923 7.41959 -9.7121 123 138 118
0.652405 6.5783 -14.3187 142 104 51
1.95972 15.4622 24.6715 88 61 29
5.22767 10.4937 -9.24075 75 47 11
4.22008 15.5114 0.468391 91 56 9
5.33933 14.1851 9.44823 68 61 40
-1.06872 9.95837 -11.8241 125 75 26
1.02798 16.5675 26.7825 83 54 9
-0.361565 3.00941 -17.6688 147 116 73
1.60705 -7.89702 -12.6482 161 190 162
5.00409 0.630592 -12.6973 90 106 91
3.73001 6.18577 -13.4908 162 130 84
1.25514 14.5277 -5.71199 125 84 55
1.30629 17.6983 1.54646 76 49 5
6.32013 11.2438 -5.89579 108 116 101
3.79723 16.1284 7.09207 66 53 18
7.72541 -22.0341 -10.914 146 143 109
-5.5579 13.0508 -1.52281 72 65 45
2.06292 11.3456 -9.61455 99 72 30
-3.92218 -8.65451 -36.08 97 100 79
6.42637 12.1436 10.7385 64 76 63
-2.53747 13.1919 9.71957 67 74 62
0.338894 12.2747 38.5821 65 74 61
-1.16274 11.5963 -10.3061 134 99 57
6.01088 -13.4704 -11.5321 138 160 131
2.82723 7.67895 -12.7651 130 84 30
-10.6161 -6.11949 -52.9409 123 140 116
-5.51979 -25.6241 6.99745 63 70 57
-1.92633 7.58847 19.6168 56 52 32
0.121407 9.14791 -12.4941 136 93 45
5.11482 14.0089 11.3769 63 49 9
0.128899 3.24293 -16.9432 134 114 71
0.693103 14.4133 37.0094 69 75 62
-1.70898 13.8116 34.8572 56 41 8
1.32388 13.2465 -7.4458 98 56 6
2.10325 17.1566 27.9533 88 70 37
-2.93584 -8.39937 -32.9486 99 101 73
3.86422 14.6856 -4.77314 126 77 14
-5.20031 -9.23688 -40.9386 71 82 70
-4.92476 -4.65541 25.7052 132 114 70
6.0855 13.7465 9.39078 73 71 49
-0.308811 7.04778 -14.3342 122 89 54
-0.233617 15.8052 25.9946 95 59 3
4.21486 10.4374 21.3276 66 76 66
6.29688 15.0642 3.12119 83 56 15
-1.38835 10.6801 -11.1206 123 93 60
0.763649 18.2358 2.26233 75 54 13
4.53225 15.9978 4.7429 80 62 42
1.74006 8.4364 -12.5309 131 98 52
3.63146 0.922867 -15.2878 141 124 86
-3.2349 14.5463 -0.228897 55 36 5
-1.4193 16.2262 -1.75282 72 44 8
4.74266 -8.06032 -11.6066 164 179 148
1.48029 14.6726 -5.41624 98 59 23
4.09107 15.5304 0.425328 102 62 8
-5.88707 -14.6208 -0.758904 167 199 176
3.03195 16.7463 5.36503 76 59 39
-0.32222 -4.50572 -24.3592 109 93 51
1.65008 17.7077 2.74276 73 55 27
-2.64672 -7.22683 -30.1064 131 121 70
-4.86479 12.8599 -2.87021 146 126 75
-2.12288 -0.652832 -22.3247 142 112 57
3.60397 11.7982 20.947 83 58 10
-0.797434 0.0189972 -20.8597 110 93 53
3.07034 12.145 28.8364 64 68 57
1.3326 11.798 -9.53783 106 62 13
7.71721 8.27404 13.2401 69 77 66
-7.89801 -8.0387 -43.9107 58 67 59
2.50015 15.2887 24.412 106 81 33
1.87538 13.132 21.8221 102 71 20
-5.38843 -8.06085 -36.7686 91 91 72
8.13971 11.9584 4.18104 65 77 68
-4.79811 -7.91323 -35.8795 90 90 70
8.59279 9.74632 6.80295 64 75 66
-2.16826 -6.54025 -28.7852 122 108 65
-7.77585 -7.43817 -45.1758 59 66 56
1.16294 6.66181 -13.9737 141 117 73
1.73552 -2.35191 -19.8288 118 126 106
0.260899 18.1321 8.58869 52 32 1
5.21161 14.9985 -3.8042 81 70 40
7.77999 7.55057 12.4429 84 94 78
0.999927 18.315 8.05206 62 47 24
-4.03769 7.36952 -11.848 115 107 76
0.0302048 12.2134 -9.39504 110 73 43
0.536842 18.4802 2.9783 82 55 20
3.06384 13.8862 27.7254 63 71 60
-3.73485 13.2178 -3.79446 91 54 5
-0.442627 17.4625 -0.447395 79 45 14
8.80874 6.9304 -1.89633 62 68 61
6.44724 11.6964 -5.0426 121 128 118
5.05254 15.3588 2.33352 74 64 41
5.10332 15.3189 2.28501 80 70 46
-0.122931 12.5062 -9.02381 104 63 15
2.96183 12.2221 29.476 65 72 60
0.60833 17.9505 0.668435 89 73 33
2.59095 12.0535 18.5112 64 59 43
2.60958 15.2785 24.4582 88 72 36
7.59077 6.62036 14.0474 67 79 69
-4.00846 5.71082 18.6652 60 58 41
8.31096 7.9765 -6.75348 77 73 55
3.79316 15.5175 -0.199039 72 62 40
8.62817 4.1488 10.7382 85 82 60
0.116884 18.6267 6.41006 56 37 17
8.54574 8.17214 -4.48891 74 86 75
-5.47698 -0.985943 -15.2431 119 123 98
5.3935 13.9617 10.0557 69 70 53
0.806686 17.4502 28.9398 77 43 9
3.32366 16.67 3.98961 77 48 2
3.15113 15.5031 -1.82224 74 64 46
4.7693 10.0958 18.2957 67 65 47
5.36998 14.8913 -3.74655 85 80 59
-1.76674 -3.51502 -25.4078 100 85 48
-4.20357 -8.78951 -37.0971 87 90 71
4.43628 6.64308 -13.0277 162 139 100
0.107994 17.3853 -0.532944 81 43 5
2.31568 16.8033 0.672267 65 45 2
2.57058 16.9068 2.07033 86 45 4
-5.62599 11.829 3.91518 61 68 52
2.09625 17.0883 31.1702 62 51 27
-0.301968 -4.99856 -25.0147 111 92 59
8.8192 8.5751 1.92358 138 160 141
8.62205 6.48579 -7.25249 98 115 99
3.05478 16.7648 3.98961 65 43 8
-2.45618 10.2712 26.7785 102 102 71
8.00043 11.0992 8.19552 63 75 66
1.82545 16.0717 -2.19289 78 60 26
-8.23444 -10.213 -0.915077 128 155 142
-5.94566 -8.71445 -43.3434 77 90 74
-5.34032 -24.0059 4.17091 57 67 58
6.49517 11.9528 12.5158 64 69 55
6.53644 11.7677 13.236 70 69 49
-5.93213 12.4676 -1.74522 86 79 55
0.509703 18.6481 3.54121 80 50 12
0.892014 14.836 -5.43311 105 66 31
1.44093 17.8364 3.12086 68 53 32
6.94553 -5.20214 -10.3868 156 141 89
4.6134 15.6897 5.68566 75 69 53
7.704 10.4512 -4.82585 81 77 55
3.10704 11.4282 16.5959 70 69 49
-3.46604 0.167923 -18.3458 82 88 76
-4.44663 4.09401 -13.199 130 129 86
1.9033 15.6158 -3.534 74 39 7
-0.634516 -5.27445 -25.7258 112 104 59
-1.75776 10.889 -10.7437 129 84 18
4.43507 15.2913 -2.8073 75 59 40
5.72041 14.0898 -2.13436 69 75 66
6.31653 11.8252 14.9275 66 76 66
2.55338 16.6751 31.4315 62 56 41
2.67798 13.4562 -6.43387 140 99 49
-2.92414 10.7807 27.4943 75 93 77
7.04987 -7.24026 -10.928 143 132 87
8.62775 4.55916 0.463889 79 94 82
-0.333033 3.72743 -17.0324 131 99 58
-1.36638 -4.39912 -25.5729 121 108 69
-4.49666 10.4512 -7.52203 139 130 91
8.47529 -3.82316 -8.6861 127 122 91
-7.23152 -8.68385 -41.1024 59 69 61
0.543472 12.2054 18.3664 48 33 3
6.16444 5.36521 -12.5636 146 144 109
7.84208 9.7589 -0.913576 76 88 74
3.39057 15.8705 -0.14658 88 78 56
1.06851 13.2793 -7.53005 101 60 12
8.44078 11.5138 6.71828 65 77 68
4.48069 15.4664 7.90652 73 66 46
7.73941 13.5782 6.68234 67 75 67
0.616896 -4.50754 -23.0216 112 121 94
4.95628 -13.9936 -12.254 197 202 168
-2.02677 3.02837 -18.2046 136 106 47
-0.769888 15.8707 -3.95655 89 55 8
1.0145 15.1233 24.5605 107 69 11
-1.08315 -0.803864 23.0231 71 79 70
-3.07901 -2.40008 -24.8026 119 102 62
-0.745662 12.4489 -9.3232 97 60 14
0.860828 3.42448 -15.9477 109 90 57
-1.45617 6.30046 -15.1043 119 84 26
-2.32243 -2.28418 26.7608 73 85 74
7.97216 7.20191 -8.1454 129 140 117
4.88697 15.497 2.17583 75 67 48
8.64775 3.2528 -6.48201 144 165 140
-2.10887 8.00628 18.5577 54 43 18
2.78288 -1.43669 -17.3686 85 96 84
2.1268 17.6939 6.40791 75 55 15
5.47136 12.5263 -5.32856 73 75 58
-1.54881 9.56382 -12.1396 125 88 57
-0.645821 16.3752 32.9516 48 30 2
6.06269 14.9746 6.26503 80 67 38
-2.45439 -7.88788 -30.8709 83 75 45
-4.63929 -7.9261 -35.6404 92 90 69
0.53163 18.529 3.16195 89 56 14
-2.57437 -1.31584 -23.3595 136 111 79
2.85241 14.857 -4.69078 111 71 45
3.33469 14.726 13.1432 68 63 41
8.86304 6.41169 -4.64824 86 105 89
6.52536 11.6616 11.2706 85 94 83
5.76314 13.9933 -1.16852 71 74 56
0.181611 18.3933 2.00528 113 82 40
-6.0758 11.748 -2.107 101 105 83
4.79905 11.2851 -8.65313 122 107 73
4.43711 10.4096 -10.2876 120 98 72
6.6001 7.45839 -10.2291 111 125 108
1.39268 15.6632 34.918 60 56 37
6.27535 13.3228 -0.877167 93 94 73
-0.0344315 14.2672 -6.49785 88 50 7
6.72485 11.7642 -3.88008 70 74 54
-0.964977 10.5669 -11.3142 168 148 116
7.66031 -5.32861 -9.94669 142 117 69
6.38935 15.0031 4.20665 83 84 63
1.86277 1.09779 -16.9646 162 142 90
5.29048 -5.80784 -11.1172 159 170 139
-0.265356 -2.06294 -21.8449 128 101 53
7.75968 -4.13329 15.0896 67 80 69
0.518448 1.1171 -18.2587 124 120 88
-2.06894 8.5453 -12.9674 125 91 38
3.53522 15.8149 10.4425 74 68 35
0.712942 2.6641 -16.7729 119 87 46
2.18224 12.4901 17.9937 72 60 36
6.20339 12.5409 11.3812 62 73 61
3.38765 11.8139 15.7632 67 61 38
6.94436 11.1665 -4.68699 85 87 70
3.46254 9.97429 -10.6919 117 68 3
2.35664 -5.70103 -12.419 146 172 149
1.80027 3.00068 -15.5788 188 165 115
7.18377 -20.7735 -10.2854 58 58 45
0.737705 11.8336 -9.66232 104 66 8
8.20312 7.74915 7.62898 70 80 71
8.25696 9.42712 0.196136 124 138 116
2.20284 16.1601 -0.699964 93 59 11
8.66378 8.26529 1.71155 87 102 89
4.17842 4.07773 -13.7836 157 133 92
3.60085 11.3888 -8.96023 95 51 7
6.62262 11.3035 -5.1986 112 119 97
1.24613 15.5268 35.2611 67 69 55
6.46843 9.53027 -8.54094 90 90 73
8.17749 7.99065 -7.06387 91 79 50
3.62868 4.68968 -13.9159 153 131 92
3.23809 15.1874 25.9106 62 65 54
-3.72311 4.89047 -14.0258 107 100 79
8.24233 6.02261 12.5451 74 79 65
6.08457 13.0665 -2.45654 75 94 83
5.70486 12.4762 14.8084 69 72 58
7.92017 3.39263 -10.8902 125 150 126
7.72986 4.7123 -9.91711 68 68 55
9.4102 0.0573196 -6.08683 88 101 84
-3.67558 -3.76059 -26.0386 112 104 76
8.86577 5.94119 -5.00729 78 91 79
-5.00898 -5.24141 -21.9056 74 80 66
5.91446 7.35094 -11.5555 143 136 100
-0.292007 9.61708 34.9345 73 85 73
-10.4418 -6.94569 -50.2599 60 73 62
3.26425 11.2082 18.599 92 59 1
-6.90817 -25.2011 1.08514 163 189 166
7.50634 9.08324 -6.40788 108 109 86
3.88018 16.422 3.73805 67 58 35
6.32241 12.211 13.6771 66 70 56
-2.14194 -4.19784 -26.5181 105 93 56
1.93068 2.7585 -15.6565 135 103 58
-5.04566 8.96201 9.4516 65 77 69
-5.35914 11.4576 -5.02016 88 79 53
1.59685 15.8548 33.9683 66 58 37
-7.75211 -7.53686 -47.6247 79 87 74
-4.12234 13.7516 -2.18964 76 43 4
-4.38535 13.7632 0.434296 58 41 16
-3.55823 -0.457756 -18.1195 87 88 70
5.79891 13.9138 -0.989803 69 69 51
3.87737 15.4508 0.00562096 70 52 17
2.69207 14.1135 29.2666 61 70 62
-2.77999 6.34122 -14.369 141 131 111
3.44969 3.8972 -14.3559 140 126 92
7.71528 6.68537 11.1955 78 83 68
3.10062 15.9236 -0.398315 104 87 52
-3.52386 6.6113 -13.3356 123 110 81
4.89842 15.4272 5.51394 75 65 50
-2.8725 -2.54483 -25.1057 119 105 60
4.96545 12.1149 15.4389 71 55 31
-4.14096 -7.52522 -33.529 79 78 58
0.925724 17.8266 1.02636 70 55 27
6.91836 13.1256 8.90517 69 74 56
4.22965 10.7622 16.3756 67 60 35
-5.62428 -8.17321 -37.3923 71 74 58
8.25476 5.99836 12.7435 69 76 64
3.96688 -14.4667 -12.0695 128 155 131
9.19009 8.50358 2.58181 91 108 93
1.58747 18.0541 5.90781 65 57 33
9.61859 -0.0354691 -4.35267 68 82 71
4.31588 10.9072 20.9229 54 59 52
-6.52354 -8.175 -40.8651 64 72 57
6.0657 13.9807 8.36785 72 74 60
-0.897522 -2.85889 -23.3898 111 88 39
-6.75767 8.7634 1.65047 68 81 68
2.13196 13.1058 21.819 112 80 23
3.00191 13.5108 22.7958 109 83 12
1.14307 14.7897 14.361 61 47 28
4.65148 14.7638 9.48458 68 61 43
7.9683 9.96993 0.00665283 128 146 128
6.83611 14.5087 4.3846 76 77 60
3.68567 10.7693 -10.0279 106 62 3
5.07658 15.0576 8.06764 73 62 41
-4.15265 -27.2155 7.32274 64 71 58
-4.84811 12.4743 -3.63805 87 60 19
-5.33323 6.82667 -10.4322 126 114 82
-0.475344 3.64541 -17.1887 110 80 36
8.70154 10.9267 5.58458 66 78 69
-6.80735 -24.6141 6.25925 57 67 58
2.75404 16.137 11.8245 63 54 27
9.03926 7.59924 5.26326 72 84 73
-10.1334 -6.02106 -52.054 79 94 82
4.7223 13.8475 -5.27707 216 181 135
5.67967 9.72546 -10.0044 80 81 63
-0.940336 15.3032 10.2287 54 46 27
7.61997 7.78424 -8.35782 125 130 108
1.61795 13.2957 22.0981 127 104 80
0.777855 18.3402 2.93796 78 64 41
-1.30174 13.6676 -7.75904 95 57 16
-1.5148 13.8804 26.4212 109 71 17
3.32011 16.5121 5.96824 64 47 5
4.65212 10.3141 17.8015 67 48 24
3.97371 11.3272 -9.26874 94 62 17
-8.96542 -6.66051 -49.8439 58 65 52
0.42601 11.3115 -10.2978 116 78 29
6.53194 8.294 -10.0001 119 131 112
3.4016 12.5424 22.3056 64 68 54
6.69368 1.57194 -10.9877 134 152 131
-0.305163 16.7559 27.6475 120 83 39
8.4269 -23.6665 -8.95118 63 73 64
5.17661 -0.794785 -11.5764 123 141 125
6.8866 14.3062 4.60495 71 79 69
-4.58475 -4.63188 25.4441 139 123 82
3.76688 16.0621 8.61797 68 65 46
0.400875 14.9299 -5.41144 97 59 13
-1.88027 -9.57759 -29.3979 70 87 74
3.79919 15.5049 -0.060523 70 58 30
0.875973 17.7797 10.1155 60 48 28
4.70377 10.0506 18.6914 68 68 55
-0.164623 3.18639 -17.3396 101 70 37
-7.14552 5.48983 -8.9978 89 97 81
8.07133 6.13652 13.3903 65 77 67
0.123268 15.4968 -4.53108 91 46 3
2.16678 17.5001 8.13532 62 52 25
2.36248 13.3651 22.2113 100 78 31
0.521856 14.3879 37.1768 73 75 64
6.01004 -20.828 -11.5746 251 244 201
2.61978 12.8161 21.4203 99 57 22
-7.03973 8.1822 -6.93378 108 129 108
-6.48587 -13.802 -1.05267 172 206 179
3.64858 11.8097 21.2226 66 53 19
-6.23086 -16.7958 3.09469 79 95 84
0.645414 16.6767 -1.94497 93 71 50
9.28966 2.05066 -5.82098 104 121 104
5.10212 13.1286 14.0014 69 54 29
-6.83322 -8.42818 -46.2222 83 93 81
3.97014 15.2651 -1.25366 88 73 39
4.78516 14.401 10.7942 65 64 47
0.595364 10.6211 -11.0593 108 72 18
-3.4101 -3.88892 -26.9275 135 118 76
-4.293 -3.42421 -21.2878 100 99 70
-0.826153 5.33816 -15.8433 125 82 28
1.60212 17.9388 3.69432 77 51 15
6.75004 -9.50188 12.9229 91 94 75
-5.37819 -14.2605 2.36996 68 82 73
0.303875 17.1749 -0.788963 98 67 28
4.66643 4.22478 -13.5422 154 142 101
4.43794 15.0981 -0.554924 79 57 15
6.38323 12.0777 11.4782 63 66 54
-2.07577 8.75119 17.1633 47 31 4
5.91974 14.9468 5.85411 82 54 11
4.32332 10.0307 21.3148 61 70 60
-3.33983 -8.50096 -34.3652 89 93 71
5.68559 10.8848 -7.86119 119 105 65
9.19428 0.164742 -6.69718 108 122 104
-3.37026 -6.18357 -30.0092 97 91 60
-2.63269 0.859631 23.145 56 52 38
2.4571 17.059 2.2838 73 50 5
-1.68527 4.69695 -16.5385 125 92 34
-5.16563 10.367 -6.88312 132 130 96
-0.498056 13.1512 38.6272 69 74 65
2.89377 2.71993 -15.16 142 118 63
5.88131 13.8547 -2.35389 63 72 68
-4.43883 -2.72412 -19.507 90 90 65
4.0655 15.413 -3.00431 83 67 47
-5.11874 0.614449 -14.7267 113 117 91
6.02077 2.54031 14.6665 75 88 77
5.15831 10.367 -9.5536 110 65 6
-2.04805 13.39 35.4347 47 34 8
5.88584 15.3403 3.59772 79 63 24
6.00681 -9.98764 12.7825 79 72 45
-1.35051 -8.16515 -28.9972 112 116 87
8.68388 7.19525 -6.35307 66 77 63
4.52982 1.28708 -13.8813 124 134 117
3.94934 16.3437 3.47049 85 83 61
1.46746 13.8149 22.9685 104 79 36
0.13583 18.7544 4.79038 65 48 22
2.79124 15.5979 -1.74918 74 52 28
-6.95911 -22.7123 4.0453 65 81 69
-0.659798 3.45924 -17.5307 115 78 30
6.89062 -1.73127 -9.63488 137 158 137
2.34479 17.3748 29.7108 59 40 10
4.16426 10.9407 20.1884 107 83 34
-0.0891418 1.40041 -18.7462 121 103 75
-5.10684 9.32127 -7.9166 129 123 92
7.40136 13.8393 5.47714 101 85 42
2.51006 17.0777 7.52734 65 60 37
0.818439 15.928 25.683 95 62 7
-0.234711 11.5362 21.8001 79 64 37
0.399839 2.28469 17.7325 70 80 70
1.04 13.9523 36.82 65 70 54
-2.69751 10.4411 -10.6269 133 105 82
7.78957 7.21308 8.6006 64 74 64
-2.36691 -0.128204 24.9615 64 66 53
-5.87692 -8.27253 -40.068 69 75 61
-4.47112 -27.8764 7.88457 65 73 62
8.64564 6.99722 0.488889 109 127 110
7.71673 8.62082 -6.63211 96 102 75
3.0405 15.521 -2.1961 65 45 9
-1.40271 9.56786 16.609 50 35 9
6.13327 10.128 -8.55605 106 115 101
-1.02357 3.05402 -18.1107 111 67 5
4.42054 10.8165 20.7038 51 53 46
-2.98417 -0.325399 -21.5006 110 96 73
1.31404 14.6053 14.6396 58 55 35
3.54761 12.3275 23.0883 81 92 76
8.33089 6.59691 -7.73029 137 156 136
0.377045 12.3144 -9.1438 114 71 32
8.35038 -8.53168 12.2956 132 113 70
-8.09388 -7.25461 -48.2786 67 75 64
6.55718 14.9576 3.95595 81 82 64
-1.14255 -2.26845 -23.1521 116 102 56
0.904066 13.7735 15.471 59 48 27
4.36215 6.00885 -13.3776 167 137 80
7.22185 -20.918 -10.7471 103 105 74
3.06138 -1.86141 -16.441 92 110 94
2.56433 12.2573 17.8158 64 55 28
3.30938 14.2431 -5.30357 108 63 9
-3.30319 -8.60443 -34.5375 81 87 66
7.13756 14.2709 6.62103 75 72 48
-0.995136 -6.04579 -26.7515 105 94 58
6.49341 14.5095 5.13832 67 65 48
0.420773 13.8811 14.8691 53 40 15
-1.03015 17.2454 0.323706 76 49 8
6.24912 -6.56504 14.2436 79 87 69
4.58705 15.2787 -3.7785 85 55 21
9.21065 8.34833 3.18361 70 80 72
5.50084 15.0872 2.28353 87 79 43
-3.9893 -9.06554 -37.1153 86 98 79
7.94711 10.0286 -3.68075 61 64 52
-0.576267 14.9848 25.3862 70 50 33
7.40951 13.4907 1.9672 118 114 81
-0.655789 4.90698 -16.1473 122 91 38
8.57897 6.69365 -0.538704 70 84 70
1.09742 16.6617 12.0172 55 38 8
-0.709967 -5.39259 -25.9236 119 102 59
-3.35612 -7.19629 -31.195 99 92 62
-4.87405 7.77426 -9.9988 119 106 74
1.47833 17.6177 2.05333 70 59 24
5.594 13.5177 12.5833 67 70 56
0.452774 16.4494 26.7775 77 47 5
3.90112 15.4363 -0.214495 74 61 39
2.29787 14.7122 14.118 64 59 37
-1.46778 15.7333 32.4607 59 51 33
9.96122 1.19919 11.1607 100 114 96
8.8736 5.68324 -5.06936 75 89 79
6.81195 -20.2545 -10.3451 64 70 59
6.18866 12.6286 13.4437 60 66 58
8.71601 7.05783 -5.82717 57 67 58
6.61025 14.5218 4.75921 71 76 63
-2.66546 13.6528 8.65041 53 37 7
-4.83525 -7.71998 -35.2455 103 107 83
7.07862 -7.61734 -11.0084 143 136 95
-0.344314 15.6338 -4.47476 88 46 11
8.48363 5.13807 12.422 70 75 63
8.26551 3.23186 -10.3249 105 118 96
1.71873 16.1811 -1.62965 78 58 36
5.43397 -9.68818 -11.582 163 167 133
-2.77661 5.05173 -15.5283 137 116 84
1.7603 17.5007 9.67908 59 41 9
6.78885 11.2415 -4.94398 93 95 77
7.3165 13.5874 1.97679 114 105 71
6.61332 -19.9673 -10.8451 105 102 80
-2.46368 -9.64126 -31.9536 74 86 75
6.3051 12.3913 12.3172 67 70 57
8.7042 9.67054 4.49622 85 102 88
-4.70289 -6.43221 -25.181 93 95 74
-0.101807 17.0731 -1.3328 70 41 8
7.01397 11.2412 -4.09432 83 82 74
2.07188 17.5373 5.01926 85 65 24
9.58572 2.22144 -2.91267 68 79 69
3.26391 11.8929 15.7855 65 61 39
6.06184 12.9607 10.8006 68 74 66
8.56733 8.80425 -2.81087 61 68 59
5.85184 13.8393 9.56433 71 64 42
4.35271 -5.72796 -11.4564 170 191 160
4.64061 10.3995 20.2988 67 73 56
6.52193 14.4929 5.40596 85 65 28
-6.44074 -15.389 -0.614784 168 201 175
8.23803 4.65238 13.4173 67 78 69
6.39505 12.2566 12.6913 58 70 59
2.82147 12.14 19.3704 89 68 24
-1.70357 -3.1207 -24.8736 113 93 53
-7.25909 -24.6082 6.10832 56 66 56
-2.97453 12.0235 10.0191 59 65 54
3.41795 15.8784 -0.0149393 84 75 51
4.46237 11.0329 -9.39639 116 91 64
1.81973 13.4749 22.2739 140 124 90
-3.9934 13.0794 -3.75969 84 51 0
5.11023 14.3595 9.33823 75 66 47
3.06228 -5.10876 -12.0208 153 177 152
2.7613 3.99602 -14.5162 221 204 121
1.23836 12.4495 19.9284 63 38 2
8.93577 7.70885 -2.71239 75 86 75
-5.24201 -8.24601 -37.5616 86 90 72
-3.04424 -7.62332 25.3483 132 139 117
-0.967709 -0.3591 21.6032 67 81 66
6.71523 12.2516 9.88838 69 82 73
-6.81016 3.31522 -10.6574 126 131 99
-1.93606 1.13429 -20.3604 123 91 41
6.60524 -7.35769 -11.1332 154 144 98
1.35208 -1.86609 -20.0641 124 107 67
5.22648 12.1729 -6.6728 87 64 37
-8.25229 -26.6862 7.89201 65 77 66
8.90218 5.89106 -5.96603 59 71 62
5.51555 8.94076 -11.0156 126 120 94
5.8173 12.0786 15.1587 71 66 49
2.92223 16.5392 1.61362 72 47 3
-2.41536 15.573 3.25552 53 37 1
3.65121 11.0158 18.9812 80 54 15
-2.44414 -1.54297 -23.6529 128 111 65
1.04372 15.8863 -3.43658 73 40 14
-10.3186 -6.05218 -52.423 98 110 95
2.9411 13.4489 28.6834 64 72 63
0.889444 -0.295235 -18.965 121 83 18
-0.00252342 15.9521 35.6652 53 42 15
0.299562 18.734 6.07879 58 37 11
1.60955 12.6776 17.6972 66 51 21
-0.856022 -1.92725 -22.4253 119 101 53
-4.86872 12.534 5.27081 56 61 49
1.02482 14.2402 -6.1975 92 58 13
4.23638 -0.0220337 -14.5472 123 140 111
-1.36852 -3.76757 -25.0301 102 89 53
-0.544481 9.92595 17.9878 98 84 63
-1.02131 12.9846 25.8881 97 68 29
5.77949 14.2396 -4.0771 97 101 82
-2.58641 7.66628 -13.4353 131 101 28
4.71011 15.491 5.8842 77 70 45
2.0505 17.6092 7.87466 61 44 17
1.48565 13.5101 22.5366 88 58 33
-7.52683 -17.1123 0.132233 125 154 134
8.60374 11.4142 5.48725 65 77 68
8.82522 5.99542 -5.44866 62 74 62
2.80251 16.6915 1.97137 77 41 2
6.42137 12.1276 -3.04421 66 77 68
0.514042 11.3852 -10.209 139 108 55
-1.92477 -5.53416 -27.3172 115 98 63
8.96725 6.28179 1.81581 70 81 71
2.90799 9.59902 -11.0761 160 135 86
-10.0397 -7.54153 -48.9129 54 65 55
3.29615 0.292778 -15.9327 104 90 66
-4.78625 8.72057 -8.98649 117 107 80
1.50897 17.3262 31.3337 71 60 41
3.85885 14.1653 13.2746 66 61 36
0.770512 16.0465 -3.1918 78 46 16
-0.562496 17.9816 5.7524 53 36 3
9.62182 -1.93134 -5.83616 83 99 84
6.51186 6.60725 -11.4435 129 125 97
2.52197 13.4551 30.293 60 73 65
-5.24631 -9.83157 2.67863 71 81 75
1.75587 16.1976 -1.4989 97 71 39
4.70897 14.4165 -4.85467 132 100 58
-2.43323 12.1242 28.6485 55 52 33
4.9333 10.4287 -9.57526 98 71 15
8.39007 4.69052 -7.01672 121 141 123
4.82672 14.2982 11.507 73 64 40
5.97334 13.9558 -3.41188 67 82 66
3.69375 14.8934 -4.56046 105 59 11
8.92892 6.70481 1.49434 82 96 83
9.88842 0.584377 11.005 122 133 112
7.49769 7.35049 9.8625 68 80 69
2.65914 12.8546 21.5368 97 62 36
0.815022 -1.16079 -19.869 125 96 20
2.52264 12.1673 18.1534 65 54 33
8.29621 3.90258 -9.32863 73 83 69
-1.33641 10.0407 -11.7272 114 77 38
2.21584 13.4215 22.2534 100 89 38
0.461033 16.7978 27.4382 81 48 11
3.12553 8.04639 -12.3577 142 104 45
-0.646807 16.2474 34.4594 45 30 0
3.28553 16.5327 6.45421 69 59 26
2.32802 2.71866 -15.4277 136 91 34
9.08957 0.37188 10.4498 153 167 140
4.1884 15.2217 -0.741249 66 41 15
2.46789 17.1071 2.73467 64 51 35
-2.80902 -1.79588 -24.048 124 99 64
-1.83091 -0.895613 -22.5125 115 89 39
-6.5536 -16.8114 -0.498428 158 196 173
5.69739 14.505 -2.78151 67 78 66
3.88775 10.2787 -10.6147 120 80 23
6.43671 12.29 -2.27613 86 100 86
5.61824 9.86966 -9.99331 88 83 62
3.06928 16.0907 11.2356 65 46 15
4.92893 11.4923 -8.12366 83 71 51
9.07509 8.58458 3.75192 70 82 72
0.900234 -4.31055 -22.1656 81 87 74
6.45034 -2.96656 -10.089 147 159 132
-4.68814 13.676 -0.675964 53 36 5
0.459797 16.324 -2.79482 93 54 17
1.11813 2.77591 -16.1868 114 81 32
7.74307 13.4708 3.8417 67 78 67
8.60422 6.19328 -0.603792 90 107 93
1.56311 13.1435 21.9213 98 65 36
0.672005 -0.448685 -19.3069 123 87 29
8.13697 -4.92594 -9.45186 142 142 101
4.48062 12.9419 14.2617 63 45 7
4.31348 15.3548 -3.01074 75 58 41
-3.79637 -9.25844 -36.6615 85 101 85
6.48873 14.5383 4.99807 71 72 57
1.59599 13.1657 36.2681 58 64 53
-0.955767 16.0151 -3.66082 90 60 4
7.93741 13.0264 6.76424 66 77 68
9.47089 -6.85183 13.5842 62 71 57
0.0338364 6.05842 -15.0541 129 95 39
1.46213 8.98941 -12.2616 130 99 50
6.203 12.9122 10.5403 71 77 66
-1.67894 14.9587 -5.15908 106 83 49
-2.65191 -6.51205 -29.3731 120 109 65
6.65546 -10.5868 -11.1622 154 170 137
3.88505 16.2504 2.55591 74 61 39
2.95709 11.7897 16.291 66 71 59
7.89145 10.0505 -4.77185 89 97 85
-5.15843 -8.49628 -38.469 97 107 86
1.7911 15.8592 -2.8773 72 41 9
8.75588 7.52677 -4.25985 83 97 84
8.23464 -1.99679 14.8805 67 76 65
-1.92837 2.97939 -18.2937 130 91 29
7.1467 14.4029 3.1399 74 77 61
8.26655 12.6583 5.63152 63 74 65
1.5472 12.387 19.1483 63 38 16
0.954788 15.4112 -4.51481 84 47 9
6.54531 11.7977 12.5404 64 68 54
-8.76226 -24.817 1.89418 144 174 151
7.77581 6.68469 11.6362 86 90 72
-0.506519 15.3387 11.5604 65 57 35
-0.212265 7.47902 -13.9996 143 100 53
8.06938 -6.91326 -10.1607 143 116 65
1.14097 11.7299 -9.6304 107 63 19
-7.79714 1.98507 2.2475 70 83 70
8.81159 9.66195 6.25793 69 81 72
3.71328 11.6223 22.9665 65 71 60
3.67994 15.406 -3.44131 82 53 23
-4.38397 -3.41977 4.5045 61 73 64
7.20034 14.3064 2.866 76 82 67
-0.778936 3.65171 -17.3717 104 69 17
8.44223 9.41688 7.0781 61 71 61
3.4206 10.7317 -9.89283 110 64 0
6.60349 11.5222 14.8076 60 69 62
2.48988 13.5428 14.9465 64 68 57
7.73899 5.0381 9.09636 95 109 94
5.37963 12.9967 14.0854 70 49 24
-1.18258 0.329498 -20.9017 127 93 46
-1.36836 0.871696 -20.4902 128 99 46
6.04458 9.12948 -9.74777 98 110 89
2.17355 15.8867 12.715 65 63 47
9.39801 -8.19766 13.5957 73 82 69
3.88552 16.2508 2.3 69 50 19
2.2076 14.9854 -4.58505 93 54 2
8.67458 10.1364 4.00971 65 75 66
-0.780521 11.2811 -10.6305 116 65 4
3.24456 13.8854 23.6258 100 85 63
-4.9542 -8.92803 -38.9687 99 104 87
6.52291 9.66587 -8.12406 100 93 73
1.47687 12.7172 17.342 60 47 14
-4.47434 -24.9304 3.9367 65 72 60
8.26929 11.7918 4.66361 108 129 111
3.91247 15.4287 -0.0776205 73 57 29
-5.12093 10.1926 -7.08468 133 137 97
8.09032 -23.3844 -10.9608 155 159 118
0.65498 -4.08836 -22.6018 94 96 70
8.09435 5.33037 11.0077 84 89 70
-0.549603 -4.37239 -24.5407 112 94 48
-4.49317 -4.84314 -22.9297 104 99 72
-1.2041 16.7752 30.1881 56 39 4
2.86034 12.0472 -7.96024 82 49 16
7.41301 5.33063 -9.94215 82 91 78
-4.06901 1.34383 -15.4785 134 129 95
6.04163 14.9755 6.62932 89 88 64
3.78777 14.5722 -4.89073 122 72 11
-7.43297 -7.50756 -45.183 61 70 57
-0.210623 14.2958 13.452 59 47 24
8.54846 8.47388 -4.21934 90 103 90
8.77088 4.21001 12.1426 67 70 57
5.74078 10.5297 -8.54984 73 54 17
-2.73056 -8.78699 -33.0612 102 112 89
7.8134 13.5966 6.09499 68 74 65
5.71169 8.90238 -10.7169 110 119 98
0.767117 15.2302 -4.85294 106 62 8
-0.786037 1.76231 -19.2535 133 105 53
9.07656 -7.52981 -8.93166 71 86 73
5.83903 13.5809 -4.46575 121 129 110
-2.35652 2.99038 -18.091 128 113 69
-4.48893 -8.9942 -38.0783 75 81 66
1.6763 16.2892 -1.3507 82 58 29
5.1226 15.4245 1.56313 76 66 40
-2.14585 15.925 2.21962 55 34 4
-2.82971 -1.43454 -23.4504 120 96 60
-1.17673 14.9168 -5.50935 105 58 10
1.8157 17.8604 7.98475 60 50 29
3.24606 15.8255 -0.589523 96 77 42
-1.13071 -2.49714 -23.3611 114 96 51
7.0596 12.9694 0.314919 117 128 101
-8.59855 -24.3835 4.62254 63 78 68
-0.663734 2.02855 -18.8933 125 89 43
-6.71519 6.08083 -9.33681 112 116 89
0.362598 14.2907 37.3717 74 80 67
6.90023 10.0485 10.0625 63 75 67
6.15431 13.5634 -0.796043 97 104 88
-10.2161 -5.94443 -51.9727 81 93 82
1.36346 17.7276 9.6625 60 50 26
2.36641 16.2396 -0.376716 91 56 8
3.95616 -13.5379 -12.0048 123 138 111
-2.66851 -4.13403 -26.9892 130 112 62
5.1361 15.2104 6.04517 70 47 7
3.571 15.8494 9.93016 68 50 27
9.21409 8.51621 2.71949 70 84 74
8.87567 -5.72687 -8.90852 102 115 94
-3.67348 -7.53745 -32.4445 89 85 61
5.35138 15.2256 1.75601 79 70 49
-10.1898 -6.07735 -52.2662 115 129 114
-6.0398 10.4762 5.20497 58 66 52
5.90593 10.4037 -8.60103 81 65 39
4.45253 15.0315 9.18896 67 65 48
4.5065 -12.2313 -12.0737 166 174 138
3.10458 11.9456 29.308 62 65 54
8.95352 5.38686 -4.83138 80 93 87
2.88298 16.7297 7.94818 71 58 35
0.930893 16.0806 -2.95238 87 48 10
2.77971 16.9157 5.75846 73 56 13
-0.133564 16.4994 -2.69473 89 47 1
6.65295 8.78846 -9.21677 106 113 96
1.00203 18.1599 9.06192 58 41 16
7.077 13.921 7.2696 68 78 67
-4.70899 -8.48403 -37.4077 93 96 77
2.86695 12.832 27.9484 73 84 72
8.37431 7.91191 -6.51836 66 71 58
-1.04076 14.715 -5.97525 86 45 5
9.05195 3.86955 -6.07685 110 130 111
-1.06731 -2.24889 -23.0205 114 100 56
0.725338 16.4135 26.5529 82 47 8
1.05773 8.21215 -13.0474 138 106 63
-4.52348 -9.04842 -38.3896 78 85 71
6.88102 -4.91232 -10.3424 148 146 111
-0.404341 16.123 -3.61971 87 43 5
2.27531 16.0874 25.8254 112 84 53
3.26195 12.9084 -6.81503 169 127 76
-2.21754 11.1754 -10.2281 126 99 36
2.10251 10.5512 -10.4205 120 78 35
5.64968 8.61758 -11.01 128 121 91
8.47111 10.6986 4.15231 62 74 64
8.52188 4.85205 11.9582 87 87 69
-0.981529 13.3441 -8.18865 100 62 27
4.3551 12.1024 -7.17264 95 67 26
-0.684071 7.69504 -13.7991 124 88 35
5.84061 -1.15932 -10.7547 147 166 140
1.47955 17.4212 31.1726 67 53 28
6.05767 7.85535 -10.8953 116 114 93
5.62912 12.497 -5.35412 77 80 65
-9.28864 -7.18058 -47.9646 53 68 59
6.06823 13.3909 -3.70562 69 84 73
-5.49811 -7.92587 -35.9761 74 79 62
-5.47795 8.59678 -8.44893 117 89 48
2.76216 6.66997 -13.3584 152 135 85
7.96355 -6.41437 -10.0043 140 138 101
-1.80274 10.7408 -10.8607 128 90 31
6.57913 13.6494 7.994 69 76 66
-4.29347 -4.25624 -22.491 84 88 68
-10.0715 -5.94798 -51.2713 61 69 61
7.18908 -23.8068 -11.613 159 164 136
-0.092411 17.3045 29.1904 82 46 5
5.78503 -9.37083 -11.4641 171 177 140
5.80538 13.8267 -1.99959 65 76 66
6.2354 12.7454 10.6313 67 76 68
-0.0536804 11.2657 -10.4431 103 65 1
1.96802 16.9726 11.1602 65 50 31
2.72615 13.9654 29.166 61 71 61
2.98181 16.3721 9.61437 66 54 25
-6.70328 -23.495 4.82863 61 76 66
-0.476978 14.8811 37.4525 64 63 45
8.35763 5.27782 11.881 94 94 72
5.85772 11.7165 15.6417 66 61 44
7.19658 13.8324 4.74128 72 79 66
2.63833 16.7957 1.94024 88 44 7
0.169338 16.3302 -2.89483 85 44 20
6.19502 15.1829 4.229 74 76 56
-8.85435 -7.53522 -50.4767 102 116 101
2.88883 13.5682 22.8181 111 81 6
3.16717 16.4472 1.71528 84 49 10
6.00198 12.8411 12.5923 62 58 35
9.07997 -3.97747 -7.79508 119 127 104
7.00643 10.4886 -5.91801 113 117 91
3.93707 10.1401 -10.7562 129 95 45
3.50785 16.4757 4.99415 74 68 47
2.04288 -0.830078 -18.1932 105 94 60
-1.9463 -0.531963 -22.1557 124 93 36
-3.1936 1.33745 21.4653 62 63 49
3.16581 15.0697 -4.35394 103 57 2
7.47517 7.51831 10.6256 73 85 73
2.6955 13.4153 29.6014 65 74 65
8.17317 1.23115 13.6541 67 76 66
9.16958 7.79264 3.64276 75 88 77
-3.04963 -8.5791 -33.4789 80 76 62
-8.59237 -9.35263 -48.9597 96 113 102
1.33918 17.5199 0.689521 65 50 6
0.670868 18.649 5.41842 77 54 15
0.633633 4.09896 -15.7099 155 125 82
1.74563 16.574 26.6123 80 49 11
-1.64643 3.55548 20.9478 80 94 83
-4.76168 1.49468 -14.7101 137 131 93
0.514406 18.6974 4.45291 64 40 3
3.21334 14.7488 -4.71467 124 86 54
2.60323 17.1703 6.67963 68 59 36
5.18487 15.1965 6.10751 70 48 6
7.96504 7.61332 -7.96411 136 147 124
3.65217 11.6258 22.5922 84 90 75
-5.60475 -22.1002 2.91888 60 72 64
7.47561 10.4305 -1.62976 74 87 75
1.23423 18.2659 7.46479 64 49 24
2.96209 14.9363 24.4967 89 84 64
-1.26745 14.4904 -6.29293 94 55 9
3.94941 15.2185 -2.19341 74 62 45
9.71996 2.48458 -3.55309 73 87 76
-2.53658 9.86795 33.6062 61 66 54
-4.40809 -7.32024 -33.5559 88 87 65
1.46701 17.4396 0.808037 72 50 18
1.68638 0.585571 -17.4847 114 85 60
9.95359 1.22882 11.9597 63 73 67
0.877502 11.8295 -9.59459 99 63 5
2.77526 1.72269 -15.6538 136 130 100
-0.0956802 18.2321 1.29974 67 45 10
2.68183 16.5745 9.90798 60 44 7
3.89467 -22.5794 -11.6632 170 177 144
5.71152 13.9604 -1.79181 66 71 61
0.580395 5.26474 -15.0021 133 112 76
-3.00124 13.9017 -3.74118 141 119 81
8.70664 8.07577 1.68801 69 80 70
2.43872 -0.779099 -17.7667 119 108 79
0.489559 18.4723 2.71358 75 51 23
-0.115513 16.6528 10.8989 65 59 41
1.78639 16.208 -1.36646 85 65 37
6.32854 14.2305 1.70814 73 73 56
-6.89138 -18.215 -0.480118 156 187 162
6.84316 10.3784 11.2721 106 118 99
-3.02264 -8.07983 -32.3508 98 91 59
5.46301 -16.8856 -11.779 143 169 142
4.1369 15.275 -0.11125 78 59 33
7.07436 10.1574 11.4199 108 120 99
-5.29568 8.00397 -9.22591 106 89 54
7.5335 12.3701 8.2725 88 86 63
5.9318 13.9923 -3.95471 79 90 77
-0.857825 11.8136 25.0543 105 88 58
2.82652 5.42658 -13.907 157 130 84
1.40368 15.1289 14.0666 64 48 24
5.56031 15.0262 2.21244 81 76 40
-1.99445 13.7918 -7.12766 113 83 51
8.76979 9.20591 4.39655 65 76 66
1.94983 16.1619 -1.00362 102 79 37
6.92894 10.9223 -5.43591 105 99 80
4.27934 15.2084 10.5565 67 65 52
5.44919 10.0039 -10.0767 103 87 54
0.230915 -6.65637 -16.5962 66 77 67
8.6742 10.8688 6.02859 69 82 72
-8.30045 -7.40004 -46.0067 60 69 59
-6.9982 -9.38324 -38.9588 57 68 58
0.687473 18.5654 5.23145 86 64 30
2.81713 12.8962 -6.89382 116 84 42
6.44615 11.9962 13.2538 72 67 56
1.33532 15.4631 24.9669 89 64 26
-0.7794 2.02647 -18.9933 137 108 54
0.866055 4.07888 -15.4135 110 87 46
7.41161 12.6267 1.04502 71 81 68
8.93224 5.24873 -6.24659 81 97 79
-2.82675 11.5019 27.2175 83 74 41
2.64254 16.9862 7.78559 72 61 37
8.90047 5.23305 -6.38895 92 109 93
8.63314 6.14879 -0.158553 66 78 67
-5.12923 -25.8498 6.78719 62 68 56
7.83505 7.64228 -8.12773 128 138 115
2.89056 16.8174 5.08299 93 81 63
1.21617 -8.81368 -4.34766 72 85 77
1.56548 17.6468 29.0856 81 50 12
4.63647 16.056 4.17316 71 67 42
5.8617 -5.59434 -10.8983 164 165 126
-1.436 -3.32356 -24.6091 109 94 54
2.46078 12.3727 17.4015 68 62 39
5.56419 6.93745 -12.065 148 120 80
-5.70541 8.66803 -8.29178 127 101 32
0.393295 1.45146 -18.14 123 97 56
0.101696 15.7802 36.2207 60 59 38
0.771753 18.5462 4.82025 66 49 23
-9.08235 -6.65788 -49.2574 59 68 60
-2.73217 -1.38417 26.4971 68 82 66
5.0307 9.77221 18.385 72 78 66
-1.77483 -0.302094 -21.82 139 106 50
2.28377 1.10781 -16.7134 142 114 61
3.30268 10.9903 17.4508 81 74 49
8.64533 1.78338 -7.43884 93 109 92
1.54862 15.7948 13.1849 63 50 20
5.92755 14.1855 -3.19865 57 70 57
6.4655 -9.72459 12.8587 87 83 69
-0.89085 -5.16871 -25.8889 122 104 61
-1.46712 9.10116 -12.5764 140 94 36
-1.56548 9.77411 -11.9639 129 82 25
-1.5038 -6.98798 -28.3867 107 99 59
-3.15315 -3.97549 -27.0858 138 123 77
2.98659 10.4076 -10.2371 113 72 21
5.38034 -12.7241 -11.8875 158 156 113
1.14454 10.3 -11.2042 108 78 30
8.77818 7.91848 1.30123 64 75 64
3.5539 11.937 21.1989 82 64 18
0.553547 8.9207 -12.6658 126 84 37
4.60484 12.1808 -6.95815 83 57 28
0.471689 14.5644 24.272 88 54 3
4.98207 8.50613 -11.55 153 138 104
5.90506 13.6314 -2.47398 63 74 69
7.35522 14.1002 6.38081 71 73 55
7.13948 8.66222 9.98634 66 76 65
-0.268085 6.30109 -15.0004 131 90 34
5.65131 12.5865 14.6944 67 73 59
7.68292 8.27327 -7.67653 82 73 54
8.23935 12.2526 2.85932 82 99 85
0.739239 16.6617 33.0827 62 52 32
0.964653 16.6054 33.1513 65 58 39
-8.55301 -6.97369 -49.1655 59 69 58
2.35469 11.59 -8.9525 129 97 54
8.47343 -9.00265 12.039 143 120 75
0.682442 12.4567 -8.84443 96 56 13
2.95605 15.5555 -1.58279 88 74 53
-4.19904 13.3437 5.20766 53 48 28
0.25111 15.6589 25.6072 103 59 7
6.76354 8.18583 -9.57279 100 114 94
-8.1386 -25.9707 7.36026 61 73 62
5.95787 13.7063 -1.26836 73 77 65
-9.40308 -8.14116 -47.2214 56 67 57
7.85179 0.73798 9.64835 157 174 149
6.38364 12.2737 12.547 60 70 60
6.1065 13.0743 -2.32436 80 97 82
