ply
format ascii 1.0
comment Created by Open3D
element vertex 1368
property double x
property double y
property double z
property uchar red
property uchar green
property uchar blue
end_header
3.44693 13.7194 24.6461 60 65 52
-7.24874 -5.21508 3.59344 71 84 73
-4.81159 -5.69342 25.3969 134 126 90
-2.9087 1.87876 21.2951 73 81 66
-5.74484 -11.2192 -40.33 102 127 110
4.21798 1.1209 -14.4216 112 118 90
0.884642 12.2541 37.5894 63 73 63
-1.98293 12.6867 29.647 67 62 37
1.60524 14.9436 35.0842 67 74 64
-0.197351 15.6389 36.4064 58 49 24
-0.115648 15.0698 25.1128 96 60 7
5.09633 -9.55875 -11.6479 163 167 136
2.9794 16.6106 1.89833 84 49 5
3.46774 14.3806 13.3812 67 67 51
1.72738 14.1205 15.1126 65 57 35
-6.1929 -17.8527 3.05758 76 94 79
-0.286083 13.4836 14.0702 55 49 30
-1.59954 10.7645 14.3142 59 57 39
-1.18423 17.09 5.65769 54 37 8
-3.26408 13.8345 -3.00639 77 52 4
6.29322 0.106586 9.08086 143 167 145
-1.43452 -5.40518 -26.6438 122 112 68
3.8925 10.8906 23.1839 61 69 58
-7.31532 2.36448 -10.2465 119 133 112
-4.88629 -3.94634 -19.3446 71 80 68
4.56166 9.59331 -10.9431 121 93 52
4.52603 -14.0337 -12.2938 172 186 162
-5.64495 -20.9316 2.739 62 76 68
-0.796581 11.6589 -10.2146 123 74 23
3.17114 11.8902 28.6705 64 67 56
-2.54422 12.7698 9.88705 65 74 62
-8.75756 -8.14074 -45.9381 58 68 58
-4.1738 13.8858 -1.68098 66 38 6
-5.07903 -8.55906 2.86204 68 80 71
-5.22695 -8.61957 -25.6969 70 85 72
-2.23014 11.3474 32.7595 60 73 63
-4.76594 13.3153 0.863449 56 52 33
1.89787 -21.9289 -9.9373 99 116 98
-1.42828 11.4507 34.2102 54 64 55
-0.741173 -4.71188 -25.2161 117 103 55
7.43576 -21.3403 -10.8786 143 136 100
-10.2126 -6.93518 -52.4975 116 131 115
-3.64925 -10.6468 -34.9762 77 92 78
-6.1479 -11.2079 3.25116 81 96 84
5.92868 2.72143 -12.3691 126 140 121
-1.13161 10.444 15.4413 55 53 34
5.73995 -14.2211 -11.8968 152 164 129
-8.14661 2.25197 -4.81826 76 88 74
-2.04885 16.0451 2.04826 57 37 10
8.25765 -1.40363 14.6849 66 75 64
-6.20047 -18.3758 3.08022 77 92 81
9.56659 -1.55562 13.7727 69 77 66
2.7632 12.0546 16.9919 64 66 52
-0.732538 14.3965 37.5307 81 91 81
8.70669 9.3259 6.68007 63 73 65
-4.44533 1.94262 -14.6992 141 126 84
-0.838331 13.2446 13.0544 56 58 41
7.32857 0.721939 -0.914525 62 74 64
-3.30047 -6.96682 -30.7177 99 92 61
3.09723 -0.81883 -16.7835 117 119 100
2.83461 1.1832 -15.9181 92 85 61
-1.04402 17.3306 5.65427 56 35 7
-3.93861 6.38339 10.6477 63 77 66
0.0395203 14.4047 24.3539 106 57 3
6.88465 11.8332 -1.88538 81 91 74
0.801193 18.3439 3.07027 106 89 55
-5.04284 9.97488 -7.33205 121 116 88
-7.52963 7.1384 -2.55578 79 86 68
2.95251 12.2664 20.2248 85 52 7
-5.05979 -19.5231 1.14404 67 80 70
-2.13943 -4.61447 25.8002 143 164 142
-5.33739 -20.1931 -0.0615005 108 125 107
-5.29453 -8.66354 -27.0496 69 80 70
-3.43287 -0.14287 24.5531 54 35 12
-4.20834 -5.66949 -28.3817 62 66 53
1.59779 1.12605 -17.0743 144 122 70
-1.75867 -2.63696 26.5109 70 81 72
-0.1497 14.0813 37.716 73 89 77
3.66788 -13.844 -11.5657 97 109 94
-6.19503 -16.7808 3.09406 79 95 85
-6.33271 4.17823 5.41936 62 74 65
-8.21294 -11.7706 1.75164 73 85 74
-8.93514 -9.34562 -49.4827 114 126 113
1.20459 12.1807 -9.02756 102 56 5
-7.03445 7.81814 3.51113 74 85 69
-0.0688851 10.7705 17.6136 62 55 39
-5.15662 -6.7299 26.2856 68 78 68
-4.33599 -25.4242 5.30422 56 60 48
0.840752 14.4282 23.8273 99 57 6
-7.56026 -2.05667 -7.30335 113 134 114
9.11789 -6.7982 -8.95705 89 102 88
0.192539 -6.73279 -17.3034 71 85 73
-8.25816 2.58836 -1.4834 61 73 62
2.91075 -19.4726 -10.64 107 121 98
3.01988 -7.22462 -12.0911 163 185 159
8.24219 4.59157 -1.18397 64 77 68
-6.24718 10.5344 -0.246109 65 72 61
7.78201 5.6763 10.0709 85 95 79
-5.18835 -4.93177 26.4933 70 79 70
-5.40707 -22.8681 2.62015 67 76 67
7.01596 13.3857 7.82434 71 75 64
3.19093 -5.50431 -11.9772 163 186 159
-4.45289 -6.20536 -29.5163 61 63 51
4.52807 12.7946 -6.16942 119 113 80
-5.3611 2.21381 5.4296 62 73 64
3.14919 11.2128 26.143 93 111 95
4.45233 -19.7896 -11.4984 176 204 171
2.25496 17.4065 5.19934 76 60 26
-1.85602 9.72142 34.476 61 70 58
-3.4533 -5.69166 -29.3403 125 114 70
-1.77592 0.275433 23.9371 62 69 56
2.20735 -6.52299 -12.4444 147 169 148
-1.55194 16.6775 3.3037 59 38 6
0.307953 7.25097 -14.129 149 113 64
-6.73657 9.0422 2.23982 67 78 63
7.5884 7.36655 11.6434 85 96 81
3.17224 13.8557 -5.9377 107 62 10
4.44934 11.713 -8.32876 95 69 26
8.09081 7.80818 -7.58718 88 95 73
-8.31224 -0.154213 -6.62186 64 76 65
-1.68061 12.7433 11.7337 58 51 30
-2.07859 11.2635 12.4929 59 62 45
2.12657 17.3868 8.94908 63 54 27
-3.86097 -8.70763 -36.0723 91 99 77
2.62728 12.5533 20.8539 73 43 6
-6.88295 7.7762 -7.4614 104 115 97
-6.1979 10.7298 0.177444 146 157 142
1.05626 12.3687 18.5187 59 41 7
1.43515 14.6464 -5.48176 100 61 26
-1.5271 16.1856 6.66634 61 55 36
7.22949 10.9632 -4.02514 68 67 58
-2.53941 -1.92454 -24.2018 129 111 67
-0.398689 13.8874 -7.18832 93 52 5
-1.55519 -4.61051 -26.0678 105 87 50
-6.81915 9.01481 -6.75951 109 116 91
9.02296 -6.58961 14.8 73 85 73
-7.32394 -14.5461 2.36456 67 83 72
8.79731 -0.928085 14.3245 66 73 61
1.57784 -24.1444 -9.53558 78 92 80
-5.56345 11.9392 -3.08846 91 82 56
-0.504098 15.6892 11.158 65 58 38
-8.47865 3.34218 0.889832 65 77 65
9.01192 -4.77977 -8.29675 96 111 94
-6.52515 -7.90739 -1.80614 137 165 145
1.37772 -23.7006 -8.51208 72 86 73
3.90706 14.755 12.3157 66 57 32
-6.11424 -12.8642 2.97742 78 94 85
-1.29994 16.148 32.2777 53 43 19
8.57732 6.00515 -1.53526 61 70 62
-5.38641 -8.85185 -40.9641 62 69 57
-0.548128 7.65725 26.2402 64 73 59
8.48846 11.3844 6.65077 67 79 70
-6.27941 10.4936 2.16496 67 74 57
6.15959 -18.8307 -10.7181 89 97 81
-7.76855 -7.37834 -46.571 62 72 60
8.719 -0.061615 13.9604 65 75 63
-6.91327 -13.8914 2.90681 74 88 78
1.549 16.2426 25.9333 153 132 89
5.65478 -19.698 -11.4244 168 167 127
-3.76927 -1.11008 4.9633 65 77 68
1.12059 18.0865 2.84724 65 54 26
-6.18126 -14.9424 3.07514 79 95 84
6.66459 -8.049 14.8281 71 85 75
-3.56275 -0.839212 5.14688 60 72 63
-3.69609 14.24 2.64979 146 131 109
0.703787 18.1667 9.15798 54 40 16
-5.41766 -11.3755 2.33646 67 79 69
2.58367 12.9218 15.5285 68 67 49
4.0094 15.2125 -1.47605 84 64 33
-2.24498 12.2423 36.2398 60 67 55
2.74978 16.3451 0.244049 104 82 39
-3.74342 -8.07322 1.11958 63 73 65
-5.86974 3.44274 -12.0635 109 116 88
9.08855 -5.0045 -8.14156 112 128 111
3.10781 13.3385 22.6247 102 74 22
6.80843 13.3544 7.99494 70 75 64
1.34284 -23.1491 -7.79032 63 76 64
5.31663 -6.3139 -11.2183 164 170 135
-5.03742 -7.13305 -25.6242 81 89 70
-0.543049 -4.52082 -24.7643 101 88 45
7.08928 11.0791 -4.42763 79 77 61
-7.5851 6.42345 -4.85365 66 74 62
7.95674 -9.16156 12.0486 121 106 61
-5.27538 -8.80018 -30.2295 80 86 72
4.82037 14.8485 -1.73688 75 75 59
2.08865 -1.15379 -18.4017 79 74 49
-6.27029 8.90057 8.05619 61 69 58
-5.50025 7.06704 9.13058 66 78 67
0.459728 14.7532 24.4759 99 56 6
3.46961 13.1926 14.3101 65 66 50
-6.1743 -14.4236 3.05365 80 96 85
-3.7326 6.16233 10.7659 61 75 64
-1.59637 -1.60222 25.6929 66 77 67
-1.22543 14.6344 37.2524 53 60 48
6.53587 4.61398 -12.4955 156 159 132
9.19411 2.62324 12.4119 64 74 64
-5.81877 -9.81964 -42.7378 90 106 95
-5.32196 8.75065 -8.4022 143 118 90
-1.4374 14.2271 34.874 67 61 35
-5.72985 -10.4599 -41.9128 90 106 94
-4.9794 10.9369 9.14205 61 71 59
2.0583 -3.31544 -19.0326 76 97 83
3.86689 15.9631 1.1181 86 48 10
-7.13323 -14.7257 2.69337 69 83 73
0.974247 -5.87509 -13.9397 105 124 106
8.4977 6.10418 -0.870206 114 134 117
7.59966 5.05279 8.26079 71 82 72
-3.54282 -1.34944 5.06413 63 75 66
9.10946 7.23447 3.74557 68 82 71
-6.38019 10.5554 -5.2445 73 72 60
-8.26903 -8.04011 1.01392 62 76 66
6.71882 -6.41 14.8597 66 77 66
6.78854 -23.443 -7.9262 62 74 63
2.10202 -20.3308 -9.22782 62 73 62
-0.98233 16.84 29.1513 77 74 53
5.03183 0.620419 -12.6176 97 114 98
-7.3299 -4.58367 3.47108 70 84 71
-2.58895 -4.52516 25.5606 137 160 139
-1.42592 11.117 -10.6721 121 87 21
-6.52125 10.1021 2.18105 79 79 59
9.00468 -7.71784 -9.17468 82 97 85
-0.0859299 16.2933 26.7233 91 47 1
-0.642637 -6.66933 -26.8186 108 102 77
8.55606 6.6416 -0.0468483 61 73 61
-3.2835 0.773335 6.0506 58 70 61
3.97983 3.45952 -14.1045 147 143 104
-2.1409 14.9684 6.78743 56 41 16
-8.10077 4.89513 -3.54453 62 74 62
-2.70581 5.19231 20.2709 71 83 71
0.8764 15.062 36.2897 60 68 54
-6.22318 0.820585 -12.633 76 88 73
8.88311 3.68824 10.7762 108 101 71
7.96679 -5.83094 -9.90084 146 141 106
1.68709 -0.0668488 -18.0286 124 98 56
4.40146 10.499 -10.2127 115 90 63
-0.152149 16.8807 27.8582 92 51 3
-1.93706 13.3546 10.2638 57 59 42
-8.22514 -21.817 2.70104 74 92 83
-3.55724 9.8121 10.9621 68 78 66
6.49953 11.4423 -5.23452 103 115 100
7.34356 3.92628 -11.6051 131 152 130
3.1588 -3.3562 -12.1445 154 181 157
1.42541 18.0735 3.92189 65 53 29
-1.17412 -5.6418 26.7285 72 82 70
-5.32706 -26.335 7.46905 64 74 60
-1.86444 4.2194 -16.9551 173 153 130
6.77858 -12.2998 -10.859 129 145 120
7.17734 9.49249 -6.5079 115 129 112
-4.54642 10.8882 -6.99776 121 96 61
-4.30784 -4.72954 -23.2323 82 83 65
-6.02486 9.78297 7.44006 60 69 58
-1.91402 15.9097 30.1906 66 61 31
-7.61103 6.56602 1.17213 71 84 70
-3.24508 -7.8253 -32.0777 109 102 69
8.45662 2.58306 -7.26727 81 93 78
-6.71496 9.4657 -3.74127 62 78 69
8.14271 -2.67285 -8.54729 135 148 125
-7.53633 -4.15642 1.2458 58 72 61
1.94486 15.8066 -2.9393 70 48 9
-2.19726 9.90393 26.5407 70 73 54
8.91029 0.214996 13.7072 66 75 63
8.51783 -24.0749 -10.6473 116 127 112
-2.28227 15.3723 4.99251 59 50 30
5.55778 8.37617 -11.2706 130 122 91
-2.16111 -7.73883 -30.1772 122 115 82
-3.19586 -27.6229 6.88511 63 68 55
0.00626755 15.9399 26.0212 90 60 0
-4.83182 13.5926 -1.67785 58 42 8
-7.73285 6.10751 -2.71205 69 78 67
3.00282 -19.9931 -7.73294 53 65 52
6.39748 6.7536 -11.4444 134 121 91
1.66844 -3.65945 -20.065 92 107 93
-5.181 -12.3997 2.08623 67 85 71
-5.14936 -8.0206 -31.8722 67 74 63
-10.3719 -6.76839 -50.3426 61 71 63
1.07324 12.8824 21.6147 87 55 0
4.88088 15.6565 5.06012 76 68 45
-7.18349 -16.8636 -0.147629 130 160 141
-7.95847 -0.664057 -7.99039 98 118 102
3.84272 10.57 18.1009 84 55 16
3.32469 12.1674 26.124 86 92 74
-2.94544 11.4756 -9.01084 102 87 55
1.38652 18.253 5.8147 67 52 29
-9.66349 -6.29764 -51.666 97 105 92
-2.09199 -10.1742 -28.9852 58 73 63
-3.98779 8.69177 -10.5806 97 89 64
-4.20765 -6.57384 25.0648 143 138 95
-6.16534 8.26851 8.62199 69 83 71
8.02567 12.7554 2.64033 80 97 86
5.92494 -1.84406 12.5172 62 70 60
-7.46523 5.72879 -7.04693 84 94 77
-2.38637 10.8201 12.0805 61 66 48
3.32846 15.2358 12.4099 66 62 41
2.02812 17.6076 5.08353 86 64 21
-5.88978 -23.9258 4.87859 60 68 58
4.74314 14.9766 -0.490715 76 56 13
2.87875 16.6647 30.1381 71 68 50
-4.22061 -5.76779 -26.6977 61 69 58
-2.21208 15.684 4.59724 52 35 6
7.48092 13.8643 2.74229 75 88 77
1.38984 12.634 -8.17587 118 75 20
-8.05261 -21.5783 0.788284 93 119 106
2.59288 -7.98064 -12.3509 225 253 222
-2.64164 0.297138 24.1666 56 51 34
-0.172211 -8.00527 -17.9156 71 84 72
-4.14244 3.39698 -13.9443 141 134 100
-1.57711 2.88011 -18.4179 117 73 14
9.6498 1.97498 -4.38266 78 92 80
8.25372 8.30359 -0.24914 69 80 69
5.13839 7.66955 -11.9231 146 133 87
-6.85154 8.53854 2.47735 83 89 72
-7.75175 -6.49695 2.25259 62 74 63
8.11863 -3.35712 15.1665 67 78 67
8.69752 3.40691 -6.41827 147 171 144
0.1043 16.3028 -3.03661 78 43 20
-4.52791 -6.86816 -27.2458 64 67 54
5.67972 14.9388 7.75855 69 74 60
6.64666 -0.851326 -10.1908 120 140 121
-3.34453 14.0442 6.00217 52 36 12
-0.356138 -2.11026 -21.9628 119 92 45
-2.0406 -3.40591 -25.6973 109 91 49
-6.74769 8.82159 1.5456 67 79 65
6.68207 8.73376 14.6269 64 76 67
9.34202 0.00761795 -3.48827 62 73 64
-2.90513 13.1249 -6.02554 92 72 39
7.66922 2.98996 8.91371 150 171 150
-2.32008 14.6497 -4.22078 70 47 7
2.8057 -0.977272 -17.3518 109 121 99
-8.692 -9.00597 -44.8063 56 69 60
-1.45668 14.6757 31.961 65 73 63
6.45461 12.1179 12.4851 62 69 57
2.04773 17.0051 27.6507 104 63 9
-8.7569 -26.2511 2.0405 124 147 125
6.24146 -4.4419 14.0413 57 64 53
6.2598 -16.2226 -10.7732 100 115 102
-5.83747 -24.1697 1.37177 125 141 128
-3.16528 10.3172 -10.2235 108 89 58
-7.91157 -6.85794 1.74538 63 77 65
7.7053 9.46238 -2.02434 70 83 74
-6.94381 -17.0329 2.95628 77 89 80
-6.70648 -11.9956 3.20758 81 97 85
-1.72499 -4.7462 26.0663 129 152 130
-4.58285 13.6043 -0.110252 53 42 19
-5.90921 9.40877 -7.36654 123 106 57
-4.68377 -7.16887 3.40802 73 84 76
-7.73884 -5.84663 -0.264084 70 87 76
-2.38452 11.1987 11.7975 56 62 49
-1.55912 10.9521 25.5786 78 63 31
-7.77521 -10.6371 2.198 74 87 76
-1.18436 14.3071 31.7488 61 71 60
6.96305 13.6733 1.79909 119 100 53
-5.85974 -0.374739 -13.8748 97 115 97
-4.20278 11.2827 -6.80486 97 82 39
5.46926 2.49278 -12.4566 116 129 112
-8.57639 -1.22871 -1.28268 56 70 59
-6.12717 10.9533 -0.16272 64 73 63
-4.24139 -9.58256 -37.8587 95 110 94
4.95645 7.8517 19.0515 116 141 122
-0.143837 12.3097 38.9111 73 78 66
8.66016 5.19591 -0.0656633 84 99 86
3.48011 1.30231 15.2432 75 87 75
1.98355 17.6525 29.59 77 65 30
-2.8497 -10.6565 -31.9125 61 74 53
1.67689 16.7473 -0.45182 94 72 27
-1.04526 -2.43835 -23.1631 115 98 53
-4.3109 8.36539 -10.2998 95 85 58
-5.96425 -8.48478 -36.2395 65 72 60
-3.02019 6.12193 12.5463 59 66 58
-6.8073 -5.42687 3.88909 71 84 73
8.56797 7.23485 -7.13188 79 90 78
6.85307 -6.8918 14.9413 70 82 71
3.8901 -12.4565 -12.0567 148 167 138
8.42145 2.75734 -8.19636 60 71 61
7.25946 4.33896 14.2177 70 82 72
-10.2214 -28.4688 7.55959 71 87 75
3.57277 13.0577 24.0369 67 78 63
-1.75514 -5.05195 25.9865 147 167 145
-1.75288 -7.78065 -29.5831 84 79 53
-6.04113 11.5436 -2.25591 93 103 83
2.25069 13.6369 31.9048 116 135 118
-7.92101 -10.9564 2.08202 72 86 75
7.61426 10.2875 -5.3021 114 113 87
7.37455 -22.9279 -8.43128 60 70 59
-1.30205 15.1245 34.7759 78 75 57
8.71996 7.84755 6.71179 63 74 65
7.57092 6.92805 10.5594 74 84 71
7.73856 11.4966 0.584133 89 105 94
5.47604 4.24532 -13.1687 158 147 108
7.74228 -24.0636 -11.3495 155 161 126
-7.74933 -5.983 2.26075 63 75 64
-6.46996 -8.16899 -40.4957 66 74 60
-3.61184 -8.51318 -3.77923 134 160 141
2.56436 0.878464 -16.6144 122 89 55
-8.51575 -25.3874 1.66902 132 165 139
1.50941 -4.02826 -20.5091 90 104 89
3.25832 10.9171 30.5122 74 82 66
8.58525 9.24799 1.54389 112 129 112
-1.65194 -6.97171 -28.5508 115 104 62
-2.52814 12.5919 34.0769 51 46 25
-2.34835 13.0676 34.6162 47 34 9
2.39088 12.7757 16.3896 62 51 22
5.56995 13.6527 -4.79714 132 122 94
-2.8648 11.3644 28.2244 62 66 49
-5.46182 -23.1618 1.76537 95 116 99
-1.95377 10.8963 -10.6613 124 76 12
6.8175 -23.9239 -7.67536 62 75 64
1.39362 13.5305 36.4631 61 63 50
2.46538 2.59408 -15.4482 138 87 32
-8.22863 -7.55276 0.595253 76 93 82
-6.66617 -7.99157 -44.0753 72 82 70
3.67591 16.3479 2.49991 90 70 31
5.9974 13.8452 9.21197 78 68 43
-8.15277 -20.5938 2.37997 76 93 80
2.56503 12.2661 19.4929 75 53 23
-6.73234 7.05991 -8.41061 103 116 101
-8.20848 -26.2736 7.63387 62 74 63
9.25112 -5.59178 -6.73919 64 76 66
-1.65428 -4.14483 -25.8692 96 94 58
4.09776 -6.40738 -11.5946 164 184 152
2.86648 13.3136 27.6989 63 73 63
-2.45121 -6.18974 25.6642 149 168 141
7.61639 5.64245 8.81869 75 87 75
6.07924 13.3749 -3.57056 62 75 64
-8.07476 3.74894 -1.58665 75 89 76
-5.0803 13.1791 0.0257874 50 39 18
5.87515 12.9694 13.0329 68 52 28
-1.62847 15.6992 32.3065 57 50 32
-6.94079 -12.2716 3.0924 74 87 78
7.54345 -6.34738 15.0905 68 81 69
-7.12486 -26.8221 8.45412 68 82 71
-2.08063 9.48961 15.3724 51 41 17
-5.0489 4.32345 -12.4241 157 144 112
-3.36173 1.31285 6.37021 60 72 63
-8.09556 -19.4618 0.429741 115 140 122
-6.68804 -8.46318 -40.1036 61 72 51
-2.79514 9.10109 13.5336 56 50 28
5.03555 8.26143 19.8309 66 79 68
-2.28666 -0.830345 25.8104 66 74 60
-1.16151 9.42247 35.1473 69 78 66
0.1074 17.5944 30.0349 73 42 1
6.89462 10.8625 9.96664 67 74 66
8.89077 -3.07053 -7.71914 112 123 102
5.91234 13.7004 -1.77683 85 95 83
-2.20767 14.944 -3.77587 87 59 8
4.42519 11.9905 15.4965 63 49 17
2.93107 -3.82434 -12.247 150 175 152
-1.87406 -7.49628 -29.3058 88 78 51
-0.653328 16.986 -1.4978 68 38 7
7.6873 4.77239 8.85569 102 119 103
1.17354 1.81346 -16.9692 126 95 44
-1.21007 14.3606 26.2972 91 68 34
-3.79373 -1.69387 22.6774 84 90 77
-5.18856 -8.84131 -39.4291 71 78 63
-5.21486 -6.55536 -22.2639 64 73 64
8.13305 10.0093 0.423364 103 119 101
-11.3524 -7.49549 -52.5175 82 93 84
3.23153 13.4371 -6.35941 145 114 64
-6.94034 -17.5735 2.92343 76 89 80
-2.2456 15.3549 -0.573189 57 36 3
-4.26073 -6.02542 -26.0884 69 75 62
-4.47469 -6.39791 -30.5739 68 64 46
-1.89368 13.324 26.4487 93 53 0
7.61493 -3.63851 11.5092 162 188 162
1.18744 18.3794 5.28719 86 60 8
-1.49157 -4.54473 26.4836 88 100 87
1.22766 14.0426 36.4185 62 65 51
-4.64238 -0.426086 4.4122 66 78 68
2.54288 12.913 31.2275 64 71 61
-6.47077 -10.6806 3.33961 83 99 87
-1.45262 9.07745 17.6774 47 29 0
-2.48577 11.5016 32.3908 61 68 57
2.69304 -2.16035 -17.3659 89 110 91
-4.87263 -7.29046 -32.633 68 70 55
1.4544 18.0666 5.07984 76 63 33
-5.85225 -1.92239 -12.0804 64 79 66
8.71342 5.9041 5.72178 61 74 64
-2.03552 15.2708 6.31779 54 44 21
2.74773 10.9212 -9.75929 105 68 27
7.37806 -24.3063 -11.5761 164 167 133
-2.03829 8.90605 35.0429 63 71 57
-1.05658 9.43969 20.3083 83 60 23
-0.63857 -7.93197 -27.2685 92 110 90
-6.31048 -25.4497 1.34831 149 170 152
-5.05442 -2.97729 -17.428 81 91 75
-8.42339 2.01687 -1.93253 61 73 61
-1.92122 11.1799 32.9672 63 76 66
4.33424 8.42632 -11.8822 154 124 66
1.67482 14.4294 35.1379 64 74 64
9.14273 -9.39113 12.3129 103 114 88
-2.70351 -0.774302 5.72573 62 71 64
-6.35106 2.73425 -11.3955 93 97 75
-5.4304 -9.67704 -41.7694 93 108 94
-8.31863 -10.3008 -0.859276 124 149 135
-6.95508 -9.67304 3.13345 72 85 75
7.761 -4.39577 15.1189 71 84 73
1.75545 12.4206 19.4095 72 35 13
1.22598 11.3002 -10.0361 146 103 45
-5.08874 12.1428 -4.08906 82 66 37
5.97677 -1.79253 13.7347 53 62 56
-3.10336 -2.21109 -24.4789 122 107 68
8.49479 7.85031 -5.12601 92 104 90
4.49145 4.02783 15.5628 72 86 75
6.32235 -20.4883 -9.44538 64 73 62
-6.45941 -11.7388 3.25569 84 99 88
-2.36359 -6.89609 27.4938 78 88 78
-2.5582 10.2506 -10.9478 106 73 18
-2.65552 -4.48893 4.53703 62 76 66
-0.768711 -6.80601 0.115593 73 86 77
2.96989 12.4908 27.795 65 73 62
-3.91409 0.658882 20.5429 60 65 55
-0.433267 -5.04531 -25.2342 120 98 60
2.13955 4.68398 -14.3673 156 139 94
-5.07715 -3.6482 -17.9249 74 81 70
-2.16533 15.9145 4.4088 53 29 0
6.38625 2.94021 -12.2218 137 150 131
-0.76297 17.9109 5.27982 61 38 3
-8.01681 4.70338 -4.8827 89 107 89
8.33344 4.27795 10.0446 111 112 87
-5.08693 12.2715 6.56364 57 54 35
-8.44286 1.51408 -1.85565 61 73 63
0.699373 10.1586 34.1344 76 89 78
-7.19574 -3.04987 3.37808 66 78 68
0.0892963 10.9928 -10.7228 120 67 18
8.42862 -5.34932 -9.37037 144 131 93
-0.471692 16.0948 35.0985 57 40 15
-7.99612 1.05603 -5.16257 72 86 75
9.36352 4.07648 -4.53913 76 88 74
-0.162588 10.2057 34.414 82 95 83
-7.99035 -10.4161 1.99518 71 85 74
-7.69983 3.9189 -6.19755 66 78 67
-2.39804 11.8641 11.25 58 60 44
-4.10466 -5.441 -27.8792 74 79 65
-1.54461 7.69537 22.8569 63 74 65
9.57384 4.7117 -2.34584 64 75 66
-6.93116 -15.9859 2.92684 71 86 77
-4.7655 5.07932 9.1853 63 75 64
1.34438 12.4297 19.5983 65 37 0
-6.6893 -22.9202 4.23727 65 75 66
-1.47064 7.65051 22.2834 80 94 78
-10.3889 -27.1233 4.72796 80 97 84
-5.28371 9.47295 9.37909 66 78 64
-3.48735 13.5642 -3.26523 93 58 1
-4.81252 -7.29675 -30.103 58 65 56
9.20763 -1.88406 -6.85939 108 119 105
-2.08784 -5.19474 -27.1966 114 105 61
-2.66012 -9.34853 -33.1776 95 109 88
2.01707 16.2634 12.3563 61 54 34
-3.46696 14.1895 -1.41106 72 42 6
-1.80471 1.07222 -20.4377 130 97 47
4.71792 2.22836 -13.3658 115 131 115
-2.92851 -5.71294 27.9261 81 95 83
2.66812 16.624 28.0739 59 59 48
2.91769 3.04197 16.1245 74 88 76
-6.27922 7.78135 7.8297 54 65 55
-7.40924 -9.86113 -39.3917 53 62 50
5.3589 12.9348 -5.06512 119 133 118
-2.44866 5.29625 -15.6109 127 112 77
1.6016 -23.0018 -9.29539 85 98 81
1.97934 11.3078 -9.75349 117 85 34
-8.01212 -17.3206 1.79654 70 85 74
3.34673 11.9392 20.4793 83 64 27
-8.68076 -6.89002 -49.4709 69 74 58
2.27417 12.484 17.809 77 71 47
1.24091 2.05585 -16.7403 124 94 52
6.63364 -10.6745 13.4689 65 73 64
-0.877886 17.5041 6.12636 53 31 0
-2.70039 7.91617 17.4548 51 48 31
-4.36587 10.0732 9.87019 63 72 60
-3.79278 8.62752 -11.0178 111 101 73
-2.69243 -3.94594 27.7479 74 86 75
-2.16266 13.2551 35.138 47 34 4
-0.902735 1.94775 -19.1504 131 102 48
0.710372 11.5845 -9.95196 130 107 56
9.61517 1.64387 12.3023 68 75 63
5.0389 3.42548 -13.2337 123 139 117
1.5429 2.53513 -16.0635 118 92 54
-1.22141 14.5133 32.3791 70 82 69
4.15511 9.88066 22.0326 82 93 81
0.200478 18.7657 4.86027 62 47 21
2.98166 15.0442 24.7264 93 86 67
-4.14805 13.173 5.86699 52 37 9
-8.72532 -7.89201 -46.1381 58 68 58
-8.05113 -0.792654 1.42872 58 69 59
-1.70517 11.7613 37.9326 66 73 60
-2.15788 5.52291 20.5569 72 84 73
-0.454117 18.2905 3.24709 53 33 9
-11.3564 -7.4052 -51.7566 53 65 53
-4.24209 -26.6935 6.93983 61 67 54
7.85655 6.99793 12.3105 95 101 80
4.39158 7.99353 -12.1323 154 120 81
-5.22929 -14.9872 2.26177 63 76 67
-7.93378 -20.2659 2.60421 79 92 81
4.95088 8.33679 18.7352 64 77 66
-3.80014 3.27086 8.16238 50 61 52
-1.87189 -7.21761 -28.9981 118 114 76
2.16057 13.6715 22.6521 115 81 44
-3.33141 14.4595 1.28374 57 41 12
-3.49451 -27.5236 7.04906 63 68 57
-4.67956 -27.2386 2.76147 149 175 150
-3.59674 7.17186 -12.8021 115 105 67
-5.40854 -8.67952 -32.5043 60 67 55
-0.584076 10.0509 18.8737 51 31 3
-5.69713 -24.7442 1.80837 126 143 125
-11.3021 -6.839 -51.8072 52 67 59
-0.798083 15.8895 35.513 50 33 4
1.6742 17.4746 1.90215 64 46 9
6.21765 -16.8072 -10.3393 61 79 66
-2.80537 11.8086 10.7317 53 46 24
8.23674 -8.06725 -10.1237 140 157 132
2.9916 14.586 24.1363 106 101 69
-5.97926 -8.75147 3.22993 78 97 85
-0.579306 -5.45581 -25.84 118 106 62
-3.16302 -10.0675 -34.2875 76 93 77
-10.6189 -7.68369 -49.9994 60 74 67
-2.61903 -8.93245 -32.9981 99 113 92
7.92335 -3.79003 15.1183 67 79 68
3.04579 14.2251 13.7049 68 71 59
8.66424 -3.57735 -8.25903 127 129 101
-0.458491 16.3928 27.1342 76 44 4
5.51226 -9.60082 13.447 75 77 49
-5.50627 12.5988 -2.31906 111 101 69
-5.19544 -14.5027 2.11439 65 72 67
0.529495 17.071 32.1325 56 43 9
-10.3135 -26.3103 6.41196 57 69 61
-5.25173 6.00278 9.14929 66 78 67
-9.86783 -7.28424 -51.96 115 133 116
-10.8414 -6.05596 -51.8274 58 66 59
3.58518 11.1887 -9.29404 81 43 3
-1.66482 -4.27169 27.0377 72 83 72
-1.40009 2.26138 -19.0003 127 85 14
-2.12003 -2.19669 -24.315 166 149 104
-8.43099 -9.5791 -48.4799 109 130 117
1.85469 13.4871 35.2491 62 72 61
-8.35583 -0.217796 -1.17234 60 74 63
1.84301 16.8424 31.828 66 61 39
-5.07461 -24.4746 4.51617 60 62 53
-1.44183 8.40597 23.8423 59 67 58
-7.69112 -2.95876 0.774971 57 69 59
-1.0506 12.3953 13.6153 60 54 35
-7.45122 3.02333 -9.82627 67 77 67
-0.417879 18.2798 6.04365 76 45 6
8.97427 8.74142 5.92171 69 82 71
-3.73198 1.23798 20.7708 65 70 58
-5.63546 -18.1034 -0.133667 122 141 117
-6.71052 9.26099 0.565212 63 65 53
-3.34193 2.57529 -16.9348 96 90 62
7.60124 6.59964 9.22571 71 83 73
-4.3211 4.12873 19.0436 67 79 66
1.86546 -20.9564 -9.42284 86 95 80
3.4116 0.0155792 -15.8552 107 115 95
-4.5564 8.95298 -9.13046 112 97 69
0.807896 -6.19454 -14.06 102 120 102
-2.16582 12.2919 29.2447 52 48 36
8.44581 5.78987 -7.36194 122 142 125
-8.08148 -0.139061 -5.436 63 75 65
3.15832 4.46615 -14.2521 147 125 72
-2.0183 14.7549 -5.05196 96 73 34
6.73763 12.2501 -1.21427 93 101 83
7.6797 6.89601 11.4499 75 83 67
-3.32087 12.7168 -5.42985 85 64 24
-4.08479 5.42725 18.0136 76 83 68
-6.54667 9.75345 1.16062 67 71 60
-6.44949 -17.5692 3.05291 79 97 85
9.19769 5.53693 -2.00886 61 70 62
2.05717 13.1596 -6.92561 125 74 18
-4.83706 -5.99974 -24.1914 95 99 77
-6.22764 -7.58031 3.47375 79 93 82
3.57974 12.0327 22.1803 63 68 56
-4.68948 -5.99245 -5.757 109 130 114
6.56352 5.9388 -11.8613 129 117 85
-1.88259 9.37401 16.2187 49 31 3
8.85496 8.8315 4.58197 95 113 97
2.70063 -5.30203 -12.2153 161 189 162
-5.93965 12.5541 -1.28905 65 69 57
-7.82259 4.25308 1.78494 68 79 67
6.42086 -6.96418 -11.0783 159 149 104
-4.58539 5.33624 9.42741 63 75 64
-8.55718 -10.9669 -0.659496 114 139 120
-2.25652 -8.3657 -31.2446 95 101 73
-3.17255 -1.13647 26.2234 61 62 47
-5.33363 8.27886 -8.83681 142 126 92
-1.73598 8.85257 22.471 75 75 50
-5.18503 12.5357 4.24975 60 50 28
7.08228 11.2958 -1.90549 84 93 81
9.11009 -5.3648 14.5533 66 76 62
6.3315 -2.94841 14.1863 54 63 55
2.67807 12.4249 16.6041 70 67 51
0.0683174 10.3659 34.2894 81 93 83
-0.534462 17.1373 8.40762 62 54 32
-7.33141 -13.9454 -0.884125 162 196 170
2.89342 12.8372 -6.94588 109 78 29
8.68711 -9.65355 11.9278 153 145 107
-6.80267 4.25903 -10.405 144 138 97
-5.23904 -15.2397 2.30146 66 79 68
1.35022 14.8837 -5.16162 111 66 28
-7.31857 6.88702 -6.57462 74 85 72
4.09969 2.50068 -14.0948 136 142 115
-5.45741 -15.5738 -0.261253 132 158 141
-7.18084 7.50198 -7.08896 92 106 86
-5.43831 -8.23373 -38.0106 81 86 69
-10.1584 -27.0709 7.4015 69 80 70
5.18814 11.064 -8.23158 93 82 61
1.21151 18.2983 7.84354 56 39 10
-2.23886 12.491 27.159 63 73 64
-3.77901 -4.20623 -26.8759 114 109 82
1.11282 16.4743 12.2959 56 41 13
-5.39495 -5.65307 4.34386 76 91 80
5.30342 -7.22643 -11.3954 159 169 133
-4.57804 -26.7545 7.25729 65 74 61
-6.70074 -17.2946 3.02341 80 94 82
-5.22118 11.8424 5.38398 63 63 46
-6.26132 10.8444 -3.5574 72 67 46
8.86247 3.27245 -1.75592 61 71 63
-6.23007 5.47059 -10.2622 130 131 103
-4.89047 -4.92102 4.35255 63 76 66
-6.45503 -17.0259 3.09457 82 96 83
7.00683 7.93951 14.5012 66 78 68
-1.65957 13.6856 -7.63854 96 58 18
-0.0410566 9.23802 -12.4116 146 103 52
3.1862 -4.15611 -12.0131 151 175 153
-4.24399 3.22578 19.5363 69 81 70
-8.18018 -21.0864 2.50143 76 91 76
6.84489 -3.54688 14.8142 64 78 68
4.66066 -22.2077 -11.6679 174 180 143
-0.431374 -1.70153 -21.6984 124 98 43
7.50626 -22.1327 -9.02647 60 65 54
-5.21514 -3.68639 -16.2487 65 75 65
-6.70837 -9.85498 -1.61395 166 199 176
7.45941 10.4736 -1.65627 80 94 81
-0.131496 -5.0615 -24.752 88 77 56
-7.48622 -10.5625 -39.8181 52 63 55
-3.75577 14.1625 0.479014 50 33 8
-4.27198 9.19859 -9.32266 121 105 76
6.70248 -6.48499 -10.8971 143 139 103
5.02679 6.87264 -12.4572 135 118 80
-2.23048 13.8922 9.29887 46 30 4
1.85915 -21.4066 -7.80462 56 66 55
-6.22642 11.2221 -1.50447 62 70 60
-2.4576 -5.09358 -27.6754 100 90 54
-0.19891 7.47388 26.4344 70 78 65
-5.98484 -0.995171 3.67091 67 79 68
9.46556 0.666912 -5.73731 86 104 89
5.84823 4.58777 15.028 71 85 74
1.92838 -23.9622 -10.2188 101 118 105
-4.80895 9.50677 -8.17622 106 97 76
-6.89283 -0.535286 3.22998 69 81 70
-4.35981 2.72724 19.3807 67 77 66
-1.69025 8.28785 22.514 74 87 73
3.24876 3.94626 -14.4546 144 130 83
0.674459 16.6109 33.2292 61 49 28
8.70542 7.04285 -6.65139 77 85 68
-7.75934 -7.00538 2.26951 64 76 66
-0.551308 8.22376 35.5886 80 93 81
-0.227777 5.54232 -15.5485 146 121 75
9.29447 -1.68711 -6.59011 111 130 109
-1.26687 0.104334 6.91224 62 73 63
5.4239 5.27446 -13.0627 162 132 84
3.10567 11.9143 15.99 67 68 53
-1.60532 13.4208 28.4933 70 84 74
-1.47584 8.59883 35.5577 70 80 67
-3.014 -4.99648 25.4903 144 168 145
3.78301 6.46789 -13.314 154 117 70
-1.13975 11.3918 14.4092 56 48 22
-5.49053 -11.6375 -38.7904 65 81 69
-7.92039 -8.93571 1.69812 69 85 73
-5.86135 -1.44056 -13.2592 88 105 91
0.396772 3.83384 -16.2635 108 86 50
-2.47156 10.1985 32.9436 66 72 59
0.238682 12.3059 21.1732 56 28 4
8.12336 -6.91712 15.1438 71 83 73
7.92983 10.3807 8.48513 63 74 66
-1.38034 -2.35623 25.6959 67 78 68
-0.16016 12.8173 22.9355 62 49 19
6.04525 10.3624 -8.27543 80 75 59
8.0064 13.0502 6.47077 66 76 66
7.21423 -3.02567 15.0041 68 83 72
-0.610254 16.0222 10.3113 56 42 19
-7.89087 2.80599 2.074 67 79 67
-6.34877 -5.91199 4.08914 74 87 75
-3.94105 6.22319 -12.8507 115 116 83
-6.63809 9.64421 -2.55603 67 83 70
0.98962 18.5296 6.45062 66 45 16
-4.32416 0.0703735 -16.3774 130 123 91
-0.171824 18.5541 3.5024 63 41 18
-7.90575 -19.7751 2.48062 79 93 82
3.26686 16.1528 9.94256 66 49 22
9.27215 -4.55563 13.0463 94 107 91
-2.00136 12.8557 36.719 68 75 58
4.57158 5.48393 -13.3928 165 137 91
-8.67709 1.38185 -3.43851 85 101 87
-0.414066 -7.44678 -26.8343 101 113 94
4.33069 13.6167 -5.68291 121 92 45
-7.72026 -20.2011 2.84198 78 92 81
-3.61782 -2.8968 -24.3041 94 91 72
-2.10039 -9.10772 -31.0438 76 88 74
7.55204 13.9765 3.65146 65 75 65
3.19594 -13.2424 -10.6312 79 92 78
-7.06564 -21.3912 3.41585 77 91 81
3.31572 -0.484543 -16.3898 121 130 103
-8.21169 -10.7141 1.79681 71 85 74
-1.49137 10.4101 24.5682 89 59 10
9.68901 0.827427 10.7529 146 158 133
1.74561 12.8066 36.0796 59 64 52
-7.55579 5.46936 -6.32709 81 93 79
2.78115 -0.641815 -17.2566 116 123 104
-9.98001 -26.5961 3.94257 76 94 83
6.73185 11.1244 11.4789 87 103 87
-4.3241 1.51212 -15.1147 145 136 96
-6.08743 11.9158 -1.04585 67 76 61
3.63299 1.65839 -14.9629 124 126 94
8.77935 -24.0643 -10.0353 101 115 93
-8.18425 -17.6535 1.03249 93 116 100
7.72315 8.76944 8.90412 61 70 61
9.18865 7.6612 3.21728 70 84 73
2.38471 13.0219 21.7704 99 66 23
-7.55612 -10.3388 2.40057 73 85 74
8.22616 12.2912 3.42652 64 77 67
6.38979 12.8902 -1.23533 94 104 90
-2.33414 0.0334721 6.23312 62 70 63
-7.53269 -21.1727 3.16686 72 85 75
1.57295 1.6128 -16.8612 143 113 70
-2.29316 12.2755 28.7057 55 56 40
-7.73767 -10.0276 -40.8091 56 66 57
-5.53792 -22.3257 2.826 63 73 64
-0.881937 9.59985 18.1747 54 31 3
-8.62761 0.677401 -2.32145 61 74 63
-7.98031 -21.2646 2.80279 71 90 75
-2.48833 11.942 33.4804 61 69 57
-4.24496 -5.45426 27.6039 80 90 83
7.76705 4.96332 -9.16435 83 95 72
-8.36456 -9.26257 1.31773 74 89 78
2.24421 -5.98829 -12.4592 141 166 143
-3.03518 13.6855 -4.09158 88 64 18
-0.476297 17.9232 0.514435 80 47 7
-5.11706 -9.57098 -40.5499 82 96 87
6.07355 10.4248 -8.03206 96 89 68
7.89146 3.02747 9.13201 147 165 143
-3.63955 5.28648 -13.9856 115 113 90
-0.315897 18.5516 4.0474 98 79 45
-5.59642 -13.1509 -0.937645 146 182 155
-1.24581 5.64171 21.2869 67 83 71
-5.97154 -19.6604 -0.47295 150 186 163
-7.73018 -20.9323 2.96988 76 89 78
-1.18886 13.4196 31.7228 62 75 67
-4.39542 -4.93654 4.39638 60 70 62
-0.892776 11.6854 24.985 98 82 55
7.83319 12.4569 1.75017 122 143 123
-6.69704 7.48803 -8.12971 101 113 92
-1.32058 6.95093 -14.4378 130 112 66
-0.450941 16.3153 34.2548 46 30 0
7.13669 5.72363 -10.5035 93 97 81
8.24762 8.69021 7.72065 67 79 70
6.1056 -9.35227 13.3955 78 86 63
7.06122 0.134045 14.629 71 83 71
-3.28536 10.7618 10.7375 61 69 57
-2.38631 12.3622 32.0764 63 48 19
7.90884 4.9896 9.58757 92 100 83
-6.51877 9.73435 -0.178337 62 65 52
7.85652 7.30804 13.6359 65 75 65
2.73159 13.564 29.3549 64 73 64
8.65565 8.61973 -2.90406 64 75 65
-2.77286 3.51097 20.6876 76 88 76
-4.83775 -6.02013 25.3398 143 129 96
8.5822 -23.8854 -8.9735 57 68 58
8.20312 7.74915 7.62898 70 80 71
1.70144 3.7776 -15.0776 138 116 67
-3.04202 6.60565 13.1759 58 68 58
0.483393 -4.10344 -23.0059 98 103 76
-6.62741 -8.44179 -39.6356 64 73 57
-5.29687 -2.65102 4.24695 64 76 65
9.0892 7.63175 3.98357 66 79 68
-4.85766 -9.4673 -39.6053 88 102 86
-8.18279 -10.2277 1.66777 73 86 75
-5.1354 10.1669 9.32431 67 79 66
1.44633 13.1 36.8954 63 64 50
-6.31797 -21.6711 3.5589 71 82 73
-4.22448 -25.4138 3.72898 94 103 88
-4.74822 -2.56615 -17.9925 87 90 72
6.95871 10.8285 12.5363 65 73 61
-3.40581 3.7111 20.1792 76 87 76
-1.88822 8.36483 18.0358 51 45 27
-6.97583 -8.37393 -41.1049 61 68 56
-1.39746 -2.44281 24.4159 109 123 107
-4.91691 -8.24026 25.1861 114 122 95
-1.52583 15.2334 32.6632 70 77 66
-8.57677 -10.5317 0.376892 63 76 71
-2.26773 5.96948 20.354 74 83 73
-3.91661 0.0916595 21.6218 65 64 44
-7.87356 6.62372 0.847565 71 83 69
-0.65934 -8.68694 -22.0758 79 94 79
0.938417 -3.48428 -21.7689 84 93 71
3.18611 16.1931 10.2374 71 58 30
3.06046 12.2838 20.7916 79 55 4
-7.20489 7.60948 -4.68269 68 80 69
-2.19048 -9.83873 -30.4115 51 61 52
-7.66333 -3.5051 0.605293 62 75 65
2.93594 -6.29354 -12.0278 169 194 167
5.97382 13.9353 -3.05252 61 74 57
1.34386 -23.5245 -8.05173 75 89 75
-1.53741 -1.46585 25.4557 66 77 67
8.69568 7.01335 -5.76453 56 66 57
-7.87855 -9.30221 -42.0232 57 66 55
5.55219 8.76915 -11.0351 117 119 94
6.81521 -12.8173 -10.8636 135 141 113
-2.75907 14.9508 0.539347 82 54 6
-8.28182 -7.13451 -48.6164 68 76 59
5.53082 15.1622 1.45025 74 69 46
-0.720917 -1.17578 -21.6236 102 89 55
-5.08987 -28.6489 8.37083 74 86 76
3.52197 12.315 22.9557 85 96 76
9.35066 0.754303 -6.092 100 115 97
-7.09323 0.260109 3.01297 69 81 69
-2.47218 -0.421814 25.3998 66 70 58
0.370121 7.01818 -14.2502 137 102 49
-7.47588 -7.48925 -45.2855 61 71 59
-6.63473 9.89158 -3.23458 60 73 60
-1.34239 16.5196 31.2988 49 38 15
-0.246441 -8.30675 -17.9028 67 78 68
0.142229 11.3865 17.6177 61 63 48
-1.32166 17.1772 1.75984 57 35 3
7.41142 6.98988 -8.87396 116 130 110
9.95359 1.22882 11.9597 63 73 67
8.53405 -6.64411 15.0777 68 80 70
6.33368 9.73412 -8.51902 88 89 72
-7.51297 -7.49726 -46.1504 74 83 71
-7.2796 5.39811 -7.9343 78 93 79
-4.12465 -1.56559 -18.6671 110 98 60
-2.46121 -10.7563 -30.0051 52 61 52
6.7065 -5.81701 -10.729 155 146 103
-7.91364 -7.11561 1.74382 63 76 65
3.98753 1.26527 15.1412 75 90 79
-6.75343 -2.47272 3.71926 67 80 68
-1.6032 16.6709 1.23606 66 43 5
2.80212 11.8364 18.0127 63 62 47
-7.9814 0.285822 -5.04536 67 80 70
4.07015 15.411 9.5687 67 60 42
6.18087 -12.9298 -11.4514 153 156 124
-7.33144 -9.52884 2.58685 72 86 74
-1.45405 -0.309757 24.1435 64 77 64
-3.9503 -8.79262 -36.466 72 81 63
-0.169571 11.8201 39.0141 78 86 74
-3.71846 -1.84247 -20.2606 80 82 63
4.86596 15.9362 4.14502 71 69 43
-7.74661 -7.53976 2.18175 64 78 68
-6.18183 11.6393 -1.12316 67 76 61
5.64674 14.6699 8.10803 68 76 62
-7.90418 -12.6053 1.83088 72 85 74
-8.20018 -21.32 2.59422 72 89 77
-1.6355 11.4167 33.7459 61 69 59
-4.31215 4.6119 9.2816 59 70 60
2.2013 13.5462 31.4809 63 74 66
2.98618 11.4912 18.2641 62 62 43
5.7611 -16.8854 -11.5129 134 157 131
-0.799535 16.6643 32.0258 50 38 16
-3.17344 12.0545 -7.26088 100 83 53
-2.15228 12.356 36.5966 61 68 57
0.950764 11.584 -9.86614 108 73 21
3.85819 10.6055 23.4001 60 67 57
7.69363 7.67587 -8.30818 127 133 111
-1.61012 13.1503 37.4964 60 62 47
-7.50097 -7.75928 -43.8598 58 66 54
1.73019 15.0927 14.1199 62 55 33
8.42601 5.32763 12.2662 70 74 60
-5.03271 -4.92082 -20.3695 71 77 64
-4.69464 -6.38546 -25.1112 95 97 76
8.26827 -1.39824 -8.0965 131 152 132
5.14539 -5.73126 -11.1799 164 176 146
-0.977845 16.3642 32.4179 46 34 9
6.09716 -8.41567 -11.2981 172 172 130
-0.213749 -6.88966 -26.2126 105 124 102
8.94147 -3.31587 -7.74658 121 132 109
-4.34108 6.59219 10.372 65 79 67
-0.134205 3.53426 -16.9758 136 106 78
-1.57405 -4.1221 26.7572 71 82 71
8.32823 7.67596 7.21362 61 72 62
-5.06612 -4.64281 26.6424 66 80 69
5.92545 -18.636 -9.95292 66 78 67
1.00346 16.7219 32.9194 64 57 39
1.6725 -1.91039 -19.7044 98 87 50
1.09927 17.6696 30.537 60 46 16
-6.27509 -9.17323 -44.5176 90 107 91
-0.978536 13.4854 38.262 65 64 56
3.05553 12.4782 21.2006 91 67 12
-8.3364 -7.21862 -49.1596 85 89 78
-8.1376 -8.97359 1.4902 73 88 77
9.51623 4.5661 -3.50182 94 108 92
9.04803 3.59696 10.9593 109 102 78
7.22053 11.0213 -1.63824 80 91 76
-5.1476 7.79876 -9.68071 115 101 65
9.46936 5.87144 -2.72572 66 71 63
-7.9703 5.72269 -1.03916 73 83 68
-6.45762 -23.1455 4.37617 63 74 66
4.23104 10.8436 -9.87588 96 69 33
-1.17718 11.2211 -10.6396 108 74 43
-5.53648 -2.17104 -14.3802 74 88 73
8.26578 0.174797 10.0216 150 173 142
-3.49232 5.7824 -14.014 121 115 76
-5.47265 -19.211 2.31596 61 73 65
-6.57796 -5.66942 3.9887 72 86 75
8.47375 -23.7067 -10.5671 114 135 118
4.4574 12.4982 14.8777 66 46 13
8.75085 1.20924 -7.30402 110 129 109
-8.53425 -7.83222 -45.6588 59 73 59
-1.27062 5.17548 -16.0926 133 112 62
6.70351 -1.76897 -9.85426 135 156 136
3.33896 15.8978 -0.213521 88 78 55
-2.64811 10.5475 -10.5662 138 111 88
-7.91136 -20.3572 0.286163 120 143 125
7.22472 2.51227 -11.2375 117 132 113
-3.20345 -0.43103 25.2023 52 46 26
-4.40846 -1.41712 4.47767 66 78 68
3.03057 15.7978 26.2817 72 67 49
-7.63234 2.95609 -8.41032 81 96 80
-1.47858 -3.9968 -25.4192 110 101 64
-6.83715 -26.1306 8.30023 56 67 60
-0.898817 3.53798 -17.516 101 66 20
-3.58686 -25.9517 4.94741 57 63 51
8.97566 9.72149 3.27058 67 79 68
5.36388 -18.6342 -9.29629 67 80 68
-7.38515 4.99247 1.88133 71 86 73
-1.48262 -1.01092 24.909 66 77 66
1.45347 -22.3493 -7.87695 62 74 62
7.0367 9.79282 11.2436 107 121 103
-3.44102 -26.1864 4.48723 84 94 77
-6.24674 7.58588 8.41907 64 76 65
-5.30424 -9.23535 -41.4377 76 87 76
-5.70091 10.3175 8.12817 58 64 50
-8.03654 0.251266 0.0537338 60 72 62
7.71963 -1.22742 14.8412 67 78 67
-8.22703 -7.15995 -47.3263 66 76 64
-1.46404 14.7596 30.2001 77 86 73
-5.59105 -8.56302 -40.3954 65 71 58
-7.77647 4.85832 -6.08914 80 91 79
0.193928 5.83423 -15.0581 127 87 30
-4.49416 -28.3411 8.00573 66 80 68
-4.49243 2.01604 5.94087 55 66 57
-7.75517 -16.4191 0.478416 77 96 83
1.91688 4.59109 -14.4935 152 116 69
-4.34885 -0.493061 -16.91 138 130 94
-3.29131 11.0353 -8.91821 78 55 26
8.52142 -7.00362 -9.78031 138 123 81
9.07914 -2.23148 -7.28399 137 150 127
-4.52388 12.4623 -4.34864 95 69 20
-7.75936 -10.134 2.1384 75 88 77
5.4502 -16.4966 -11.8981 146 159 135
-7.10039 5.80584 1.86242 68 82 70
-0.421446 14.3277 12.9611 60 52 27
-1.2039 13.6811 -7.73242 102 62 19
-8.03053 0.475639 -4.75031 73 88 77
-4.75651 -6.76752 -25.7837 96 100 79
2.42259 17.3009 5.89234 73 57 24
7.13135 13.9752 5.19087 104 102 75
3.64073 12.182 15.1917 66 56 30
2.4204 4.34577 -14.4237 157 127 75
-1.68384 14.1391 26.6929 90 65 31
-1.61962 14.7594 8.80703 55 43 16
4.96066 6.46426 -12.81 141 111 67
-1.68997 15.08 7.97304 54 44 22
9.38746 -4.79412 13.5369 82 94 79
0.639191 15.7061 12.9709 51 35 2
7.30337 -2.47295 -9.32381 148 157 129
9.19495 7.85289 3.48006 73 87 76
3.4762 11.0864 18.7184 98 57 3
0.602592 12.1291 19.5111 48 25 1
6.62192 3.99783 -12.4622 140 158 130
7.19052 8.05387 14.3443 66 77 67
-4.13217 -5.1758 -25.0446 65 72 57
-3.31446 13.4359 -3.97461 94 64 14
10.0282 -0.16824 11.6243 78 87 70
0.978676 -1.24966 -19.8035 122 91 15
-4.67356 9.41301 -8.51905 136 131 100
-1.64891 -7.55315 25.9818 127 146 123
5.48895 15.2497 2.66147 109 69 16
-0.257061 16.7567 10.3882 52 34 5
7.55627 -10.6683 -10.5567 139 154 125
-1.97723 14.4225 -5.84959 98 71 45
7.15295 2.79335 -11.5349 118 132 114
-1.34344 10.4202 24.2662 74 54 20
2.98292 -1.63094 -16.7976 91 108 94
7.46098 -0.697666 14.7611 68 80 69
-2.9063 -9.8751 -33.7059 63 74 62
-3.22784 12.4274 9.62699 62 70 61
-7.41541 -20.7718 -0.0895996 142 172 151
-7.21462 8.60909 -2.38355 86 90 75
-1.69679 16.3703 5.39601 57 44 13
-7.97596 -10.1733 1.93116 74 87 76
7.69389 7.15856 -8.43043 136 147 124
-6.25723 -9.62692 -34.8838 59 65 54
-1.20436 9.60862 16.7865 51 39 15
-3.31421 -7.28609 -31.2202 100 92 61
1.38099 18.1841 7.33916 64 53 31
3.11777 -14.1623 -10.2058 76 89 74
-0.691605 -0.481777 20.402 70 81 70
2.28087 17.3201 4.65004 71 58 28
-6.31688 0.48909 -12.0834 80 94 80
8.0525 8.86501 -5.49806 117 135 120
8.67767 -24.6404 -10.6108 114 125 112
7.96485 0.0227432 14.3835 65 77 66
0.740093 9.66549 34.554 73 85 73
-0.10693 -0.663469 -20.2754 127 106 67
-0.972492 -7.06081 -27.6526 118 127 93
-5.02268 -0.612228 -15.7758 119 124 98
5.93535 12.2063 -5.49208 99 91 66
-1.26614 9.95676 16.0215 50 32 6
5.06147 14.3919 9.47987 78 67 42
-3.02268 4.41308 9.85149 54 66 55
2.89643 12.3903 20.4851 78 50 9
-7.81303 -6.14134 -0.117798 73 92 80
4.87314 14.7238 9.02614 70 70 56
8.36358 7.55676 -1.12948 107 125 109
6.07119 -21.7233 -8.22802 61 70 60
0.475359 0.0303345 -19.0523 129 96 36
3.87395 1.99866 15.4304 76 89 77
0.812744 17.0783 11.2818 59 45 22
-4.52539 6.8257 -11.5567 119 106 78
-6.49091 -8.84944 -38.3575 62 67 57
-4.79113 -28.4982 8.1828 69 81 71
9.37111 -2.74176 11.8225 124 142 123
-6.62343 4.40335 3.28306 60 72 62
-4.43771 7.87039 -10.6539 114 108 76
0.281792 18.3424 1.80455 81 48 6
-4.87517 -25.047 5.38405 57 62 50
4.10422 -13.5238 -12.1296 148 161 129
-7.80678 -21.936 3.21403 71 87 75
-6.14944 8.77029 8.55508 66 79 69
-8.15202 1.27161 0.487537 88 94 82
2.32243 14.4905 23.6588 127 94 72
2.84381 16.2228 26.4062 97 90 68
7.44584 1.0458 9.37904 158 174 151
-3.26093 7.86886 16.3341 50 33 2
-0.605278 -0.589661 -21.0635 104 94 59
-0.79295 -0.943169 20.9398 69 80 68
-10.7455 -7.24689 -50.3281 58 72 60
-3.04693 -28.2644 4.61616 119 140 119
9.50204 5.02001 -2.32731 62 73 64
1.45889 12.7946 16.9674 63 44 8
6.70827 -13.9299 -10.9436 147 157 128
4.79576 -12.2659 -12.0027 159 168 136
7.96481 7.21856 13.1354 67 75 64
-7.26612 -28.8971 9.07133 66 81 70
4.8695 15.4343 6.63839 103 80 44
-2.33629 -4.44292 -26.9666 126 113 70
-4.36636 -4.93649 -23.4807 84 85 66
7.75321 9.56142 -2.4566 61 69 62
-2.31289 8.38501 17.3856 50 41 23
-8.20798 -7.44402 -45.637 60 68 57
4.81242 13.9832 -5.13098 166 134 92
5.19003 14.6705 -0.557634 100 83 44
-6.77705 0.376114 -9.92723 87 106 95
9.16717 4.86867 -4.55105 78 92 79
-2.54365 14.1591 7.84418 54 42 18
5.03819 15.3726 2.5465 65 50 17
6.00798 13.3078 -4.08817 83 102 89
-7.36521 8.36267 -0.299442 61 62 46
-2.86808 0.348877 -20.7976 131 118 86
5.50358 -0.092083 14.2904 69 77 66
-4.05569 -4.30029 25.2264 141 136 106
4.53951 15.0009 -4.36077 111 60 9
-4.28147 -8.60497 -36.7835 90 95 74
6.17292 -7.90378 -11.2671 171 166 122
0.408461 10.0145 34.4106 75 90 79
4.45371 15.8291 1.58106 101 82 38
6.97949 1.26242 9.00629 146 167 147
-8.45078 -8.55288 -44.6315 58 70 58
8.94004 -8.05415 12.5894 152 133 84
-0.14994 12.0747 15.93 59 54 35
-6.40911 -22.72 4.05377 58 73 64
0.251101 16.4937 33.6374 54 34 1
8.58766 10.9903 4.67624 90 109 93
-6.29272 -10.2261 -43.7388 85 105 89
1.22093 -2.81186 -20.9216 124 126 100
-5.32221 13.3088 -1.12865 71 58 31
8.72093 -3.60168 14.9999 64 76 65
8.47436 0.59922 -8.17352 94 112 96
-5.14423 -8.22591 3.16424 74 83 75
8.97449 9.06454 3.83146 64 75 66
-7.89598 -6.35706 1.68659 61 75 63
-5.18063 7.1413 -10.3094 116 108 78
6.28032 12.4636 11.1009 61 71 61
-3.76284 13.6542 5.55768 51 49 17
-3.01567 -7.05704 25.3652 139 152 119
-2.42146 11.7498 33.296 60 70 60
-6.77783 -18.4466 -0.51487 155 198 169
8.3919 -8.1048 14.917 68 80 70
-4.48433 8.1821 10.4503 70 82 72
6.60601 7.28035 -10.3029 114 128 109
-3.40575 1.13702 21.4684 63 62 44
-4.45168 -6.633 -27.3249 62 68 55
-8.19198 4.87999 -4.13115 60 74 61
-4.12949 6.36835 10.4699 64 78 67
-4.4739 3.0165 -13.9379 150 150 104
4.36731 -8.25586 -11.757 167 184 153
5.93757 13.5566 -2.30688 67 82 74
4.8885 3.0534 15.1622 73 86 75
2.73808 16.5737 1.03141 69 54 34
-7.98344 -25.0134 6.29638 63 76 66
4.49456 -21.7458 -11.4961 219 228 193
-7.0661 -9.22571 -46.363 85 100 89
-5.22284 12.2405 2.88441 67 70 53
-6.75708 10.0688 -5.80398 79 79 60
2.74026 12.9092 32.6687 74 81 67
8.64478 6.01012 -0.148809 68 81 71
-4.82215 13.5737 -0.576105 53 40 14
-4.15663 -5.57186 -26.5267 64 72 61
-2.30815 -5.52041 -27.8812 110 99 61
0.185564 18.2559 8.19587 52 38 10
-1.9249 16.0861 5.10024 54 40 11
-4.9831 5.30794 9.10063 64 76 65
-7.76174 -9.56721 -41.3571 59 70 61
5.51408 9.2894 -10.7524 120 113 86
-5.3537 -21.6134 0.649506 95 111 97
2.02855 12.3528 19.1587 66 43 8
7.25141 6.74255 -9.2476 114 129 117
3.56572 9.11845 -11.3869 129 80 2
3.13255 15.5444 -2.77355 76 59 32
6.93617 10.2374 11.2881 110 122 101
-1.40409 12.3444 25.8863 85 56 2
-3.21618 -0.00741577 5.77792 60 70 61
1.932 -20.9877 -9.67207 94 102 84
-7.41671 -10.9828 -44.5503 103 116 98
6.45878 12.9236 9.96441 70 79 67
2.83128 14.1936 23.5056 111 85 37
-6.68016 -19.5664 -0.537842 174 197 177
-7.86599 6.14523 1.06408 70 83 69
-4.33898 -6.34071 -26.5958 64 69 57
1.51199 16.7833 11.7938 60 45 12
-7.1433 -9.8948 -38.545 58 67 56
3.4383 3.44378 15.9381 72 87 75
4.41889 4.50357 15.7413 72 86 75
2.47092 -6.27779 -12.2624 151 175 152
0.0926628 12.1407 -9.48766 100 62 21
5.92905 4.21714 -12.9389 137 160 135
-4.2704 10.5313 9.70248 66 75 64
1.39159 13.7119 22.8957 102 72 27
-3.08931 7.18343 13.3753 59 70 58
-3.30622 3.32164 -16.3695 110 114 84
-5.85602 -3.65277 4.18667 65 77 67
7.02099 11.0964 -2.24794 93 113 102
2.12743 15.4308 13.2906 68 63 47
-7.19275 5.80222 -8.04012 70 82 69
-3.16508 5.77763 19.7055 69 81 69
-2.77362 -5.09531 27.8468 80 94 82
-7.15509 -23.0425 4.3305 63 77 66
-2.84167 -6.68978 -29.8013 114 104 63
-2.62519 2.28267 -18.7133 130 115 75
-5.28913 -5.90528 25.637 129 126 91
-7.1515 6.2902 -7.92315 69 82 70
-5.87732 -8.30849 -37.0335 87 91 71
5.10874 3.50162 15.18 73 87 75
-2.51051 12.0554 31.8827 57 48 25
-4.6321 -1.67813 4.35571 65 77 67
-7.78823 -10.976 -1.23232 157 190 164
8.77096 -7.38447 14.8567 72 84 73
-2.9578 6.57781 19.2572 59 59 43
-5.09038 7.46303 9.65789 62 75 63
2.24594 16.5469 31.8115 61 52 26
9.4196 -1.42986 -4.21937 63 75 66
-7.20641 5.11573 -9.05161 65 74 63
8.22177 3.53154 -7.64944 64 76 65
2.20358 12.8594 34.7387 64 72 62
-7.19094 -26.5662 8.30634 65 77 67
-4.85468 -4.91042 -21.995 75 79 62
9.02744 4.02948 -1.85131 61 70 62
8.04342 -9.02665 14.8279 68 81 72
-5.76626 -9.10712 -34.1938 64 71 58
-1.02472 17.2512 0.321861 76 49 8
2.68976 14.3458 30.339 63 74 64
-7.82416 -1.27518 -7.6683 109 127 109
8.98142 8.58031 2.11422 132 153 135
8.58146 4.84506 12.4108 65 71 59
-0.31403 10.4711 17.3183 56 41 18
-5.07197 0.0347538 4.10067 68 80 69
6.14973 -7.22897 14.671 49 58 47
7.77476 6.89779 11.8769 85 91 74
0.857931 -1.99347 -20.6183 130 104 47
-5.1185 3.01704 -13.3932 123 116 79
6.069 -22.8712 -7.46922 63 72 62
-2.23283 -1.49503 26.3528 73 79 67
-6.39537 2.68395 3.33596 64 77 66
8.36436 -22.4018 -10.1777 77 81 60
-6.91441 -8.21017 -41.5843 62 72 54
-1.55123 14.566 27.0166 83 66 39
-2.37913 9.54277 -11.7996 139 105 53
-6.84525 -10.4971 -44.4728 95 112 97
2.66724 14.9634 -4.59613 107 60 25
-1.87255 15.2263 -3.9604 83 55 9
-5.88265 5.81963 -10.5379 126 126 99
-2.76529 0.0504608 -21.2701 94 78 41
-4.57177 -6.54509 -29.3666 61 66 55
-5.73409 -10.5016 -1.61974 162 196 170
-2.20591 -10.4616 -29.0926 61 77 67
8.71973 4.91185 0.556155 84 98 83
-1.11366 -0.731623 6.34978 63 72 64
3.43663 16.0536 0.951958 75 42 3
2.17258 -4.99821 -12.7114 133 157 135
-8.06858 -0.521778 1.5326 58 70 60
-1.12068 4.12302 20.9474 74 88 76
-1.30724 15.8208 -3.73962 87 52 8
-7.61768 -2.11369 2.69393 65 81 69
7.16748 -8.04913 14.9311 70 84 73
1.33795 17.7202 1.91346 66 58 22
6.34561 12.2849 12.1587 75 78 67
2.25014 15.7888 12.7709 66 64 49
-7.24344 -7.85498 -43.2608 60 68 55
-5.28641 0.264816 3.94027 67 80 69
9.05258 7.09887 5.417 69 81 70
-4.97038 8.36282 9.68559 61 75 62
-2.41843 -4.23513 4.60381 62 76 66
-6.51193 -11.5763 -1.36688 177 209 186
-6.99597 -6.49664 3.58111 74 87 75
-8.15327 1.3211 2.06628 71 84 72
5.9758 -21.1194 -11.6093 181 179 144
-2.3687 13.0745 33.9736 59 43 14
-4.9031 -7.77233 -35.4394 90 93 71
-5.52876 -0.977285 3.88286 67 79 68
3.53058 11.9109 15.5567 69 59 34
-7.93901 -6.15501 1.07412 63 78 66
6.4272 10.5409 -6.95727 100 111 98
-9.12924 -7.02503 -47.9103 55 70 60
-1.65787 9.2483 16.7945 50 40 18
8.44121 -0.0046463 14.0899 65 76 64
-4.92836 1.99475 5.69344 61 72 63
-2.33875 -9.66652 -31.4938 69 84 70
-4.87382 11.6777 -5.49223 94 63 4
8.46132 8.32224 -2.17419 59 65 57
7.48959 5.34018 -9.4728 84 95 82
3.03738 13.955 26.8631 65 76 66
-5.87589 -13.954 -0.925705 165 199 173
5.20817 12.8593 14.5018 70 54 32
5.87931 -1.99504 13.1979 57 67 59
-8.01196 -9.15179 -42.5907 56 68 58
-8.48352 2.90724 -2.98874 149 159 147
8.75586 3.5881 12.7647 64 73 65
0.163359 1.79521 -18.194 116 89 53
-5.71259 -22.9867 1.03041 101 116 104
9.46626 0.4823 -3.53974 65 76 66
-0.213526 13.8466 37.862 71 79 68
-3.84496 11.332 -7.27671 107 71 32
-2.85191 -9.03402 -33.614 67 72 56
-0.859619 9.92275 20.3764 89 49 2
-2.01327 13.442 34.7529 60 36 0
-4.40938 4.07014 8.69076 56 67 57
-4.29237 9.61829 10.3041 64 74 61
1.18354 -4.12064 -21.1271 101 116 100
4.1812 1.72892 15.2374 78 88 77
5.23507 13.9134 -4.98467 140 118 73
-2.42522 -3.04717 27.2175 72 82 71
-5.92971 -15.6322 2.99847 77 91 81
-6.01811 1.21185 -13.0242 100 111 91
-5.16673 -25.2508 6.14772 62 69 57
-5.56594 11.9174 3.60468 74 61 38
1.29383 2.32963 16.892 68 82 70
8.71614 8.26222 0.974208 75 88 76
6.91429 -8.61964 13.2244 111 117 94
6.97414 -2.89705 14.922 63 77 66
4.22766 -17.1521 -11.9492 166 185 164
-4.41786 -6.18586 25.1581 153 146 109
8.35591 5.00524 11.4931 104 101 81
-4.26426 5.86519 10.0585 60 73 62
6.21704 -19.1547 -10.8503 111 120 99
-6.70178 -16.7586 3.04465 80 93 82
0.163084 8.32908 35.1744 72 82 74
9.00529 7.19451 5.86012 69 81 71
4.31135 7.49145 -12.5231 150 119 57
6.49454 11.7213 10.8334 63 75 66
-4.68504 2.9803 -13.7882 137 139 89
5.21614 13.9119 12.4941 66 61 38
-2.4631 0.610073 -20.9086 129 107 67
