ply
format ascii 1.0
comment Created by Open3D
element vertex 1378
property double x
property double y
property double z
property uchar red
property uchar green
property uchar blue
end_header
-1.28328 8.67121 20.0548 88 67 42
-3.43752 -3.42897 4.62517 60 72 63
-4.75229 -7.14902 -32.7925 73 71 51
3.56583 11.0674 18.8883 86 50 6
7.34925 12.3174 0.0437794 101 115 95
-4.82393 -5.26132 27.049 69 78 68
6.01126 8.23758 -10.6347 108 116 97
5.90745 14.1416 -3.82181 71 82 71
-4.67864 -6.29104 -24.9532 100 104 82
6.12418 13.1399 -2.14048 86 100 84
1.64058 18.0211 7.35252 66 58 42
-3.72402 8.30758 11.1488 68 81 69
-5.28641 0.264816 3.94027 67 80 69
-1.80125 10.6178 33.1853 74 87 77
-1.97802 12.955 27.7549 65 78 67
9.32575 -2.40269 -6.92896 118 137 114
8.71996 7.84755 6.71179 63 74 65
6.15009 -2.38265 14.0805 50 59 52
-3.96834 2.4983 20.0624 66 78 66
-8.2732 -26.1584 7.51721 61 73 62
7.07862 -7.61734 -11.0084 143 136 95
-5.32985 13.2712 -1.34592 65 53 26
-0.147173 16.8441 32.2698 59 41 10
8.43412 5.32688 12.5276 65 70 58
-2.25836 11.7912 33.7066 63 70 59
7.24909 10.0087 12.7805 62 65 57
-1.93035 -4.59283 -26.6075 123 103 63
4.0741 14.5892 -4.83311 119 74 19
3.15343 16.0481 10.9967 68 50 25
8.42288 9.51085 0.717793 80 89 75
8.801 4.96717 0.834297 86 101 86
3.62963 -12.4931 -11.8225 111 129 106
8.03229 -4.51635 -9.36193 144 124 82
-0.550831 11.3263 22.2776 60 39 12
-1.04218 -4.03963 -24.7613 125 108 71
6.59394 11.9054 -3.96049 61 66 54
-4.27391 9.63212 -8.85973 110 94 61
1.74949 17.9327 5.94253 63 58 35
-2.19482 13.914 -6.28848 78 53 14
-0.696892 15.5135 26.2519 71 46 10
1.9152 13.5281 22.3432 126 107 68
4.6193 0.829287 -13.7864 117 134 110
8.89997 2.80722 10.3283 136 150 129
6.69441 10.1742 10.5446 65 74 64
-6.0085 -7.29806 3.64285 77 91 80
4.59143 15.2653 8.13633 66 60 34
-3.2611 -0.591002 25.4022 49 38 16
8.87306 5.29036 0.931299 97 115 98
6.34144 14.8659 6.18095 71 59 35
7.3374 9.48983 12.591 66 77 66
-6.1034 5.42285 -10.568 109 116 85
-2.17265 12.9845 32.7135 64 58 33
-6.8068 -20.014 3.30544 77 93 81
3.90219 15.2265 -2.11409 73 65 52
-3.54795 14.2451 -0.500984 57 42 13
-8.6215 -24.7521 5.29049 61 74 65
-2.85029 15.1073 2.90351 53 36 3
-0.422354 16.9354 28.1011 62 34 0
-1.26728 14.789 -5.73018 79 44 2
4.09267 10.3899 22.1289 108 115 88
6.29205 14.8541 6.7324 77 80 57
-5.2577 11.4151 7.9644 47 51 37
-8.09279 5.34645 -0.896523 90 101 79
8.17369 -2.18732 -8.39664 147 161 136
-0.0508461 14.8471 -5.67635 98 54 13
-1.63472 11.8781 13.3556 59 57 41
-6.87678 -8.04122 -45.8087 78 90 77
-6.51678 -8.47813 -44.9187 65 74 64
-2.558 10.9505 30.9965 57 59 47
8.0149 4.57081 -7.87943 80 95 82
-7.03426 6.8591 -7.81779 107 118 100
1.32072 17.3774 0.293073 96 56 14
-3.13181 -27.2337 4.41355 129 146 125
1.12553 12.5022 20.2671 72 41 3
-8.27995 0.846825 1.98451 67 79 68
0.504766 5.75427 22.5509 69 79 70
2.42726 4.76284 -14.2302 151 128 82
2.86177 16.1812 28.6376 75 61 34
-5.52189 -9.45187 -29.6015 55 67 56
5.92203 15.019 5.03896 75 76 60
-5.60618 -0.709709 3.80459 67 79 68
-6.58915 -8.30859 -40.2252 63 74 51
1.19442 18.2639 5.06332 84 66 30
4.51076 -19.1514 -11.6248 183 189 162
-0.48031 8.52802 30.6265 69 79 65
-2.14305 10.1789 33.6678 66 79 66
-5.96425 -8.48478 -36.2395 65 72 60
0.0605259 18.1705 8.26606 50 36 9
-2.99941 14.736 4.46857 49 38 13
1.47784 11.2183 -10.0379 131 89 39
-1.23523 15.8504 28.8089 76 72 53
1.17151 -3.18842 -21.1027 113 121 99
-6.86036 9.32229 -2.0372 61 68 55
5.26541 6.48732 -12.5493 145 117 69
-1.95267 -3.58776 27.2147 66 78 69
-6.34677 -10.6472 -34.6564 60 71 61
0.685276 18.0927 1.46689 87 56 3
5.73914 14.1029 -0.759004 100 92 61
1.94551 17.6594 8.17641 63 57 40
1.54433 0.806541 -17.3951 121 91 51
-8.11203 5.19552 -3.75674 62 71 60
0.1872 13.4882 -7.67287 100 58 11
-2.15154 10.496 33.0181 70 85 72
1.62761 -0.146034 -18.1425 119 93 48
-0.645943 10.2678 16.897 53 35 7
-5.47378 11.9374 2.79773 56 51 30
-11.3383 -5.94328 -53.1156 68 81 73
-0.359617 7.75729 -13.7641 159 111 49
-8.217 -26.7804 7.97606 65 76 66
4.55809 15.0366 8.80648 69 66 44
-8.65898 -27.4314 8.15772 67 80 69
-2.92839 2.01816 -18.4919 90 87 69
0.415167 12.9754 -8.23679 100 55 12
-7.84311 -0.717823 2.51879 65 80 69
-0.639269 -2.63581 -22.7764 114 90 45
-5.4735 -8.80135 -41.6194 67 74 60
-0.480606 -6.99339 -26.7806 104 112 90
-2.59153 12.4976 33.0318 53 46 23
6.72604 12.1955 -1.38864 85 92 76
-1.98687 0.661888 23.3977 60 65 50
-1.32007 14.5969 37.1536 57 61 49
1.68978 16.3009 26.0425 90 62 13
7.94524 13.1031 3.32058 71 85 73
-7.94141 -7.88569 -44.2587 56 68 58
7.51734 12.3571 0.97818 75 86 75
0.876648 -2.52962 -21.0988 128 119 79
5.19598 13.9445 11.0958 72 57 29
-5.43809 -8.52851 -39.1009 85 92 75
-4.22386 2.15305 -14.7071 142 126 89
6.80264 9.78608 10.7222 80 92 79
5.96963 13.0937 12.1222 60 68 56
-7.07949 6.01299 -8.63177 98 106 87
3.6099 13.8362 13.6728 61 65 46
5.95699 0.328064 -10.9642 136 154 134
7.90138 13.0885 2.87041 73 86 71
4.85964 3.70515 -13.4406 143 148 119
0.170193 6.53098 -14.6248 143 108 51
3.52018 12.8169 -6.79694 137 94 41
3.37851 3.69298 16.1002 71 85 74
4.13354 15.8906 7.74608 69 64 43
-1.34727 10.5568 33.6903 76 87 77
-6.19729 -3.31717 4.04829 67 79 68
3.18616 -5.68988 -11.9534 169 193 165
5.75573 14.3886 -3.94434 82 97 75
4.50945 13.5257 -5.64023 161 130 76
5.83059 6.77878 -11.9519 140 127 89
-5.06028 9.20863 -8.15408 112 103 73
5.67933 14.1733 -4.32903 123 114 83
1.50404 -7.28299 -12.8572 157 184 161
-10.4379 -5.88452 -51.5659 57 68 57
7.76114 11.5061 0.717718 84 98 89
-2.59592 14.9731 5.00401 56 50 27
5.8195 -21.1781 -8.38364 58 68 57
-1.93902 -4.1194 4.69169 67 80 69
7.86843 6.98193 -8.2768 137 151 128
3.00087 12.2307 31.9975 77 79 63
-5.10095 -4.70459 26.6013 67 79 69
-2.21332 8.2933 17.6264 50 45 27
2.85526 16.5885 31.1651 58 62 49
0.704231 16.7445 -1.74915 118 94 65
-5.51704 1.70512 -13.5254 134 140 111
-2.38777 9.0829 34.5087 62 66 54
-1.46972 8.20726 23.5194 67 78 68
7.43667 13.4975 4.73407 72 74 59
-1.91624 2.03014 -19.3667 122 84 22
1.87859 17.9128 7.02459 60 54 27
-7.77916 -9.52171 -47.4774 90 114 98
-1.7661 10.7615 33.1203 73 86 77
3.14586 15.4831 -1.72365 76 65 51
-1.44962 -0.807744 6.18866 61 73 64
-0.276089 17.6424 8.70241 49 31 6
2.09275 13.2046 15.8999 64 61 42
3.28487 12.1473 25.9958 100 109 88
-8.43532 -23.5929 1.70993 117 141 122
6.16966 14.2631 7.89452 71 76 63
2.73877 16.9269 3.19383 88 79 58
-7.40968 -4.87696 3.37641 68 82 70
-6.32352 -7.00925 3.78843 79 94 83
6.87702 1.9495 8.65887 137 154 139
2.14543 15.4067 -4.01992 104 54 6
-1.51832 0.885963 -20.5418 133 105 60
-9.0936 -7.53506 -50.8175 105 121 107
-1.1789 10.2156 34.1829 72 85 75
2.12811 -7.33319 -3.25082 65 82 70
-1.57061 12.2366 13.1622 52 35 4
-3.95849 -0.704098 23.8714 54 58 44
4.45991 15.1181 8.89016 68 64 43
-0.190681 16.7343 27.5778 83 46 5
-4.82214 9.51276 9.6149 66 76 65
7.47238 12.4593 0.78244 69 78 66
-7.04827 -8.82447 -40.3588 60 68 60
4.23833 15.1963 9.56493 67 61 35
3.92854 15.426 0.0576324 80 55 12
1.07107 18.0497 2.32867 86 65 33
-7.16038 -9.97373 -38.4876 57 68 57
-6.43266 -2.0933 3.77578 66 78 66
-6.19528 -0.0117912 -12.6698 71 86 72
2.21644 16.8526 10.9648 65 52 35
-1.39715 -1.19204 6.05148 62 73 65
7.8832 12.7062 2.03398 114 128 113
8.41288 2.70245 -7.31484 76 87 74
-2.11246 11.5907 33.452 57 70 59
3.67847 15.9837 1.02131 93 52 13
3.41943 11.3367 19.1251 85 62 13
-7.8988 4.35295 -5.44817 92 105 88
8.88338 0.664314 -7.20259 114 132 115
3.58101 11.9397 -7.6888 102 72 19
4.84392 15.2359 -3.00513 78 69 47
4.09965 15.383 9.99257 73 51 14
1.08645 15.8104 25.4553 108 70 26
2.76319 15.2667 12.8867 67 65 48
-2.30311 15.68 4.45602 49 30 4
-2.01869 -1.77305 5.5229 61 71 63
-1.64806 5.02131 21.0476 75 86 75
-8.16256 -12.4782 1.67416 69 83 72
-0.90201 16.9008 29.0394 76 64 29
-0.344875 16.8755 32.0861 57 38 8
2.64509 14.9428 13.3507 75 73 61
-1.12682 -7.73546 -28.447 110 114 94
-5.20743 -10.7869 -39.5254 76 92 78
4.11173 10.4248 17.0297 75 70 44
-9.15351 -26.7442 2.54658 114 138 120
1.61279 17.8285 8.80444 69 56 24
6.70729 11.1335 13.9957 72 81 72
6.51666 14.0089 1.70362 72 70 54
-0.856604 -7.57874 -27.6512 113 123 96
3.78236 -17.5227 -11.571 126 142 119
4.17253 14.5838 12.3234 71 57 35
-8.96562 -8.15005 -46.3443 59 69 59
5.87322 14.2592 -3.54878 65 72 56
6.64823 13.2224 -0.314651 117 121 91
4.33191 15.1178 9.4109 68 62 42
2.91025 16.8317 3.0342 69 59 38
-0.87705 17.0065 29.7389 63 46 18
-2.3432 11.8773 30.2196 57 59 42
3.65727 16.0444 8.84573 68 65 57
7.66999 -2.76089 11.0089 150 170 147
8.66016 5.19591 -0.0656633 84 99 86
2.33081 16.7918 0.684152 67 46 3
-4.51367 -7.19635 26.7439 76 89 77
4.56511 3.70469 -13.6301 147 151 116
-6.0731 10.5815 3.35898 59 68 55
-4.11607 -27.0041 7.14312 66 72 59
6.70781 7.76725 -9.8648 113 128 112
5.25194 13.9069 11.649 66 49 17
5.79607 14.1758 -4.11639 99 102 83
-5.07542 -14.7037 1.90518 64 76 68
-5.94901 -0.155228 3.56098 67 80 69
-1.96407 10.4734 33.2133 72 85 74
3.79874 15.6747 9.59373 65 60 37
7.71013 11.4733 0.453525 99 118 105
6.69566 13.2286 9.22882 70 74 64
8.74448 10.7428 2.59124 65 75 64
3.54675 15.4808 -3.04727 64 48 17
8.16655 -6.76856 -5.90013 63 75 66
5.26679 11.6727 -7.50728 122 103 69
-6.91768 -8.02819 3.06032 75 90 79
-2.84645 15.0145 0.865814 76 50 6
1.5425 17.9676 4.18536 75 65 43
-1.04873 15.7385 27.5806 79 69 40
-5.17198 -7.24362 26.0756 68 75 65
1.18427 12.5943 -8.37387 108 66 12
9.04978 7.40259 -2.60071 64 75 65
3.97482 13.7257 -5.83824 125 92 50
-7.09913 5.62932 -8.99408 94 100 82
-3.95934 13.9085 1.25043 55 35 6
-0.50358 -0.97612 -21.1648 96 84 50
6.82827 13.6126 0.985508 78 80 59
6.81762 4.47737 -12.2333 128 137 114
-2.58581 5.75186 -14.8692 122 110 78
-1.02932 16.0572 34.1901 44 32 14
1.5683 18.0499 8.06815 64 57 37
4.1766 15.2682 -3.97542 85 49 4
7.76552 13.3618 2.72554 76 84 68
9.01868 7.58749 5.04388 83 98 85
-7.93969 -7.12159 -0.224571 98 123 104
4.09048 2.67169 15.4446 73 86 74
-0.792234 17.3631 -0.131523 82 50 12
8.98667 3.87201 -6.19572 119 140 119
-7.88081 -1.22795 -7.63955 107 125 107
-2.6712 11.7236 27.1073 95 80 41
4.40553 13.7789 -5.49042 121 89 48
6.97229 13.492 1.41724 66 68 55
3.27935 14.5886 13.342 67 66 46
-5.80025 1.34586 -13.3346 110 119 96
-6.44097 -17.2606 -0.481888 162 197 175
-6.59308 8.82998 -7.35645 111 106 75
-6.44032 -22.7968 4.11209 63 75 66
6.16975 13.4227 -1.06331 81 84 68
6.95319 0.748657 -10.6186 134 153 129
2.82196 16.5991 29.5126 77 72 40
-5.29338 -8.50366 -27.2511 64 75 64
-2.94056 -4.29638 27.9015 82 95 84
8.0575 9.20675 -0.636875 64 74 63
6.18581 14.118 -0.0045805 98 104 79
0.510523 17.2898 28.7417 69 41 12
-5.84948 -24.2866 5.45597 61 70 59
-1.88722 9.54098 15.586 52 39 15
-7.14952 -7.65641 -45.5942 62 71 61
4.32281 15.4158 8.4952 72 66 47
-4.51841 1.39211 -15.0239 129 121 84
0.408043 12.1927 18.0588 46 31 9
6.41306 14.7076 2.4575 95 67 14
-2.9798 3.57102 20.5066 73 85 73
-5.0837 -4.28506 4.36469 63 75 66
8.19115 11.9335 4.51936 88 108 94
4.94014 14.7219 -1.33723 83 77 60
8.96684 6.0097 4.27493 68 79 69
-3.6134 -26.459 3.8903 137 158 138
5.27791 10.7657 -8.65468 95 74 43
5.42984 0.305046 -11.6607 102 118 102
3.17667 16.4913 7.628 69 62 42
-3.69804 -5.11789 -28.7525 132 125 89
-3.0382 9.00604 12.0957 60 66 52
-7.42592 -8.38775 -42.2582 60 69 60
7.5552 7.77435 9.21095 65 74 64
-8.09135 6.67613 -0.518738 79 90 73
-7.78677 -10.0456 -40.9631 56 67 57
6.04571 14.7554 7.49405 72 72 52
2.14941 15.7711 -2.80956 77 56 27
-2.14169 12.5618 31.8905 72 67 42
-7.55508 4.64555 1.84716 72 84 71
0.221259 15.9306 35.8798 61 57 37
2.31974 16.857 1.51091 96 82 49
-4.81898 0.457092 -15.5035 118 114 84
-1.97937 9.14719 35.0581 63 68 56
-3.79609 -7.2013 -32.073 100 94 66
0.131805 14.8719 -5.51946 91 52 5
-3.78946 0.669857 5.67963 62 74 65
2.79696 12.0323 18.8975 83 58 25
-4.46282 11.368 9.32933 62 70 59
-5.33562 12.5402 0.946183 61 58 42
5.04148 15.3797 6.8785 84 62 32
-7.70035 6.16508 1.23409 71 84 71
3.49354 15.9989 9.47415 66 57 39
3.80291 15.679 9.87597 61 48 18
-3.24817 8.86942 11.6743 65 78 64
-5.22471 -7.76143 -33.4567 77 83 68
3.23321 -10.9416 -11.9317 138 156 135
-8.33041 -13.3038 0.930054 61 74 64
-1.91987 13.7838 28.2317 70 79 67
-7.64179 6.50388 -3.74447 62 66 54
4.6713 15.2507 8 67 56 28
8.70045 7.04367 0.618778 100 116 100
8.32195 8.12528 -5.5096 101 115 96
-1.27078 9.19834 17.8163 49 28 0
-4.73287 0.857513 -15.1942 109 106 77
5.43903 -23.7545 -6.87907 62 76 65
4.47969 -12.6917 -7.52473 66 83 73
2.6399 15.3001 24.5787 85 69 40
-7.30817 -1.74431 -7.80482 116 136 117
3.43727 10.7583 -9.87796 107 63 0
-3.07717 14.0394 -2.79272 72 50 6
7.66523 7.31137 11.8352 94 105 87
5.38194 12.8121 14.5564 71 63 50
-7.24402 -9.52098 -46.4123 85 105 89
3.99967 16.2069 5.76385 68 61 42
9.97597 1.12482 11.1734 107 118 101
-3.96106 13.869 1.54214 52 36 2
-5.03316 -6.47282 26.4721 68 80 68
4.04319 10.8776 22.7442 66 66 58
-4.99204 -9.61476 -40.1169 78 93 79
-3.90082 -7.63815 -33.104 92 90 64
7.77055 13.063 4.54942 66 74 65
9.00879 9.43695 3.42826 65 79 68
-3.50227 13.881 6.55802 53 37 4
8.29239 4.84697 10.9406 84 84 65
4.76762 -20.741 -11.4355 178 188 158
-1.98582 -1.19342 -23.0258 125 100 51
-0.0216999 15.6897 -4.31352 99 55 3
0.927235 2.41193 17.3218 69 78 68
6.36183 5.82728 -12.1115 121 106 68
6.65721 10.2867 -6.70433 113 125 109
-6.70498 -15.0472 3.10146 78 92 81
-6.84727 6.57394 4.90323 61 75 64
3.89135 15.5575 10.0184 60 42 7
-5.76845 -6.81568 3.96154 76 87 78
-6.52662 -9.54571 -36.6406 62 71 59
4.15601 -3.03413 -11.47 155 179 156
6.22664 -4.68483 14.1193 55 62 51
2.15993 6.08324 -13.741 161 123 73
-0.181026 15.4416 -4.76226 98 52 6
6.09159 -21.8465 -8.17532 61 70 60
5.67376 10.2155 -9.37688 91 67 29
3.1897 16.1385 10.5343 65 59 31
-6.91941 -22.849 0.553375 168 193 170
-7.01173 -11.308 -43.0011 102 120 102
-6.62659 6.60315 -8.92149 121 132 102
2.048 -0.383064 -17.8888 122 106 55
8.50505 11.3802 2.41111 91 105 89
-3.15333 11.2248 10.6242 65 73 61
2.17598 15.5514 13.0988 67 64 49
2.59984 16.509 31.5871 63 57 39
-2.17777 11.1059 32.5162 64 76 64
7.06752 14.4222 6.37547 73 72 51
-4.59575 -25.165 5.19724 57 59 49
-10.3024 -7.9393 -49.4395 60 74 65
6.77774 12.9842 -0.45739 120 121 97
3.78889 13.4663 -6.21358 143 108 81
-2.28383 -1.44535 -23.5064 132 116 70
3.82833 16.2993 2.90472 74 53 24
8.20511 6.20811 12.5508 81 88 73
7.82006 6.22025 11.1309 78 83 68
4.11999 11.8687 -8.04258 80 48 15
1.23619 17.7886 1.68057 69 49 8
3.40205 -0.496994 -16.1247 89 99 85
3.39201 1.11918 -15.3867 141 128 86
-7.3137 1.99615 2.60069 70 83 71
6.9324 13.507 1.11242 76 79 61
0.929344 -4.67971 -22.0733 82 98 85
-1.82543 14.6049 27.9032 76 62 35
-1.98881 10.6406 32.9898 72 87 75
-1.5096 15.8154 -3.31236 83 57 11
6.22755 13.4442 -0.80017 97 101 85
6.96538 -6.76881 -10.8699 150 140 96
8.17505 5.25698 11.2528 96 99 79
6.69028 -23.6657 -11.8175 167 168 135
2.36851 12.5936 20.5709 67 39 6
3.17718 13.1387 -6.66085 144 102 53
-2.96947 1.36197 6.77969 57 68 59
-4.74568 5.90257 -11.8053 120 111 92
6.98867 14.0235 7.27476 67 78 66
3.70359 11.6803 20.9646 83 59 12
-2.47485 10.826 26.6423 105 83 45
2.07915 17.2486 9.63575 60 51 32
1.28913 11.2232 -10.0942 147 109 60
9.05836 3.43523 12.1895 64 71 62
0.116558 0.435993 -19.1025 127 101 51
6.33704 12.3616 -2.57783 85 100 84
7.18409 9.88102 13.1369 62 70 61
-1.99265 -7.47194 -29.6983 93 89 48
-2.50833 -5.78067 -28.4468 109 97 61
9.6261 0.299812 -4.18654 70 83 72
6.60734 11.4336 11.2949 89 101 91
-2.34116 -3.3278 -25.9159 130 109 61
3.05492 15.7686 27.3863 73 87 75
5.00738 14.7699 8.70544 69 70 53
3.99739 15.3627 -0.366624 81 67 47
-1.1327 15.5912 33.8155 63 50 28
3.15467 13.4666 25.4897 62 73 63
-6.50181 10.4162 -5.45683 76 74 59
-3.61445 -2.21767 4.79062 62 74 64
0.881927 18.2724 2.78294 68 56 35
-0.74966 15.4856 -4.6692 91 54 11
0.215151 14.4121 37.4259 71 82 70
-1.1626 14.0032 31.5709 71 84 72
5.46891 -9.54779 13.5481 67 72 48
0.843643 18.1474 2.1158 79 70 40
-6.81835 6.79183 2.86845 65 80 68
-2.95976 2.67106 -17.588 111 106 79
0.220066 18.5117 7.21037 62 48 30
10.0001 -0.686928 11.6464 94 107 92
2.38293 12.7132 16.57 66 55 33
-5.53492 12.6298 -2.25037 116 107 73
-0.937843 6.64871 22.4441 56 67 57
5.56555 11.0577 -7.82378 124 110 72
-7.54867 -7.49401 -45.0412 62 71 58
-4.01292 -1.22312 -18.2991 122 112 75
0.871567 -7.81483 -13.1286 152 182 158
-5.00716 -8.47162 -37.9673 84 90 72
5.47569 13.6329 10.9732 79 65 37
6.12236 13.5493 -0.926407 85 90 70
0.400459 12.121 18.2605 47 31 9
1.76494 17.9379 7.47228 73 65 47
9.43845 5.9861 -2.68442 67 71 63
6.10801 14.0288 -0.24883 110 117 91
3.37486 13.6936 23.7664 84 75 54
0.293789 16.4461 26.8387 78 48 4
5.99282 -2.94267 -10.3526 153 168 144
-3.18332 7.4038 -13.2338 113 93 68
7.62091 -22.5153 -11.13 153 152 112
6.2519 -8.46463 14.765 76 89 78
0.324112 11.9566 18.3746 49 37 13
6.36973 13.1998 -0.807079 86 87 64
8.59738 7.31975 -5.5264 62 71 62
-2.08786 13.2646 26.7381 71 59 30
7.38609 -11.3883 -10.5527 125 139 117
4.88088 15.6565 5.06012 76 68 45
7.50955 8.73866 -6.93964 102 110 94
-5.57125 -8.03703 -36.463 80 83 66
-1.32185 8.60366 19.6774 55 48 29
-3.08643 6.20833 19.5748 58 53 33
3.38589 16.0635 9.63548 65 52 31
-0.211174 16.5224 33.3048 52 36 2
4.11953 15.8389 1.07402 86 50 11
3.36729 15.9343 10.5259 67 63 30
4.10131 15.6735 0.738165 89 54 6
4.04357 15.932 1.21842 82 47 6
2.75033 16.9388 3.89181 64 48 14
-5.74869 12.6388 -1.97366 108 93 60
3.6708 -24.1741 -5.96182 61 71 64
3.41193 -9.56386 -12.1436 177 199 168
5.23646 -18.9393 -11.5541 165 182 144
3.07542 16.4167 8.94449 67 60 37
5.58809 14.794 0.0302591 103 78 24
-6.50018 -21.0472 -0.323212 177 207 184
0.115368 18.0508 0.768025 70 41 4
-1.85386 11.4646 33.5198 58 70 60
-6.9846 7.75536 2.91183 69 81 68
6.69689 6.73578 -10.4959 88 96 82
4.88635 15.3573 5.94913 74 59 27
-3.29652 7.85031 16.124 51 36 8
-2.76549 -7.69968 -31.0292 94 89 59
7.64381 6.93687 11.169 79 88 72
5.35565 6.37189 -12.5753 188 162 107
7.90085 8.8306 -1.60431 109 130 115
6.26643 13.3076 -0.934231 91 92 72
-4.75293 -3.5815 -19.6187 68 77 66
1.59732 17.8653 8.3792 69 62 45
-4.02933 -25.6269 4.02119 84 89 74
-3.84412 14.1305 3.08279 51 29 0
-7.1241 -8.6387 -46.8138 99 117 100
1.52461 2.16848 16.6458 76 87 77
-3.32107 6.87788 14.9052 77 80 63
-4.28042 9.52362 -8.95978 107 92 59
1.10708 17.5578 31.0255 64 50 29
4.30876 -23.8636 -6.37279 64 76 75
7.10833 13.0032 0.438679 119 133 105
0.311543 18.0276 0.865602 84 53 11
3.22892 16.3709 8.06247 72 62 38
3.81546 16.1939 6.658 64 50 23
5.71452 -19.5805 -11.3938 173 169 133
2.94387 -9.99874 -6.02196 68 80 73
8.01413 -23.8574 -11.113 148 153 121
5.09913 15.7832 4.28635 78 73 50
0.640308 15.3576 13.4441 56 38 22
6.4223 -24.2376 -7.18915 66 78 67
-7.47149 -8.5897 -1.1923 152 179 161
-4.75697 -7.27242 -33.7119 99 98 75
7.4376 -9.40322 14.8229 73 84 75
8.21628 -5.00451 12.3079 162 188 161
-4.16063 7.97475 10.7883 68 81 69
2.82417 13.6854 -6.21301 146 94 36
2.96519 16.4428 9.39801 69 56 39
1.45302 17.3795 28.3297 72 50 26
4.8827 14.7801 8.87152 70 70 54
-2.69948 10.8727 29.8071 78 75 61
-1.3301 -8.39792 -29.0606 113 116 92
2.012 16.0336 -1.25872 90 88 57
-1.61231 8.58689 35.4248 70 79 67
-8.72002 0.162899 -2.29166 61 73 63
3.91484 -23.073 -11.7205 176 183 151
3.59685 15.8554 9.59649 66 57 38
-1.15941 11.392 38.6765 72 83 73
-5.5026 -15.2326 -0.456223 135 163 145
8.14344 -24.0705 -11.0758 154 168 137
1.39511 4.14334 -14.976 153 123 75
-1.02411 10.8168 -11.099 119 77 38
-6.18024 10.7329 -0.0122223 82 89 77
6.77574 12.4746 -0.87588 127 140 115
0.860601 15.9872 35.3289 64 60 41
-1.52126 -4.17676 -25.6377 102 98 61
-1.92766 -2.4479 26.5588 71 82 72
1.61064 17.3766 10.4755 66 54 36
6.00957 13.5061 -4.07971 85 104 90
3.79741 16.3406 4.57324 96 80 62
-2.24532 15.3601 -1.70142 54 34 2
-1.67858 11.8384 38.0175 68 74 61
-8.98027 -24.4437 4.0788 70 85 75
-7.86233 7.5577 0.0410614 57 69 54
-0.26495 17.1543 28.8084 76 44 7
1.60651 17.9406 4.86726 75 60 28
5.38049 -4.88039 -11.021 168 180 145
-7.37733 -24.3683 1.08216 146 173 151
-2.10334 15.2297 6.21398 54 43 21
-9.60619 -26.6188 7.4282 64 76 66
2.76349 15.9093 25.6682 100 92 61
7.38353 8.08427 10.6723 75 87 73
-3.93003 4.73579 -13.677 115 112 87
5.67326 11.0592 -7.71881 118 112 84
2.74944 11.9762 17.4813 65 59 39
-10.9747 -6.89866 -51.0187 54 68 56
-7.14617 -3.96037 -5.52525 91 112 98
1.44934 -1.08101 -19.1883 128 100 57
6.52749 -0.347401 -10.429 136 156 133
-1.68632 -8.09754 -29.7895 115 121 91
6.3308 13.3364 -0.673055 88 90 71
8.20237 -1.79188 -8.20155 145 166 142
-7.41525 0.926995 2.74286 68 80 67
-2.64435 5.53588 20.1671 74 86 75
3.29306 16.1058 10.0815 68 51 24
2.84228 16.5073 0.87659 66 52 32
-7.43596 -7.45225 2.75177 68 80 70
-0.433704 15.9255 26.4294 79 49 7
-6.87684 5.81363 4.99742 60 73 62
-1.41052 13.7658 -7.57873 102 66 14
5.02918 14.7158 -1.88871 74 76 58
-6.08761 -3.40842 4.10104 66 78 67
-8.34899 -0.464834 -6.28515 66 78 67
1.42203 15.6224 13.4346 64 45 18
6.04309 13.8241 8.73827 71 64 42
-4.63344 13.3039 4.18813 55 45 22
-0.045784 4.36629 -16.3981 113 77 33
6.45193 12.4109 -1.91283 88 101 85
7.67909 11.7069 0.567405 85 100 88
-5.52501 4.15478 7.27711 63 74 64
8.95942 3.94833 11.785 60 62 47
5.72883 15.0816 7.22131 80 66 39
1.67402 17.8596 3.61173 77 49 10
-3.34629 -7.63549 -31.8961 100 94 63
-1.60247 11.3354 33.6012 61 71 61
1.65653 18.095 6.69443 64 41 1
8.86642 4.90486 2.95223 72 85 74
7.265 -10.7645 -7.78354 63 76 64
4.11219 -6.64232 -11.6396 165 184 153
-2.04235 1.20636 -20.2638 120 90 41
-10.7786 -6.2823 -51.3424 50 62 51
7.30465 10.5589 -2.31611 65 75 63
-4.22331 3.57727 -13.7421 155 152 129
1.59576 12.7356 -7.9756 126 90 44
-7.64669 3.78306 -7.81193 71 82 68
3.99073 -5.3428 -11.5413 157 179 152
-2.20465 5.02978 -16.0634 132 85 18
8.80795 -24.054 -9.31174 65 74 64
-2.01025 -5.86432 -27.8414 114 105 67
0.48415 0.616219 -18.5726 120 90 45
7.03075 -0.699591 -9.89202 114 134 116
0.146616 13.4019 23.0441 90 47 1
-6.38618 -9.13012 -1.76242 162 193 171
2.03823 17.1243 10.3873 64 53 33
2.99001 16.3208 10.5553 64 58 36
0.96085 16.7579 11.8393 52 41 9
2.96472 -21.6495 -6.46674 59 70 60
7.74722 10.4988 -0.12927 128 150 131
-9.01312 -24.0776 3.22346 75 92 79
-0.797548 13.1158 25.6552 89 77 52
-1.31856 1.60369 -19.6625 128 100 50
5.9272 12.4404 -4.71969 87 85 72
-1.24077 -6.7781 0.466278 70 84 74
4.02182 15.3491 -0.0935965 77 58 29
0.8531 -4.171 -22.2833 107 112 93
3.79182 15.7306 9.30757 71 70 49
-4.54927 11.8273 8.83687 61 62 49
7.0794 13.8526 2.01761 99 81 42
7.77436 4.72211 -9.62086 91 91 70
-5.84402 -8.82156 3.23956 78 96 84
-6.87477 8.12059 2.32883 107 118 105
9.25834 -1.22761 14.071 71 81 68
0.606014 -1.44477 -20.3464 124 97 44
3.23992 -7.74746 -12.0828 163 184 157
1.54591 16.9344 -0.266934 88 68 9
1.66643 2.47533 -15.9804 127 98 49
7.51973 5.2273 -9.5984 83 93 79
7.06002 12.8095 0.0546799 88 93 72
8.16465 1.53279 13.5297 69 80 69
-2.29077 12.5646 35.5134 57 56 38
1.71844 -2.74143 -19.9486 115 130 107
-11.3574 -6.08837 -52.462 48 57 49
2.22007 14.4316 14.5071 63 62 43
-6.06871 -9.71029 -43.684 80 95 84
5.65084 0.548531 -11.3533 114 131 115
-5.99353 -23.8056 4.82944 60 68 59
-2.16615 8.98143 16.5535 50 39 15
4.35204 -6.89674 -11.591 159 175 146
1.32908 17.938 2.82778 67 58 28
3.77243 6.95459 -13.0112 131 98 44
-0.25562 6.76775 -14.5994 136 115 81
8.04299 4.36018 -8.1829 80 90 79
-5.76153 -26.6104 8.26574 61 69 56
-1.0741 7.58794 23.757 61 72 63
6.20331 12.6241 11.0744 64 71 63
-3.88074 -0.453394 23.9347 57 62 47
-1.09262 -1.09245 -22.1417 111 95 58
5.04828 14.0271 11.9465 70 52 30
-2.40884 2.72371 8.70755 57 69 61
-4.87221 -26.7033 2.63388 154 180 154
3.6846 11.2746 20.1044 103 71 17
-3.67442 -3.37554 -25.3112 93 92 68
3.7975 -9.23569 -12.0301 163 182 148
-1.46252 6.16784 -15.2126 123 86 44
3.4059 16.377 7.30181 68 55 42
6.31886 13.6535 9.21737 70 72 53
-5.42737 10.6878 8.68952 62 71 58
9.09636 6.71273 -3.84044 92 106 92
2.39256 16.9848 9.32938 66 56 30
2.708 -21.2112 -6.73379 55 67 57
-5.98781 -7.88682 -2.26827 130 158 139
3.63041 15.4697 -0.990509 83 58 11
-2.5165 15.4216 0.817952 69 46 5
-4.81537 -11.5598 -30.4232 56 63 55
4.56523 15.8874 5.42854 72 73 54
7.60385 -21.3282 -10.3388 69 69 43
8.61669 11.2849 5.08189 76 91 78
4.07098 15.1809 11.3378 66 68 52
8.18443 12.8004 6.06906 63 76 66
-0.605477 17.8393 0.578621 74 46 4
1.21617 -8.81368 -4.34766 72 85 77
-9.4741 -6.31737 -50.3983 63 67 57
-7.6184 -12.1865 -1.08588 169 203 177
4.89052 15.7278 2.97533 94 59 4
-6.35724 -17.0904 -0.490814 159 194 173
2.39684 14.667 14.0257 63 61 43
-3.5381 14.3721 3.2835 54 36 6
-6.596 -26.135 8.34667 61 74 61
4.54148 14.3719 12.2522 77 73 56
4.34477 -0.680553 -14.3511 86 102 85
-4.45757 10.1096 -7.93491 106 84 50
2.13001 12.5527 20.2238 78 41 6
6.50577 -21.0778 -9.08087 60 67 54
-2.67496 15.239 0.849304 68 45 4
6.04018 13.6588 -0.919346 91 97 74
6.54629 11.7005 14.6891 60 70 64
-2.7181 11.8904 27.7336 52 45 26
7.37312 -21.4574 -9.4917 52 55 43
-5.18355 -23.8176 3.09391 63 73 61
-3.18749 -3.68918 4.63633 58 70 62
7.09085 1.90154 -10.9042 139 157 138
0.44334 1.50676 -18.0469 130 108 69
5.8228 15.034 6.71719 84 78 54
-6.71839 -3.32087 3.77261 70 83 72
-7.3916 -7.63362 -44.2604 61 70 57
-2.84944 11.7261 10.7541 57 53 33
4.53138 2.48732 -13.662 120 140 119
8.79001 -2.70949 11.4819 159 179 148
-7.08212 9.21127 -6.21184 97 111 91
7.05249 10.6463 11.8614 76 77 64
-4.54067 -6.83003 -26.6371 79 80 64
2.11831 -23.9242 -10.5561 105 117 105
3.17655 10.655 30.3588 77 88 73
-4.29483 4.99414 9.50931 62 74 64
2.09022 17.7644 6.85249 62 55 26
8.11852 -3.86867 -9.06655 147 143 103
1.70485 -0.319328 -18.2063 107 89 45
5.01524 14.6464 -1.6222 75 73 55
-2.87679 6.73779 19.0799 61 67 53
8.28509 4.1404 13.3681 72 83 74
2.88161 0.216774 -16.665 115 102 66
-0.691811 17.1934 29.8163 76 61 23
-5.10944 -7.81996 -26.7509 62 70 56
-2.28162 4.11397 10.4108 53 67 57
-2.24144 6.64563 -14.5781 118 86 34
-3.39499 4.7417 19.9066 70 81 70
-5.96099 -26.7735 1.88082 143 161 142
-6.67258 -25.7831 8.03214 58 70 58
-5.16594 -10.3087 -40.084 70 83 71
6.68207 8.73376 14.6269 64 76 67
-7.54041 -7.8707 2.40623 67 81 71
7.47116 12.4884 1.11251 74 84 74
8.57102 10.095 4.44405 89 107 92
0.80595 13.0327 16.3118 52 35 10
-3.80952 -0.748375 5.01399 61 73 63
7.14588 1.71173 -10.8218 139 158 137
-5.33263 -8.28351 -25.2032 69 82 70
8.1757 4.42688 -7.30226 97 116 102
6.42189 6.98376 -11.188 104 99 77
6.95278 12.9137 -0.0717354 93 98 79
5.86498 14.2706 -3.68461 65 75 57
2.36704 12.1982 18.672 87 77 56
-2.78613 11.3237 11.1026 61 69 56
-1.43362 8.89778 -12.7493 131 77 19
-1.3976 13.8405 11.5217 58 54 32
5.925 6.09371 -12.3512 140 113 68
5.81765 10.0256 -9.42414 97 80 57
8.46936 8.41526 -2.23923 58 66 56
8.23808 12.098 2.51435 84 106 86
-7.2491 -8.83365 -1.35903 148 179 155
2.65537 -0.206722 -17.1668 129 115 80
8.18245 12.4059 2.76224 85 102 89
1.96923 16.1082 -1.05436 93 77 43
-1.68686 11.7362 35.4834 63 71 62
4.7058 -7.69992 -11.6027 172 188 157
2.10361 13.4143 22.2052 114 106 58
7.50892 10.0543 -2.02042 102 115 100
6.27951 6.85572 -11.4698 129 113 80
-1.31015 6.67418 -14.7133 131 98 50
-2.07315 10.0427 26.1602 87 86 62
7.40326 -9.94648 11.645 123 113 81
-7.11253 -1.01163 3.07761 69 81 70
-6.58441 -25.1599 7.17834 61 68 59
5.99741 14.4732 7.90194 69 76 65
-7.3299 -25.8387 7.629 66 79 69
-2.55515 8.31837 -12.9491 123 76 24
2.1627 17.6862 6.56769 69 57 26
-2.3355 1.88834 -19.4519 133 99 51
4.28908 15.1273 -2.06484 79 70 51
-3.30022 -7.15292 27.5599 77 91 79
6.64511 14.004 7.66384 71 75 62
6.65676 5.60154 -12.0061 135 130 98
7.16675 13.4802 1.78717 118 99 56
8.82678 -24.2792 -9.22088 65 75 66
8.69849 -6.52612 15.0451 69 80 69
3.90725 15.5542 10.1564 69 48 8
5.97539 7.80745 -11.1068 117 121 98
-5.08987 -28.6489 8.37083 74 86 76
4.40937 10.3435 17.1193 83 82 67
-7.41989 -6.61544 3.02328 70 82 72
7.02909 -21.8317 -8.91415 59 66 56
6.56088 10.8753 10.9147 93 109 95
5.27612 15.1623 6.01418 67 44 7
-4.13078 11.7639 -6.23518 98 72 28
9.08569 -0.130211 13.7323 69 77 66
-4.55291 1.80901 -14.6984 141 128 87
8.38729 9.8876 7.10728 62 71 62
-4.10805 6.1286 10.3836 62 76 65
3.35774 -14.2674 -8.09459 59 72 62
8.38292 -24.6968 -10.9771 125 146 123
-1.03791 10.755 15.209 52 49 23
6.35128 -15.1314 -10.7635 114 136 114
3.32654 10.9312 29.3546 66 73 62
-8.88543 -7.90342 -46.4279 57 68 58
-8.19377 -25.8665 7.25058 62 74 63
7.20674 10.3361 11.7676 86 88 71
-1.51899 16.0678 -2.15117 58 38 3
-0.792064 17.0624 29.2154 55 36 3
-7.87552 -1.58639 -7.37078 105 123 105
6.57797 -12.7513 -11.0974 151 157 126
-2.07722 4.23427 20.8595 77 89 79
0.907314 18.6228 5.43327 69 47 10
-1.6587 6.98234 20.7242 62 73 60
-0.549814 16.2577 34.5383 46 30 0
-1.84794 13.0916 -8.29896 116 69 9
-2.71391 -5.74504 3.43941 66 80 69
6.78465 0.926765 14.5093 71 83 72
2.96262 16.1993 29.2824 68 67 43
-2.6729 10.026 28.908 66 82 69
0.0504036 17.8958 0.467667 79 43 2
-6.60521 10.2932 -3.73682 62 61 44
-3.16224 1.03601 22.1221 62 55 35
6.27757 14.2937 1.72146 74 76 56
2.01896 17.0286 0.867175 72 61 40
-0.0365188 17.6602 0.0466309 81 51 7
-2.54248 13.7672 -5.68341 96 64 25
6.86127 14.0105 2.0378 106 80 27
7.41836 14.0895 3.25544 84 91 76
-1.37766 10.2431 34.0035 69 82 71
0.529604 12.8671 21.7932 82 52 2
5.83829 13.6576 9.84075 72 71 58
-2.27075 -1.55406 -23.6178 128 114 61
-5.48113 -8.54758 -39.513 68 75 59
-4.21665 -5.75115 -26.6938 61 70 58
-3.49986 9.24454 -11.0153 120 113 87
-5.43372 -9.12428 -29.3339 60 70 59
-5.57741 10.922 -6.00667 95 86 53
8.44121 11.6772 2.91585 68 81 70
-5.13706 10.4273 9.23404 69 78 65
-5.01024 -4.17928 -18.9497 69 79 65
-1.51782 16.7346 3.18638 57 37 7
6.75563 13.7369 1.1532 70 73 57
-5.36383 12.1777 4.47485 62 63 46
0.258329 14.7085 37.2703 74 82 72
6.58162 -3.69668 14.575 56 67 58
-3.14239 3.66815 8.96577 50 61 52
1.9898 14.7008 14.413 64 57 33
0.987972 17.3649 10.9446 59 42 9
4.79212 -11.9646 -11.9705 165 174 135
3.96239 10.4787 23.2911 63 71 60
-1.83349 8.74373 25.0715 74 78 63
-1.60335 14.3959 30.9537 61 72 63
6.82608 -5.81818 -10.6672 150 145 107
-1.44217 4.2388 20.991 80 93 82
5.46776 15.5726 4.36014 84 76 49
3.38918 14.9778 -4.43091 103 60 9
8.15967 12.2376 2.37406 83 101 88
3.4231 11.803 26.5476 68 74 63
7.65746 12.9392 7.31976 67 77 67
-2.49385 10.0274 31.7432 63 73 61
-7.86628 -16.0559 1.15536 71 88 79
-5.33691 -8.31896 -38.2337 87 92 75
-0.147081 0.354645 -19.5959 104 89 58
-0.106846 -3.44865 -23.1959 109 90 48
-2.31194 -2.48032 5.12237 59 69 62
4.55698 15.2178 -3.97593 88 48 14
0.892056 2.83916 -16.3415 111 80 34
-9.40616 -27.4637 7.9669 69 81 70
-4.40651 -6.43113 25.1075 145 136 100
1.77514 13.3556 -6.87843 120 74 29
-7.64298 -9.08409 2.0422 71 86 74
7.37201 13.6479 4.5863 73 80 67
6.16874 -12.6415 -11.4216 148 148 116
-0.856991 8.12993 26.9204 60 68 56
-3.19952 14.6587 3.59866 52 36 8
5.12238 14.594 -4.52351 119 92 56
4.33851 9.73858 -10.9939 135 121 92
5.6389 14.4561 -4.10769 97 95 71
1.21046 15.5425 -4.12111 99 54 4
-8.59758 -7.91164 -45.8454 59 70 59
6.54999 14.9806 3.81918 76 77 59
3.22051 9.01081 -11.4324 131 85 29
6.39399 -11.1831 -11.245 156 163 135
-5.29 -8.27372 -37.8721 80 85 68
-5.41182 -8.63146 -39.6172 69 74 59
-2.52976 10.3691 32.0802 63 76 64
-0.391716 5.32342 -15.7474 139 103 53
2.46185 16.7146 0.801608 70 47 12
-3.49485 13.8846 6.84882 42 31 4
-6.29235 -25.6773 7.81843 62 69 58
1.84054 0.87838 -17.1063 165 144 98
-1.04445 10.7919 33.9285 75 85 75
9.28819 -5.73003 14.2798 68 77 65
-3.81991 11.2846 -7.40505 108 69 39
1.54608 17.3159 10.6743 72 60 42
6.06479 -14.8941 -11.3997 105 124 107
6.41039 -4.17484 14.382 52 60 52
7.04898 13.3788 1.28228 70 72 58
-3.44047 3.91511 -15.4579 110 105 84
1.85365 12.4787 19.7532 67 38 4
-5.28631 12.5771 1.31374 58 44 23
-1.36823 14.7462 36.542 58 64 55
1.89617 16.7114 31.9208 67 60 38
4.80713 14.8157 -1.59355 76 75 63
-6.7584 7.76019 6.17634 76 90 75
5.23708 11.2379 -7.93911 117 99 63
-4.00103 -5.16139 -28.1571 81 82 66
8.74139 4.29912 12.0784 67 70 57
2.17505 16.4005 26.4892 87 59 10
-5.54432 1.4338 -13.6452 121 129 100
4.85941 9.64013 19.4956 117 111 90
-8.13317 5.1108 -1.02344 94 107 89
7.29009 9.33204 13.2509 62 72 62
-3.96683 -8.69362 -36.2464 86 90 67
1.0867 16.0893 34.8542 66 60 40
5.78461 13.9608 -1.2633 74 76 58
4.00304 3.38306 15.6561 76 90 78
5.59443 14.6184 -2.69847 69 78 67
-3.96584 -1.96979 4.67332 64 75 65
-6.57286 -9.33858 -45.2919 90 106 94
2.34903 4.07657 -14.5619 153 126 56
-6.20741 7.41238 8.43191 65 77 66
5.53188 15.1142 2.40685 82 60 21
-0.83794 -6.64898 -27.218 98 94 66
6.05821 14.767 2.25976 87 62 17
-1.89752 13.6063 35.2564 49 31 2
6.25484 14.3747 7.70382 71 76 64
-1.65761 1.79522 -19.5401 133 100 42
-4.58484 9.24674 -8.79915 131 128 90
-5.1647 -3.56739 -17.0596 71 84 72
-5.47273 3.88475 7.04154 57 69 59
4.27546 15.5969 8.18781 69 69 48
-1.15936 0.0114384 -21.1589 123 94 44
3.25204 11.4933 31.2669 62 64 52
-3.78621 -1.09056 25.418 59 50 26
-1.28108 11.4084 38.4982 70 82 71
-7.37239 -8.34754 -47.4678 102 112 103
-6.80897 7.63306 4.9096 58 70 59
5.06217 14.6362 -1.21715 74 66 40
8.24637 0.41188 9.92541 154 172 143
-7.92869 -17.5707 2.25523 70 83 72
7.21544 1.66103 14.108 70 82 71
2.77395 12.841 21.6191 95 66 44
2.61119 17.1525 6.81555 65 54 27
-3.74873 -0.943258 25.3343 56 47 20
6.24683 -8.10398 14.768 73 84 74
7.89557 9.56541 -1.04514 84 97 81
4.46826 -11.2582 -6.88165 67 80 73
-0.990665 9.61133 -12.1667 125 85 31
1.40658 1.3762 -17.0493 144 112 64
6.66824 14.4878 7.13451 73 72 55
2.79391 12.286 19.9697 79 45 2
-3.8178 14.025 2.06149 59 37 0
7.54879 13.8578 3.11986 73 84 73
-1.17593 12.3526 25.7192 87 56 11
-1.11155 1.04406 -20.1888 125 90 20
-5.11147 10.5948 -6.74285 140 123 90
-7.46944 -22.106 3.46307 69 85 74
-5.99069 -21.8685 0.160065 129 153 134
-7.24543 -12.9713 -1.059 171 209 184
4.89782 14.9272 -0.395457 101 75 25
-1.45756 11.213 33.6096 64 74 64
-0.382599 17.0015 28.4851 71 38 5
-2.70854 14.4919 -2.96592 75 52 14
-0.648567 14.1631 -6.81541 84 50 0
8.60342 0.289085 10.1794 152 167 140
-7.2453 -15.652 -0.132965 133 162 146
8.02118 5.16293 10.3841 92 97 77
-2.64935 7.6231 -13.4437 132 100 32
2.18407 12.9523 21.5329 81 51 6
-4.46837 5.93641 -12.1796 134 127 98
-6.40519 -10.1566 -1.68736 174 207 184
7.21158 11.1388 -3.18633 58 65 53
-1.78818 -5.27263 -26.8902 119 103 64
8.53602 -3.50152 11.6962 155 172 149
5.65877 15.0369 0.843431 77 66 36
-3.61592 2.1436 -15.9362 90 94 77
0.64036 15.0927 24.7579 96 61 10
1.74697 5.83414 -13.9691 156 140 98
9.15107 -1.6793 -6.88972 119 136 116
-0.0927429 1.24841 -18.8625 107 96 68
4.77392 9.53912 19.261 119 122 94
2.13929 12.4154 19.6881 100 62 39
3.39057 15.8705 -0.14658 88 78 56
-6.63346 -8.18578 -40.9498 63 69 57
6.96845 3.44275 -12.0025 137 152 136
7.59455 13.4094 5.12372 114 95 47
0.618641 10.8257 -10.8434 105 71 17
-7.25566 -9.69009 -39.1203 55 68 55
3.20194 -10.0123 -6.07829 70 81 74
3.43462 1.67461 -15.1418 138 143 120
6.08015 11.4872 -6.23811 101 112 104
7.80493 13.4069 3.43179 70 83 69
-7.46627 -10.2179 -1.34724 160 194 168
6.13022 13.127 -3.42538 64 76 68
-7.52695 -27.3314 8.56408 64 78 68
-6.52084 -9.96464 -1.68162 169 202 179
-2.65076 11.932 10.8087 56 51 29
-2.4965 10.9612 31.7295 61 77 70
5.36389 -2.11827 -10.8045 156 179 158
-8.12478 4.31945 1.3606 68 81 68
6.54039 11.8824 11.9337 64 71 58
5.08418 14.9053 -0.282269 114 79 26
-6.21363 -19.6218 -0.523979 164 194 174
-1.64209 -2.94673 5.06599 59 71 61
8.55863 7.83122 0.414516 120 141 124
-2.762 10.2642 11.8075 63 69 57
6.92781 10.7548 11.718 81 88 72
0.862576 15.5582 13.3722 55 42 17
7.04077 -0.0842705 14.6994 70 83 70
-3.22381 9.44395 -11.2742 130 117 73
3.2636 10.7898 26.9066 80 94 81
2.80596 16.2152 0.0852823 87 59 16
3.20788 11.2222 16.8623 72 64 49
2.7971 14.9257 -4.61505 107 63 34
-5.15997 -24.2298 4.17841 58 68 57
3.52516 16.3961 6.77064 66 54 32
0.372164 16.7853 11.3959 53 35 2
-8.03084 -0.0417934 -0.172356 61 74 63
-7.63618 -23.593 4.49052 68 81 71
2.74896 16.3473 0.246202 104 82 39
-2.17493 3.84394 -17.2202 152 135 102
-2.73377 10.5365 30.176 75 82 67
4.26682 11.6583 -8.48297 94 65 22
-1.71106 12.9613 11.3372 57 55 39
2.30445 13.4212 22.2855 97 81 31
7.35834 -21.8928 -9.10735 61 65 54
-8.37386 2.7549 -2.16362 63 75 63
2.50781 14.7876 24.0148 133 107 86
-7.53684 -10.0403 2.37711 70 82 71
6.24257 -6.30036 14.2537 68 76 62
2.42811 14.4441 -5.35312 100 58 6
0.0322075 15.798 25.8429 104 66 5
-4.52984 -3.11996 26.3704 62 57 44
3.93821 13.5424 13.8181 70 66 49
-1.69304 11.71 -10.021 117 76 13
6.72028 14.326 7.29229 72 76 61
-2.13798 1.10196 -20.371 128 95 48
-2.27193 8.78304 16.8044 51 37 12
-6.12554 -10.8986 -42.1621 96 112 98
6.02678 0.11657 -10.8553 138 156 135
6.98199 9.50665 14.1385 61 74 65
3.07063 16.5793 1.92141 86 54 7
-3.36277 -2.1961 4.89999 62 74 64
-1.95978 15.6516 -0.395462 74 50 8
4.46933 10.4995 16.6747 68 56 29
7.51871 8.15284 13.9524 65 72 63
0.76144 13.6016 -7.1612 102 63 19
-1.34401 17.0472 2.4369 57 37 5
3.09246 14.8877 27.325 90 99 84
2.89205 12.3827 32.9817 68 72 63
-4.50833 -6.3965 -29.2809 61 65 53
-5.3126 -2.05577 -16.0709 95 106 90
3.42988 15.9216 0.359192 77 63 37
-1.7345 8.74411 -12.8521 128 89 36
-5.45737 5.71447 -11.2215 128 123 90
0.239693 18.3896 1.99743 77 47 5
-7.79798 -0.359581 -8.35711 101 123 98
-7.39701 -9.3215 2.45672 72 87 75
8.67073 3.67214 -6.46173 138 162 133
-2.28786 9.08656 33.626 79 90 74
3.27074 10.6409 -9.94276 111 65 2
3.84686 16.1364 6.88817 64 46 7
6.5232 -7.1481 14.8893 67 80 69
3.84266 12.0835 -7.44599 115 93 48
1.08821 8.68435 -12.6858 144 104 52
-0.969894 11.7624 -10.1734 109 72 22
-3.63059 -8.75404 -35.7209 88 95 74
-6.83942 7.89269 4.88354 58 69 58
-1.42879 16.2689 -1.51666 79 50 9
-1.33192 13.9732 31.4352 73 86 73
1.3723 17.8594 2.4414 90 54 12
-5.59784 3.94328 6.82318 55 67 58
-8.46982 3.36492 0.321388 85 100 85
3.27551 6.42129 -13.4508 135 96 54
-1.72252 16.3864 4.99273 55 36 5
5.95388 13.9959 -3.82202 65 76 65
5.87122 13.8336 -1.2659 73 77 63
-5.59852 -9.88666 -42.0499 93 109 95
9.01321 6.29839 3.01814 73 87 76
7.91599 9.62827 -0.217226 108 122 107
-7.61954 -4.51128 -0.874863 74 90 76
2.35363 17.2418 4.36518 76 65 40
-0.538401 12.297 39.0408 72 81 66
-4.35211 -7.56099 -34.1895 95 95 73
2.52145 16.6921 10.0497 64 51 23
8.56516 11.4378 5.06861 76 90 78
1.53589 2.53462 16.8428 72 84 74
-8.12538 -7.8394 -0.155762 89 110 94
6.82693 14.3731 2.40152 107 77 19
-4.24005 -26.3669 6.51442 64 69 57
-5.88501 7.13755 -9.38032 111 115 88
-4.99725 0.791332 -14.8195 109 112 85
5.16634 10.0611 17.7399 58 57 39
-1.14884 9.31794 20.8109 64 78 69
-7.77007 -7.54491 -44.85 59 66 55
-8.39262 -11.589 -0.773087 113 139 122
4.32708 15.1499 10.5449 66 66 51
6.62677 13.6734 0.471743 88 97 77
-5.25338 -2.74124 4.26432 64 76 65
-2.43918 14.2049 -4.92889 84 60 12
7.1301 14.3872 5.76777 73 61 34
2.58526 15.5551 -3.42509 78 42 10
-1.86761 6.00861 20.6775 71 84 71
5.06537 15.0294 -3.98909 82 60 24
-1.17642 15.8273 28.389 71 73 44
3.19058 12.8229 26.2134 65 73 62
-5.11997 -24.4171 4.47567 61 62 54
-1.61785 -6.86798 -28.4061 110 97 62
8.21417 -7.80602 12.6872 129 116 68
4.31348 15.3548 -3.01074 75 58 41
3.50679 4.94231 -13.8998 155 123 72
1.8337 15.8164 -3.02429 73 44 8
0.477694 17.932 9.69391 56 47 28
-0.482821 15.5354 25.8749 85 53 4
0.377045 12.3144 -9.1438 114 71 32
3.10709 16.2826 10.2417 70 58 30
-0.11739 7.18045 -14.2282 130 84 48
2.94777 10.9497 -9.63162 105 66 16
4.86135 15.9947 3.76354 65 61 31
-8.91646 -25.9247 2.18128 116 139 121
6.81201 13.3202 0.192737 89 94 73
-6.70203 -9.51581 -1.63271 163 194 172
-2.21985 15.2408 5.60421 55 50 26
5.43156 14.5243 -0.449281 96 71 27
-2.65097 10.0364 -11.2719 96 73 35
4.62482 15.5926 0.985475 82 51 3
9.659 2.25742 11.5626 64 64 48
2.21831 14.9826 24.1741 137 121 93
-3.05872 -1.08637 -22.7445 101 94 66
-2.08163 14.5009 8.07259 54 39 12
6.84516 13.1765 0.0626287 93 99 86
6.03095 0.823105 -11.051 132 158 137
-8.30041 -22.1992 2.80739 72 87 76
8.04195 6.90651 12.8677 82 91 76
3.08781 16.2267 0.575384 91 69 31
5.9428 -10.9633 -11.4218 162 178 146
-2.69017 14.2171 -4.16472 87 63 19
-1.58929 13.7799 36.9241 65 69 56
-3.85086 2.52593 20.1968 66 78 66
7.54344 7.47231 14.1353 69 81 70
2.30216 16.6545 31.6343 71 51 26
5.06568 -6.58745 -11.3294 171 182 149
-2.06963 11.396 33.1173 58 73 62
2.9083 11.7848 -8.58166 102 64 13
-1.62388 12.7318 28.3016 67 80 70
7.12044 13.1766 0.692998 101 106 93
3.37678 12.8341 -6.83049 171 127 75
3.19181 15.6379 12.0971 66 64 42
-1.66557 13.03 37.5197 60 60 44
-6.27858 -2.71304 -8.13611 100 119 106
-8.44078 -7.36432 -49.6828 84 99 87
-0.493784 11.1672 35.2267 70 82 71
-5.53461 1.87064 4.51773 59 71 61
-2.49791 14.7468 -2.75816 71 48 10
6.01025 14.4455 0.110816 91 80 52
-4.98318 12.7831 -2.83789 136 116 71
-5.8651 -17.7724 2.92337 66 82 73
2.41441 -0.897964 -17.8435 123 122 83
8.66919 -0.652925 -7.79368 132 153 133
2.32267 12.8562 21.3449 105 60 3
6.15772 13.7431 8.82003 80 70 45
-5.709 3.40403 5.98322 60 71 61
5.96355 14.9264 7.3366 70 65 41
4.33798 10.1902 19.5906 106 70 25
4.80017 15.6199 2.74555 92 62 17
-4.2492 12.5259 -4.63384 83 55 0
5.22512 14.701 -0.430886 102 75 30
0.34848 11.8066 -9.81543 118 75 23
-1.99839 8.94114 -12.5557 121 77 7
-3.90357 9.75674 -9.40511 117 107 74
7.2677 -4.01786 14.9329 70 85 73
2.61246 5.50614 -13.886 155 117 57
-8.3199 -8.12598 -49.3402 96 114 98
6.30864 -24.8761 -7.11044 72 84 73
-4.68324 -9.98182 -38.9393 80 96 81
5.29619 -21.7243 -11.6466 200 204 169
7.37883 13.5512 2.00351 116 112 81
-4.27391 -7.40207 -33.5047 84 82 61
4.17858 15.69 8.19751 66 67 45
6.26311 9.01045 -9.52038 119 108 73
-5.1789 -9.15471 -40.5307 70 78 63
0.551586 12.8964 16.3187 48 29 3
8.16143 -5.23787 15.2512 68 80 70
-3.41849 7.82404 -12.5321 107 103 78
-6.76795 5.57585 2.81234 61 75 64
-6.58299 -21.6389 3.58462 76 88 79
4.29216 -8.65664 -11.818 165 182 151
-0.646834 8.58625 -12.994 132 80 24
3.92045 13.8782 -5.6984 129 93 42
-5.83751 -24.4249 5.66691 60 69 58
4.586 -0.571617 -13.6891 93 111 95
1.13994 17.1598 -0.192131 76 61 33
-1.08122 12.4843 13.5113 58 51 31
3.93858 -1.17856 -15.0828 97 109 90
-2.62061 10.4347 30.8372 59 64 52
-1.45025 13.3898 37.6426 64 70 56
1.70195 18.0083 7.89632 57 48 26
0.292318 9.27602 -12.3971 146 101 55
3.28232 -5.17139 -11.8889 151 171 147
9.00917 -4.5495 -8.25308 108 121 101
-3.18376 5.50299 19.7812 73 83 73
4.36097 -20.532 -11.4144 174 190 163
5.01058 -22.4021 -11.7819 183 187 150
-2.13932 -5.50538 -27.5814 113 98 56
-4.45062 -9.16825 -38.3163 73 82 68
8.87837 5.18025 1.99788 66 79 68
7.50545 1.79847 -10.7109 136 157 133
0.194876 12.1458 17.0423 49 31 4
-6.44975 -8.69415 -38.6657 65 70 60
-4.99466 -26.1264 2.71428 139 160 141
3.71062 16.1332 8.52711 65 59 36
-0.3062 9.33925 35.189 74 85 71
-6.03467 -25.0075 1.54588 148 174 149
-8.84325 -24.8648 5.3023 62 76 66
6.32662 15.0649 3.19718 84 57 15
-5.32931 9.50195 -7.52145 130 103 53
-8.47536 -18.6131 1.64567 64 79 70
7.00093 5.87051 -10.8933 69 75 64
7.54577 13.5351 5.25385 114 95 44
-4.10161 10.1281 -8.51409 97 83 45
4.49958 7.35169 -12.5315 132 102 50
3.05994 16.5387 8.33225 61 47 21
-0.731115 9.79204 -11.971 123 68 7
-7.24509 8.06462 -6.61139 95 99 84
2.69807 12.8698 30.0172 64 72 63
-5.42125 3.19297 -12.801 120 119 89
-9.81195 -7.59706 -51.7758 104 120 106
-2.00681 11.2895 33.008 60 74 65
3.15801 16.1279 0.431974 93 74 34
7.73982 -7.46066 -10.5989 141 126 85
-6.50304 -8.10778 -43.6443 69 76 64
-4.97189 3.97651 -12.6549 136 127 87
-2.57005 11.7965 -9.30922 128 102 66
-2.69996 -5.58794 -28.543 117 105 69
3.2911 16.5906 3.38877 73 52 19
5.82136 14.6334 0.132803 99 78 45
0.120558 11.9306 -9.74348 114 64 6
6.28033 12.116 -4.89274 88 94 76
6.64582 14.0612 1.93906 120 90 50
5.3658 15.234 7.27329 76 53 18
-1.25487 15.5386 8.59422 56 44 20
-1.43749 14.1293 10.584 58 49 26
-10.8917 -7.03437 -53.1194 140 158 127
7.08024 12.4874 -0.333136 107 117 96
10.0452 0.47385 11.3044 96 113 93
-2.24747 -1.21651 -23.1776 119 99 53
0.404581 17.9482 9.58142 51 42 23
-0.889032 13.5166 38.2696 66 65 56
-4.32007 -6.23917 -26.2475 75 80 66
-0.872133 16.2148 9.0127 58 46 22
-9.92206 -6.04915 -51.5893 69 80 68
3.77394 -17.3236 -8.48055 71 86 76
8.99662 0.998335 13.3135 67 74 63
-6.12402 3.67715 -11.4778 107 112 92
-1.87954 -9.62166 -29.2711 65 80 68
-6.08035 5.18842 -10.8162 122 122 91
-6.28307 -11.581 -40.4431 105 124 109
6.59048 -20.0137 -10.9212 122 123 91
-0.0931892 15.1865 -5.05366 91 52 9
4.94859 10.1946 17.8157 64 59 39
8.43341 7.79862 -0.285511 61 72 61
8.26728 -7.90238 -10.0851 136 153 131
3.00722 16.7704 7.06003 71 61 37
4.19347 15.7236 8.04473 67 66 44
8.21864 12.1548 4.61403 91 112 97
-2.59904 10.1716 30.8015 61 69 59
-5.17226 7.11061 -10.3512 116 108 77
5.58436 -15.4346 -11.9792 141 162 134
6.94315 14.4589 2.63434 88 78 44
8.13446 12.2878 4.47354 87 106 92
0.210323 15.8099 36.1807 61 61 41
4.21527 -3.85582 -11.3398 165 186 161
7.17949 14.395 4.06014 73 75 60
0.643351 4.87566 -15.0411 123 116 85
-1.93882 -4.74097 -26.7103 123 107 62
-7.02105 -4.188 3.74305 71 84 73
8.1021 12.2148 2.11241 113 126 110
-0.691166 -7.64351 -27.4151 107 123 100
4.91842 14.758 -1.74949 74 75 59
5.8998 -7.14111 -11.2302 159 158 115
3.42286 16.61 3.90132 74 48 7
-7.85646 -13.6467 -0.676353 142 171 150
-1.06534 17.5097 1.31063 62 37 5
2.52378 -19.8798 -8.74232 58 67 64
7.70083 13.6063 3.25765 77 89 75
1.26537 9.47844 -11.939 121 80 30
2.22097 17.3284 2.7207 66 55 29
-2.83216 11.0773 28.5418 61 67 57
-7.43286 -0.809017 -8.35545 102 119 101
7.27542 14.3063 3.3962 86 90 72
4.1682 9.56696 22.018 84 96 83
-2.81408 7.47824 -13.5131 132 111 66
4.30289 -4.60603 -11.3213 172 195 165
8.93111 2.25362 -6.55242 125 139 117
-4.34501 7.36089 10.5436 67 80 68
6.98775 10.5838 11.6082 99 106 87
-2.9456 6.56964 19.2981 58 57 41
-2.87916 -1.51786 26.5955 73 78 72
-3.48906 -7.613 27.2945 74 88 75
6.3712 13.4725 9.42665 70 76 62
-1.39264 14.0857 34.401 59 53 30
4.80645 15.1433 -3.94791 97 55 13
-7.76194 7.55881 0.305199 60 64 51
-1.51668 15.1534 8.33523 57 49 28
-2.98507 11.7118 10.5975 54 48 26
-7.06291 -9.47033 -38.9882 56 69 57
-0.176788 15.1076 -5.25879 82 46 3
-1.16063 15.5053 35.7253 58 47 28
5.24176 12.5197 -5.56954 96 91 70
6.54071 11.3164 -5.31822 100 109 88
-6.50899 -6.07874 3.98468 73 87 72
4.56915 -18.1093 -11.834 172 198 158
6.5135 14.8632 2.91069 95 72 26
-8.57457 1.51793 -3.7161 91 105 90
3.18481 14.0859 23.8435 89 75 54
7.12984 10.2381 12.6905 59 65 56
0.571102 -6.2802 -23.6736 77 91 75
4.40068 10.3249 18.3217 91 69 42
9.66146 -1.99638 -5.56607 77 91 79
8.75601 0.500877 13.7046 66 73 60
-4.72105 -4.09528 -21.2292 93 98 79
6.22622 5.66452 -12.3599 143 131 91
7.48513 4.27132 14.0853 72 84 74
7.50816 10.2757 -1.76551 83 96 81
-2.28806 13.0371 33.3805 53 41 14
-3.67182 -1.4348 26.1202 57 56 42
4.11449 15.2161 -1.20803 90 75 44
-1.93833 11.1745 -10.4089 134 80 11
4.18625 1.35878 15.1362 76 91 79
7.74865 -5.53858 -9.97136 141 121 71
2.64481 16.9167 30.6403 66 65 50
-0.85704 11.2348 35.0829 64 79 68
-2.50392 9.34299 33.8449 64 71 58
9.08528 8.33349 3.87257 67 79 69
6.96658 13.1534 0.375871 102 109 84
-6.1561 3.15321 -11.7625 104 115 96
-3.51178 -7.68603 -32.3348 97 93 66
3.63573 10.759 18.2415 94 58 9
4.0241 3.15022 15.6096 76 90 78
8.5713 7.31516 -6.96881 75 84 73
2.05677 -2.75996 -19.3218 99 113 96
-4.09682 9.56519 -9.24994 110 97 65
0.250587 16.9051 27.7426 85 53 7
0.6102 17.843 9.98161 62 54 39
-2.77564 12.9369 -7.07243 84 63 25
-7.94312 -1.42872 2.15467 63 76 66
8.56789 10.4713 4.52569 111 133 114
3.04908 5.86965 -13.7337 151 116 63
5.14584 15.3234 2.5501 78 58 18
-4.12049 -5.32715 -26.5191 67 75 63
-2.47024 1.67439 21.7617 71 82 68
-1.62792 14.7349 31.1693 56 67 57
-1.57989 -7.49834 -28.8674 116 114 86
2.6014 -11.3653 -10.1491 63 76 65
-2.43688 13.5437 -6.63387 87 70 30
5.74406 14.8731 1.91216 75 69 50
2.15731 17.5098 8.00353 63 48 19
-6.79642 -5.69287 3.82785 72 84 73
3.53082 8.25021 -12.0517 112 87 37
9.43131 -7.36376 13.1889 96 99 76
-4.87694 -6.917 26.4852 69 80 67
5.19855 0.269955 -12.2573 93 111 95
3.08791 16.6993 6.77013 89 88 60
2.99974 16.4772 1.51408 79 49 5
-3.31835 6.50744 11.8963 61 72 62
0.345543 -4.20902 -23.2981 121 118 89
-6.09705 -0.056179 -13.0198 69 88 72
4.80741 -22.0694 -7.19328 60 72 61
8.12632 12.0906 4.36908 84 100 88
6.19902 6.61962 15.0059 71 83 73
4.82394 14.1902 11.8848 65 56 34
0.463236 11.0104 -10.6505 118 69 17
0.199131 -5.19983 -24.1879 103 112 86
4.93571 14.8511 -2.00655 75 74 53
2.52794 17.2508 6.96524 63 49 24
3.62514 -10.6122 -12.1587 174 197 167
5.79708 15.1744 2.82069 95 71 36
-3.85516 6.17315 18.2379 57 58 45
0.556595 9.22431 -12.3896 142 103 51
5.79602 -11.6687 -11.5358 149 157 119
-8.01126 -17.2879 0.884323 87 107 91
