ply
format ascii 1.0
comment Created by Open3D
element vertex 1364
property double x
property double y
property double z
property uchar red
property uchar green
property uchar blue
end_header
-1.71908 15.5872 -3.12222 78 49 8
3.16652 13.5936 25.5353 61 72 63
0.421101 -2.44118 -21.6287 111 89 45
-6.73531 -17.1366 3.02347 79 92 81
8.80575 6.17081 4.89445 64 77 67
1.74066 7.96838 -12.8039 145 108 73
8.24362 1.01441 13.7316 64 73 63
1.9233 -0.798946 -18.3944 98 85 55
-3.83527 -6.22952 27.5391 70 82 70
-5.09137 13.2639 -0.214378 53 41 21
8.01498 9.22775 -1.0619 95 108 93
-4.29994 -6.0738 -29.3856 62 64 51
-1.14481 13.5531 12.2449 63 62 49
9.69877 2.98714 -3.57984 73 87 75
-0.882513 14.26 12.1507 62 53 27
0.748135 12.4263 18.0482 49 30 1
-5.57947 11.3628 -4.80779 83 76 49
8.76456 6.11661 -1.67113 61 71 63
-7.72856 -17.1557 0.323982 110 134 118
-7.55909 -22.1287 0.574066 138 164 143
7.35106 -6.88757 15.0522 70 82 70
-2.65359 -7.09453 -29.9798 130 120 72
-7.02293 6.33427 4.59118 58 70 59
3.29916 11.4269 28.5048 72 79 64
7.10416 10.9165 -2.4466 71 81 69
4.89502 8.23156 20.0415 68 80 69
-6.63385 10.1372 -3.24751 64 75 59
1.37995 13.7496 22.9533 102 72 26
-2.7561 -3.54858 27.6498 75 85 74
-1.7679 -5.67949 27.5595 77 89 78
-5.24524 -9.14008 -41.0725 75 85 72
2.21629 -23.4628 -10.7506 107 131 108
-5.09703 9.74686 -7.47182 127 117 87
-3.79373 -1.69387 22.6774 84 90 77
-3.43478 -0.981956 -20.8247 79 81 64
-11.3524 -7.49549 -52.5175 82 93 84
-2.52495 11.4256 29.8639 61 58 40
-3.40115 14.3248 4.7125 50 43 23
9.11282 -2.13018 -7.19465 126 139 117
3.07633 15.8994 29.4105 63 65 52
8.97722 -2.97532 -7.49113 118 132 110
7.5158 -3.4432 11.379 167 194 169
5.09169 8.14021 19.5589 64 76 66
0.113503 14.3037 24.2395 100 55 0
-0.915398 12.4926 -9.27279 93 62 19
7.32189 5.15423 -11.0789 97 101 77
-4.02051 3.94958 19.5704 68 74 67
1.5131 -22.7431 -8.90144 78 90 77
-6.1829 10.7176 2.04539 65 74 57
9.36636 -5.0862 -7.18785 84 99 82
9.12516 2.99693 12.2769 66 73 63
-4.44675 -6.60376 -27.5456 61 68 55
-3.93936 -7.06137 25.0258 132 135 101
8.71342 5.9041 5.72178 61 74 64
-2.78045 15.1453 3.36331 61 44 21
7.42156 13.4998 7.25391 68 78 67
-4.99784 8.73459 -8.73138 117 119 94
-5.68062 -8.08339 -36.0204 74 78 64
-6.76858 5.55004 -9.75705 139 135 101
-6.86567 8.36708 2.40504 79 84 69
1.22441 0.903831 -17.6801 112 76 26
3.09324 15.5594 -3.22469 69 48 15
7.5879 -6.60385 15.1107 69 82 70
7.67628 -9.5405 -10.5582 137 152 126
-6.40197 9.17416 7.14851 65 80 70
3.88477 -4.61241 -11.5123 164 185 163
0.712699 11.7965 -9.71124 108 72 14
8.54721 -2.62814 14.908 67 76 65
8.23337 9.39598 7.54815 70 80 71
-3.47077 0.776649 22.3691 53 43 19
-5.96947 -9.99747 -42.9456 84 97 88
9.88701 -0.0993729 12.5057 66 73 63
2.24551 13.9805 23.061 115 95 52
8.98545 5.71037 -1.831 60 70 62
7.761 -4.39577 15.1189 71 84 73
9.13812 -6.03466 -7.47366 65 77 67
7.66902 5.59393 9.50421 82 94 80
2.75633 16.6784 1.82562 77 43 8
8.4401 11.7193 6.32667 67 79 70
-5.39359 -8.39391 -38.5188 105 116 93
8.621 -23.8386 -10.2831 91 113 96
5.98937 -1.54806 13.6649 55 62 53
7.577 6.1883 9.37938 74 87 73
-0.316055 17.6535 8.53385 56 38 11
-4.19214 13.6221 4.87299 51 41 17
-8.22244 -17.9263 0.951904 94 116 101
5.45782 -5.71564 -11.0378 163 172 137
-5.73011 -26.5063 2.02804 133 154 136
8.81137 8.16053 6.45366 65 79 69
-5.64174 4.41454 -11.8101 131 129 89
-1.39499 16.7455 0.208004 81 52 6
-1.60091 -2.12349 26.0815 70 81 70
-5.69462 1.53077 -13.4141 118 127 101
8.6041 1.00571 9.98974 153 166 140
-7.56686 8.05528 0.040741 64 66 48
6.92978 14.6925 3.56304 68 64 45
8.52995 -3.9054 15.133 69 78 67
-2.85101 11.328 11.0429 60 71 58
-7.99612 1.05603 -5.16257 72 86 75
3.34423 11.7482 24.8899 66 76 67
7.08113 -6.06626 14.9624 67 79 67
-7.81831 5.91085 -2.61098 72 80 67
4.09604 10.3953 17.6572 65 49 22
-5.21486 -6.55536 -22.2639 64 73 64
6.77624 -4.09051 -10.1235 137 143 107
-3.61051 14.2551 4.29623 55 43 18
0.510338 -2.84605 -22.0082 113 99 54
-5.51307 9.45014 9.25027 66 78 63
-9.72668 -6.28093 -50.2876 59 65 55
-1.09497 15.8533 -3.88487 86 44 1
6.83611 14.5087 4.3846 76 77 60
-2.56377 -9.29068 -32.9495 93 111 90
2.4938 17.1562 4.83952 69 53 18
9.0388 8.20876 5.72699 65 78 67
-7.97249 -23.789 1.31248 143 173 154
-0.864124 10.888 15.3215 54 44 24
3.65007 -9.84244 -12.0856 180 201 171
-3.50434 -8.2326 -33.8925 91 91 67
-5.89846 -10.4567 -42.2216 89 106 94
-3.89024 13.5479 -2.86118 89 50 7
-6.29029 7.53248 7.88062 54 66 55
7.42195 11.7111 -0.216812 119 139 118
-4.06694 1.71877 19.9756 65 77 66
-7.39594 -9.81522 -39.6414 56 64 52
-9.53535 -25.7006 5.88027 67 82 72
-2.1287 10.4252 13.4151 53 51 31
-5.91186 -8.56449 -35.5323 58 64 53
8.90359 -1.72456 14.5052 68 77 66
-5.78034 -9.72134 -1.92891 184 220 192
-0.89016 10.5068 -11.3502 161 143 101
-2.76358 14.428 6.7962 47 28 0
6.34464 6.35282 -11.7824 120 105 72
3.20398 11.4891 30.4243 65 66 54
-3.60142 -6.74666 27.5569 71 85 73
7.95988 10.9129 0.759759 96 114 99
9.19411 2.62324 12.4119 64 74 64
8.13213 8.97245 -0.881145 78 89 75
-2.15788 5.52291 20.5569 72 84 73
8.91933 7.3386 -3.91901 88 101 88
-8.14661 2.25197 -4.81826 76 88 74
-5.28652 9.21694 9.38758 66 79 67
-5.8757 9.74249 -7.12189 123 102 54
7.24861 5.9449 -9.65498 89 103 90
-6.42988 10.174 2.94118 61 56 41
1.72705 16.2474 25.942 145 120 72
3.28622 11.2939 26.3621 99 116 99
7.49855 7.2748 14.2095 71 83 73
-7.45349 4.78788 -7.26362 79 92 79
-2.30029 11.2875 11.9487 57 59 42
-7.89574 5.36349 -2.20261 72 87 72
-0.83359 6.4767 -14.9054 126 72 6
6.71514 -10.3444 12.0025 98 104 85
-0.0804596 18.6503 3.79679 61 44 14
3.51568 13.0082 23.5137 82 86 70
8.23803 4.65238 13.4173 67 78 69
7.09224 -6.61068 14.9943 71 83 72
-0.296922 18.4576 3.7373 58 38 10
8.32932 9.30396 7.27567 64 74 65
-2.23138 11.7022 11.6282 62 64 49
-4.50848 -6.7056 -26.4033 86 88 70
-7.36225 6.90844 -6.19139 85 97 84
8.68114 -0.116661 14.0057 66 75 64
1.47924 7.10413 -13.5826 142 105 49
-3.16106 -4.29569 -27.5108 175 168 126
8.48646 5.32072 -0.6432 97 117 102
8.71156 3.36823 10.1027 139 144 115
-4.78729 -7.21182 -33.3058 71 70 52
7.4832 12.7055 7.68614 69 79 70
4.53833 15.5886 6.44341 82 66 36
-3.95154 5.97303 -12.9683 123 118 87
-9.86783 -7.28424 -51.96 115 133 116
3.63028 13.748 -5.9839 123 74 25
-2.14169 12.5618 31.8905 72 67 42
-1.66482 -4.27169 27.0377 72 83 72
-4.95179 -8.35386 -30.5882 63 72 59
9.36582 -4.60558 -6.35789 64 77 66
8.84573 4.93544 -6.52087 112 132 114
4.91941 11.8391 -7.62997 106 87 44
8.59985 6.31135 0.0705395 64 75 65
-8.26498 0.898088 -4.14649 77 91 77
0.175676 17.5487 29.812 73 44 5
1.99296 -2.46595 -19.4254 106 116 93
7.33451 -6.33474 15.0364 68 80 68
6.38934 8.69295 -9.86787 117 104 73
-9.04967 -25.2981 2.32854 88 108 94
8.88273 6.37824 5.39182 70 82 72
1.45251 16.6637 26.8654 80 56 22
8.0703 -22.2162 -10.642 138 124 92
-7.82141 4.34182 -5.69628 82 93 79
-3.50003 0.701534 -17.4324 70 81 65
2.94002 13.1743 22.1768 109 73 16
4.82968 13.2468 -5.58329 134 114 72
-4.46506 -6.59786 -28.0756 62 71 60
-3.4781 -1.23994 -20.946 86 91 75
-7.60637 6.27638 -5.55399 64 73 61
-6.90813 -8.83925 -46.2994 88 104 90
6.9969 8.18492 14.4371 68 78 68
5.03966 -0.0941334 -12.6126 100 118 105
7.08195 12.886 8.86675 68 74 58
-0.549023 10.191 -11.5457 135 101 49
8.49649 5.58612 -7.21932 108 129 111
7.11765 11.0863 -4.12012 78 76 65
2.19665 -20.5077 -10.011 80 95 76
-4.91709 1.47062 -14.558 118 115 84
-1.66677 16.7057 1.58627 63 43 9
-0.0690117 2.83541 -17.5444 140 104 61
-4.41 13.5505 3.81836 55 39 10
6.58798 0.159248 14.7383 71 86 73
-6.67629 -20.4378 -0.466896 172 201 179
-3.91154 -4.67431 -27.0054 88 90 72
3.89628 -16.7056 -11.8401 138 156 133
-1.1626 14.0032 31.5709 71 84 72
7.82496 1.89012 -10.5493 132 151 130
8.4362 2.89123 -6.88765 119 138 117
3.37129 15.5807 11.9025 67 65 44
5.43621 13.709 12.6372 63 69 53
8.84287 5.70766 -5.3709 62 73 64
-4.68948 -5.99245 -5.757 109 130 114
-4.93276 9.73031 9.50347 66 77 65
-5.27367 8.15226 9.30207 66 80 68
-7.09323 0.260109 3.01297 69 81 69
4.43846 15.8746 2.37843 72 67 46
7.31135 -2.46933 -9.31594 147 157 129
8.95635 8.6608 4.73995 100 120 102
2.49875 12.7063 16.2468 59 51 21
-4.66042 -9.35096 -39.101 89 102 86
-1.76336 -8.8229 -29.9392 101 116 98
-6.22072 10.9956 -1.34841 65 70 62
-1.82139 -4.20781 27.2715 71 83 72
4.55012 10.3156 17.8633 67 48 24
-8.37522 -7.36861 -49.5194 81 97 84
8.60459 -1.40384 14.5682 66 77 64
-1.42228 4.94764 -16.3387 125 81 8
-4.01492 -10.3764 -36.273 75 88 75
-8.14181 1.74455 -4.75983 78 90 74
5.50485 15.0894 7.72529 70 68 54
7.93395 10.606 8.43428 64 76 68
0.360357 3.5106 -16.5682 114 90 54
-1.87385 -5.96368 -27.7804 115 106 65
-5.18503 12.5357 4.24975 60 50 28
-3.79125 -8.94765 -36.333 73 83 69
2.1383 -21.5074 -10.2038 121 135 113
9.54099 0.243042 12.9925 70 79 67
-7.24528 4.83208 -9.35677 71 80 69
6.66158 -9.2153 -11.2736 163 169 131
-2.31465 -3.67045 -26.1762 124 104 51
7.7768 1.09473 9.52806 151 172 149
-2.27645 10.6987 12.5484 60 60 46
7.03994 -9.9546 12.1254 83 81 57
7.82349 7.70063 13.3597 64 75 63
-4.70386 -3.94396 -20.9304 65 66 48
0.143749 7.2832 -14.1362 145 105 63
8.4269 -23.6665 -8.95118 63 73 64
7.11056 5.59127 -11.0142 74 76 61
2.14357 15.9069 -2.27704 87 76 53
-6.59112 9.34432 6.77456 63 76 67
8.77551 7.85875 1.45653 64 74 64
9.03131 3.28481 -1.94458 59 70 61
-1.33506 6.68155 21.3307 66 81 69
9.36628 3.45979 -5.27175 82 94 82
-4.34645 -5.99149 -25.4018 87 92 73
-1.12885 14.1063 11.8538 58 49 23
7.2937 1.93163 8.97082 147 170 149
7.0712 -5.78809 14.9601 66 78 66
9.51137 4.98499 -3.36939 90 107 90
-7.81303 1.95047 -9.10564 83 97 82
-7.33525 8.59763 -1.84402 78 81 65
0.15646 5.79361 -15.1159 125 84 26
-5.21514 -3.68639 -16.2487 65 75 65
1.31483 8.65707 -12.5972 125 90 45
-0.131496 -5.0615 -24.752 88 77 56
-0.0232525 -6.18435 -25.5945 107 109 80
2.62269 11.9094 -8.50504 97 55 9
-7.66453 3.52304 -7.62106 76 87 74
8.37461 -6.9115 12.9685 146 147 114
-6.77428 -10.0512 -36.8414 56 66 53
-1.97968 16.0636 4.69707 53 36 4
-2.4593 2.26427 -18.8662 127 102 51
-4.22993 -2.30664 -19.4193 96 90 64
-3.06638 8.11499 13.568 63 65 51
-4.15855 -5.53172 -26.7741 62 71 60
8.99265 9.03384 5.67403 70 83 72
-7.20239 -14.4265 -0.780548 154 184 161
8.82678 -24.2792 -9.22088 65 75 66
0.539534 16.8122 11.5005 50 35 4
-7.71319 -13.8544 -0.698242 142 170 150
-7.2253 -1.91905 3.22462 67 80 69
4.53968 7.6548 -12.2764 156 134 96
5.13225 9.31319 -11.0153 136 102 69
-5.90858 9.56622 8.65771 57 63 48
7.73751 0.0041275 9.83608 165 183 160
-5.98024 -10.2734 -42.6814 83 97 86
-3.09569 12.7646 -6.47679 70 52 14
-4.46177 6.84615 10.3355 67 80 69
7.57024 -6.05136 15.0961 70 82 71
1.61966 17.3097 1.14059 72 65 38
-6.42709 8.68185 7.26496 65 78 67
-5.69176 -8.12472 -36.4138 70 75 61
-4.40195 7.44183 -11.1411 127 116 85
-5.49053 -11.6375 -38.7904 65 81 69
8.44906 4.28355 10.2866 105 105 78
4.68521 1.43624 -13.5697 100 115 100
4.47641 -18.5022 -11.7698 170 211 168
2.43897 13.4801 -6.49815 137 105 68
-5.12389 -4.69603 -18.6314 66 76 64
-0.16016 12.8173 22.9355 62 49 19
-5.47116 13.1603 -1.18051 61 55 37
8.18462 0.56913 13.9734 67 74 63
-1.64856 15.5061 32.4089 63 63 48
7.46281 -3.02674 15.052 72 87 75
-6.07569 0.203087 -13.1845 84 102 82
0.585983 7.74814 -13.6276 133 101 57
-4.49298 11.4524 9.25058 62 70 59
4.21486 10.4374 21.3276 66 76 66
-3.85351 7.81224 11.0752 69 82 69
1.64896 -21.5269 -9.27773 83 94 77
1.74805 -1.62718 -19.2201 121 111 79
6.62839 8.56351 -9.57495 95 103 88
7.0316 -4.41812 14.9172 67 79 68
8.51087 8.50348 -2.34375 58 68 58
-6.15063 -10.1 -33.5905 58 65 54
-7.62579 -1.0386 -8.05395 103 119 102
2.0548 -20.8979 -9.87432 102 113 93
-11.1716 -5.97608 -52.3005 55 63 55
6.46286 -5.57151 -10.7439 149 140 97
9.47148 0.986145 12.8022 64 69 57
-6.22289 -29.0962 9.11064 62 80 68
9.24531 -1.4372 -6.74748 108 126 107
-0.309011 2.97362 -17.6501 123 91 46
-7.52635 5.70216 -6.23244 76 87 74
7.67551 10.8116 -0.107948 112 135 117
8.68122 1.82693 -7.2879 92 107 90
1.40081 12.5494 20.2937 72 40 1
7.54442 10.6465 -4.42776 59 55 35
7.03851 13.0594 7.99802 68 74 65
6.63595 -12.5062 -11.0285 148 158 129
7.67098 12.0482 8.80259 63 78 74
6.77115 4.58112 -12.2593 130 138 115
-0.619179 16.4544 9.87694 63 62 46
-5.25636 -9.56696 -41.1969 87 100 89
7.48287 10.694 -4.69263 74 64 37
9.67381 0.732193 -4.452 75 87 75
6.03045 -9.17492 13.5655 88 94 71
7.10263 11.1891 9.58307 66 76 68
-5.07381 -2.091 -16.6912 102 116 94
5.63158 -23.7922 -6.94035 62 75 64
2.3273 15.474 -3.83202 80 41 6
-5.14832 -8.91644 -39.9124 61 67 54
-0.839603 15.4252 26.5258 101 89 64
-4.20837 -0.546928 -17.1009 152 151 114
8.08895 -22.0782 -9.72331 58 62 51
4.18034 -11.514 -12.0577 165 181 149
-4.77462 -4.06228 -20.4281 77 79 62
1.79845 -5.64594 -12.897 135 156 136
5.13278 9.89846 18.1101 66 70 58
-0.88906 9.588 18.4272 54 36 7
-7.89877 2.23132 -8.43215 74 87 70
-5.60457 -4.84808 4.26244 67 80 69
7.2269 1.4968 -10.7161 134 154 130
7.79477 -1.49158 14.8877 66 77 66
8.75593 -7.10406 -9.6086 143 141 108
-3.5393 -26.2886 5.72353 59 64 53
-2.74993 -3.52213 -26.3283 148 131 87
2.07862 11.6339 -9.11465 105 79 43
5.07281 -20.3793 -11.4613 172 179 148
3.81586 -14.0678 -11.8699 105 121 103
-7.45738 5.15051 -6.95471 83 94 80
-5.69074 -6.72156 4.02039 74 88 79
-1.13623 13.5663 31.5238 68 84 74
-7.10009 7.99844 -3.66753 64 77 65
8.41711 2.83131 -8.19379 60 71 61
1.03951 1.86948 -17.0309 133 102 48
8.99481 9.86536 2.68503 65 84 69
-3.84631 8.31654 11.036 68 81 69
-2.11965 12.5041 30.6307 55 55 42
-7.74062 7.1424 -1.78423 86 97 80
-7.27856 -24.5766 6.04102 55 65 57
7.01089 -1.74517 -9.50238 141 161 139
-2.92172 5.41646 -14.8348 122 100 87
0.652237 16.061 35.4834 65 58 39
7.765 -4.21833 -9.43024 152 148 107
8.20312 7.74915 7.62898 70 80 71
-5.83558 -14.1395 2.94826 78 91 83
-2.99767 8.56801 12.9226 64 63 46
-1.64861 14.0186 36.3344 59 51 25
3.94433 9.16033 -11.4923 141 110 60
-5.1257 -8.42899 -29.3949 76 83 66
-5.83459 1.30428 -13.2907 109 120 96
-1.62836 7.39924 -14.0019 131 91 40
-5.77053 -15.7791 -0.406212 145 175 155
3.05511 4.77674 -14.1277 153 129 67
2.78821 15.27 24.7276 85 76 56
-1.58369 -3.25283 26.4625 72 82 74
-7.00108 -16.8454 2.9225 75 88 77
8.84048 5.43034 2.58214 72 85 74
6.00494 14.0087 -0.432274 117 119 88
8.89706 5.93383 -5.90243 58 70 61
-4.82672 -7.15072 -26.5098 80 82 64
-5.43226 -24.4961 1.96432 132 140 126
2.70028 -5.55412 -12.1866 167 195 168
1.28785 17.0761 -0.151871 80 65 28
5.11817 -23.4186 -6.80222 64 78 67
6.08508 -7.22221 14.5402 45 53 41
7.80146 9.75316 -1.19045 103 117 99
7.23107 1.26763 14.229 68 79 68
4.56858 3.10607 -13.607 127 140 122
-6.97583 -8.37393 -41.1049 61 68 56
-6.98329 7.43742 -7.49487 107 116 100
-1.43964 -8.61153 -29.2569 96 106 86
-1.98824 -6.22653 -28.1977 114 103 67
9.41953 2.41695 10.9745 106 106 86
-0.65934 -8.68694 -22.0758 79 94 79
7.05449 7.07364 14.5829 69 82 71
7.58853 -21.4895 -10.7315 133 125 91
-7.20489 7.60948 -4.68269 68 80 69
2.20519 16.3116 12.1597 61 57 35
-3.42721 14.3544 0.684604 58 39 9
-3.89631 11.6171 -6.73114 117 88 59
-2.99772 3.35654 20.5926 73 86 73
-4.87001 -5.14814 26.9893 71 80 70
7.95989 -2.25279 15.0443 67 78 66
3.89613 11.0574 20.1256 105 65 9
3.85745 -23.1582 -11.7271 174 181 151
-2.1598 9.25236 34.832 60 66 54
-2.06077 12.5593 26.4654 85 79 55
3.1657 12.44 25.8232 113 126 105
-2.87409 14.9222 4.42513 57 46 24
-8.82196 -26.9351 7.8968 66 77 67
-2.09429 0.948803 22.8665 63 67 55
9.38733 2.68041 -5.54713 97 114 99
-5.34623 -4.42285 4.31277 64 76 67
-2.59189 12.7613 -7.82598 97 72 31
-6.41627 0.274078 3.29503 67 80 69
-4.80136 -24.6802 4.38055 59 65 53
3.66304 11.0173 -9.67609 99 55 3
-1.52777 14.5836 31.3272 58 69 59
-2.41205 9.84379 13.1685 65 66 46
-9.02353 -7.14022 -50.8185 112 121 107
-6.61223 -9.84499 -36.3934 58 67 56
-1.62981 15.5067 29.2486 87 54 4
-6.22359 11.2244 -1.6423 64 74 63
5.74148 -21.4516 -11.6561 181 180 145
-6.27775 10.5193 -1.04698 64 75 61
-4.23062 -6.44491 -31.2291 110 108 74
-0.793388 15.2499 -5.08251 97 53 9
7.4342 -1.179 14.9075 69 82 70
-5.73913 10.9084 -5.90447 87 69 22
7.03361 7.39888 14.5866 67 80 69
-0.265377 -8.37989 -17.662 62 72 63
2.33189 -20.2697 -10.3212 93 112 90
-8.7057 -8.62139 -45.3175 55 67 57
8.74446 4.10776 2.62017 66 78 68
-2.98688 -0.121033 -21.0645 97 86 62
-6.63204 9.30582 3.34045 66 74 60
-8.00672 -20.8778 2.66563 77 93 79
-6.30328 -8.16615 -41.1807 62 70 56
-3.43191 -0.521797 -19.3075 67 74 59
-5.4565 -23.4873 3.34582 66 70 60
9.15472 -7.27653 12.9716 148 139 100
-3.9129 9.66478 -9.4825 113 103 70
4.79109 -4.75564 -11.2167 171 190 158
-6.76934 9.05089 3.78493 62 65 53
4.22369 -15.811 -12.109 155 176 150
-7.9814 0.285822 -5.04536 67 80 70
7.69465 2.16326 -10.7359 126 146 125
8.99647 9.71955 3.13661 68 82 71
-1.45405 -0.309757 24.1435 64 77 64
-3.26058 10.9822 10.6173 62 71 59
9.08135 4.39415 -5.94809 96 113 95
9.04747 -4.15194 12.3352 125 138 117
5.88077 12.0493 15.1243 72 66 50
2.75135 13.8639 23.1588 105 71 15
-0.840302 -6.68993 -27.2683 102 99 70
-4.15265 -27.2155 7.32274 64 71 58
-2.87686 11.2555 -9.51457 115 91 54
-7.90418 -12.6053 1.83088 72 85 74
-5.22693 7.06603 9.35395 65 78 66
-2.22362 -10.0634 -30.0632 67 82 69
8.53227 4.00109 -6.63257 134 158 133
3.04908 -9.9764 -12.1771 175 200 173
8.63812 -0.928078 14.4019 68 75 63
8.0029 -4.12641 15.1556 68 80 69
5.68729 5.14853 -12.9719 156 130 87
-3.87641 10.7088 -7.96159 102 86 60
-4.76328 -7.01606 -32.2085 96 98 79
-4.29257 -8.49308 -36.5213 86 89 68
-6.2229 -9.23054 -44.2778 82 97 83
-5.03759 -8.474 -38.0992 81 86 70
-5.17571 -3.15527 -16.3936 69 82 77
-2.32248 10.2915 -11.0391 107 69 12
1.98858 13.1975 -6.91909 124 75 21
4.25686 7.4891 -12.5426 146 113 51
0.24254 11.9408 17.5776 54 44 18
7.27154 -3.88354 14.9294 71 87 76
-1.21244 14.3413 -6.56911 96 51 14
-0.726862 9.58329 19.7214 58 45 18
4.93723 1.10162 -12.8238 93 108 94
-0.855233 17.1571 29.9712 86 72 37
-7.19275 5.80222 -8.04012 70 82 69
-0.0735016 18.3139 1.61691 65 38 15
8.32823 7.67596 7.21362 61 72 62
7.30618 11.3085 -0.844418 108 127 110
8.08164 5.08607 10.4569 89 92 72
1.68451 16.4234 12.259 59 45 15
1.85832 0.297943 -17.5619 123 95 54
-3.39381 7.29738 -13.0276 109 90 60
7.4177 2.70073 -11.2041 118 134 115
-3.76853 -25.7969 4.79195 58 64 51
-7.91106 5.24236 -5.09026 62 74 62
2.03832 13.4839 22.3007 119 107 58
8.15928 6.48032 -7.91264 135 153 134
-4.80949 4.6058 -12.4602 152 138 105
1.92313 -2.06772 -19.2963 97 92 62
9.03789 6.57683 2.97157 70 84 73
-6.13064 10.1986 7.11738 67 76 67
-1.86204 12.0164 26.1429 109 86 42
-5.53648 -2.17104 -14.3802 74 88 73
7.48772 -4.06573 -9.58083 148 147 109
-1.0656 17.3575 5.05165 71 49 13
-4.37807 2.7422 19.339 65 75 64
8.51942 8.38745 -4.5674 78 91 80
6.54863 -4.14417 -10.2999 146 147 111
-3.18487 4.66953 20.1377 68 79 66
-7.28779 7.1166 -6.47576 65 74 64
8.353 8.89936 -4.64223 101 117 101
9.03598 -3.46819 -7.68668 121 130 106
-1.43356 11.154 25.4957 74 56 20
5.8435 -20.7125 -8.7914 63 73 63
-2.61184 -10.7032 -30.913 66 80 67
7.75288 -3.86319 15.0764 68 81 70
7.05082 -12.9198 -10.5108 123 128 109
7.34169 -10.074 11.603 135 131 105
3.28304 11.4764 28.0166 64 71 58
-4.3627 8.15299 -10.4753 107 95 67
5.07716 9.7305 18.341 71 78 66
0.596128 17.9839 9.65689 59 54 34
2.48632 12.3717 17.1511 63 63 44
5.36388 -18.6342 -9.29629 67 80 68
-7.44659 3.43168 -8.82337 70 85 73
-7.18107 -7.63913 -45.5107 60 69 60
9.30994 -0.877472 10.8687 150 166 141
5.51893 -2.02143 -10.7276 152 174 154
-8.50988 -8.68669 -44.632 58 70 59
-1.52675 14.048 36.9781 61 61 47
5.938 -12.8974 -11.6269 155 153 118
1.75485 16.1028 -2.18897 77 59 19
-6.80783 -8.87719 -46.0229 97 115 99
3.31731 11.4015 28.8238 66 71 58
-7.48166 8.25215 -1.32714 67 75 60
-1.46404 14.7596 30.2001 77 86 73
-6.44077 -21.7329 -0.0651321 159 187 165
7.1449 10.3054 -5.81491 110 98 67
5.00188 15.4211 7.18202 64 48 19
9.55842 -0.593979 -4.44475 67 81 70
2.93228 -5.82684 -12.0535 168 195 168
2.26912 -3.91781 -12.9648 119 134 118
2.34585 12.2324 18.3709 65 56 35
6.09418 9.92931 16.4977 69 78 69
-2.29794 15.8362 3.94097 55 36 6
-6.42975 5.59264 -9.98494 135 115 74
-2.3888 12.7358 34.9396 57 50 27
-4.71534 13.2139 3.65436 65 57 35
7.35629 -21.0991 -10.7415 97 103 72
5.4502 -16.4966 -11.8981 146 159 135
-3.88937 13.528 6.41913 57 33 3
3.58363 1.92258 -14.91 127 130 98
-4.28849 -8.17354 26.6242 73 86 76
-2.50955 2.7712 -18.233 127 92 38
-4.73889 10.2189 -7.49854 142 124 91
7.98621 -3.58336 15.1367 68 80 69
-2.10076 -9.48919 -30.5101 60 70 59
-7.8383 6.85962 0.798706 68 78 64
-2.67444 2.3533 21.2826 73 82 71
1.09047 -0.958603 -19.4078 128 98 45
7.48563 0.460991 14.4367 68 75 64
-2.44912 14.2119 -4.88085 86 61 13
9.66946 2.26628 -4.14353 83 98 85
-6.19826 10.6188 2.31396 70 77 61
-1.68819 -2.50202 -24.2024 111 92 52
3.48038 3.98933 -14.2971 142 134 99
4.31194 15.5862 8.12513 69 68 48
7.23304 -3.31056 14.9802 69 84 73
-2.74349 -0.315573 -21.8529 120 101 60
-2.28372 12.1477 29.1946 54 49 33
9.64051 -3.03038 -6.12849 76 91 78
4.00708 8.27312 -12.0322 145 121 80
1.23495 15.2748 -4.5705 91 52 9
-2.19713 12.3586 30.1484 63 65 47
6.78148 -13.1033 -10.8917 131 142 115
-5.63775 11.1169 -5.45575 94 79 50
2.99731 16.7834 6.80804 86 84 58
-1.15059 16.0937 32.6278 51 38 13
-4.27673 -5.98898 -26.8514 61 68 56
8.32018 -22.5317 -9.53642 62 66 55
-2.64811 10.4744 29.5991 52 54 42
8.63332 5.93187 -0.285615 78 93 81
-2.26518 12.8168 -8.30965 96 71 21
-9.15158 -27.0544 2.58558 114 137 118
-0.972492 -7.06081 -27.6526 118 127 93
3.23771 13.6824 23.2915 98 91 63
7.5584 7.90872 11.9347 86 95 79
-8.14445 3.50304 -4.89706 85 100 85
-4.78198 6.65523 -11.3058 128 119 94
4.97294 8.60094 20.0545 67 80 71
4.94186 10.5171 16.748 74 73 53
-2.45366 4.40232 -16.5322 146 119 91
4.76281 -2.31473 -11.1834 152 175 155
-1.10267 -5.05461 -25.9357 112 101 63
0.225871 14.5707 13.77 64 60 39
5.92635 -19.6995 -11.3295 167 166 126
-3.99831 -1.05659 23.0242 64 69 54
-5.52711 3.85143 -12.2924 143 136 101
3.91116 15.9854 7.98907 70 60 42
4.68099 -21.9696 -11.5755 183 189 153
8.49959 7.97257 7.08039 61 71 62
6.91121 -1.39851 14.9308 68 81 70
1.76729 0.00627136 -17.8916 110 93 56
-6.71377 -9.22822 -45.6641 110 130 115
-2.59903 12.0806 33.1862 56 61 48
-4.33632 -6.10078 -25.7051 89 94 76
5.46222 -2.64873 -10.6936 160 181 158
-3.26093 7.86886 16.3341 50 33 2
-7.27088 -14.7921 -0.529091 140 168 148
-9.1995 -6.62177 -49.263 57 69 60
-0.818665 -0.728806 21.0682 68 79 66
0.147118 15.0051 37.1993 71 79 66
-3.95 -1.56181 25.4591 63 69 61
4.29392 16.0266 5.85061 70 72 62
9.48893 3.1893 -4.7669 81 96 82
8.25605 5.58751 -7.62589 115 135 118
-5.08922 -4.59144 -19.3657 80 91 76
-7.19557 -11.3221 2.78112 72 85 74
9.51396 -1.65885 13.8765 69 77 66
6.95278 12.9137 -0.0717354 93 98 79
-5.06289 -1.41426 -16.3887 107 113 86
-1.16835 10.2382 -11.563 144 140 94
-7.35793 -1.50284 -7.93726 114 132 113
7.46462 1.36024 14.0264 70 82 71
1.44215 0.375874 -17.9069 138 111 79
4.51851 8.45293 -11.7943 151 133 79
-2.85246 15.1074 2.67176 53 37 3
-2.36403 -4.56977 25.6805 137 161 140
-3.72421 -3.17373 -24.4715 75 74 54
7.77905 4.83907 9.1266 98 111 95
-6.90446 0.326414 -9.71669 96 116 100
-6.05406 -21.4777 -0.119713 148 179 155
-4.20791 -7.84956 -34.6041 85 84 63
-1.48641 6.78449 -14.618 118 97 53
-4.41675 -2.03748 -18.5341 82 86 69
-3.78368 0.509495 22.0561 53 46 28
-3.07852 8.12427 14.6943 71 54 26
2.48381 0.722305 -16.8005 148 116 76
6.5653 -12.0068 -11.0396 142 156 130
-4.12363 -8.66541 -36.5979 92 98 75
6.59998 -4.97092 -10.4999 157 151 108
-5.14033 4.5051 -12.2333 147 135 109
-0.601692 15.371 25.8559 64 36 8
5.07338 -10.1298 -11.7404 167 175 139
0.772051 -3.51596 -22.1565 115 123 96
8.06806 -0.163534 10.0413 155 180 157
8.47853 0.341965 -8.11211 102 122 104
0.788536 16.3242 26.3363 92 58 7
0.549179 15.8965 35.8661 65 59 34
8.77771 -2.45189 14.7394 67 77 66
-2.55499 -4.1226 27.7184 75 88 77
-2.55251 -3.80209 -26.5209 126 111 65
3.11777 -14.1623 -10.2058 76 89 74
3.11961 14.1504 27.4382 72 80 66
-3.5365 -2.10978 -23.3568 65 64 50
7.16223 -1.92155 15.0319 69 82 69
-2.15485 14.3837 -5.25574 78 55 4
-5.32315 -20.1529 -0.0508347 106 121 104
3.30933 14.311 24.8814 73 79 66
0.0093956 16.9864 28.0341 88 49 3
7.96355 -6.41437 -10.0043 140 138 101
-7.26576 2.11865 -10.2535 111 125 104
6.60628 -7.72881 -11.1848 168 159 112
-1.009 16.8949 7.01518 56 44 27
-7.77647 4.85832 -6.08914 80 91 79
-7.20802 7.10062 -7.19673 79 88 76
6.61374 -0.244061 -10.416 137 157 133
8.22279 4.21585 -7.14465 101 117 104
5.63805 8.4557 17.0217 65 77 66
9.07854 -3.30904 11.9236 130 156 126
5.25044 13.9104 12.1103 68 57 34
3.6221 16.3285 5.55384 63 40 21
3.89515 15.4322 -3.07847 81 65 34
-5.31762 -2.51764 -16.0813 87 104 85
8.25868 0.784309 9.85247 157 173 145
-0.224283 17.5397 9.21814 52 38 8
-2.27118 -10.0517 -30.4158 57 67 56
-4.73576 -6.87905 -31.7506 70 73 54
-9.529 -25.207 3.55031 77 94 81
-7.0578 8.82942 -4.61814 64 76 66
-2.50699 14.0292 8.17332 51 39 9
-4.23551 6.48943 -12.1814 116 109 75
5.59503 -10.3507 -11.6092 168 181 146
0.510523 17.2898 28.7417 69 41 12
1.58422 -22.2666 -9.10781 75 88 75
3.9237 -10.7648 -12.0748 165 194 160
-4.21056 -3.77627 27.4133 68 69 56
6.78915 7.82137 14.6701 70 81 71
-1.94129 10.6369 -10.892 122 85 27
-7.47174 -8.5231 -42.018 58 67 57
-6.23369 -5.44492 -4.88119 109 129 115
2.53791 16.6376 10.7777 67 56 39
-7.41671 -10.9828 -44.5503 103 116 98
-1.31445 6.18011 21.2846 65 81 71
-5.8049 -26.9644 8.46346 63 71 62
-10.2014 -27.5768 7.62173 68 84 72
-4.52219 -5.19465 27.4687 71 81 73
-0.589401 11.5656 15.1574 52 53 31
-3.74333 3.36074 -14.7243 90 97 78
6.60565 11.8748 -3.68094 62 67 56
6.92895 -10.3263 11.7972 122 135 115
3.96932 10.6584 19.1558 67 67 44
-5.92243 6.50701 -9.93409 118 114 90
-1.75977 16.3004 4.35817 58 38 5
-5.07669 7.96561 9.59592 64 76 64
1.61453 -23.4841 -9.4385 86 103 82
-4.78266 -7.27194 -33.6834 95 94 72
-0.411997 17.8842 0.386017 99 56 9
-1.0005 -8.20109 -28.4169 84 94 76
-3.47517 1.91856 -17.0074 83 89 72
3.38886 13.6572 23.7569 83 75 54
9.49874 -3.67509 13.6538 67 77 66
5.14429 15.3952 1.77267 80 70 48
9.02744 4.02948 -1.85131 61 70 62
-7.48551 -5.08583 -2.6031 66 85 74
8.20828 2.58384 -10.2099 86 97 84
-2.51985 6.82085 -14.1979 128 102 50
8.52188 4.85205 11.9582 87 87 69
4.51208 15.643 6.03227 74 70 54
5.88321 -20.4747 -9.00032 62 72 63
1.8985 14.3235 -5.70786 111 64 13
-7.33776 0.511761 2.86641 69 80 69
1.73213 16.9801 0.0973043 97 56 3
-1.6883 -6.57801 -28.1037 110 98 69
3.92844 9.39348 -11.3037 149 119 71
-7.76536 -9.90399 -1.21377 153 182 160
8.5782 -9.85317 11.8566 154 144 110
-3.91936 -26.8302 3.51151 147 165 146
-4.79731 -3.83059 -19.8858 82 93 78
-2.47218 -0.421814 25.3998 66 70 58
-10.388 -26.3898 6.3801 60 73 63
-5.84974 10.94 7.01624 58 67 53
0.0111418 17.3123 -0.675354 90 49 4
6.02348 -23.8959 -12.044 172 179 147
-1.23418 14.051 28.8095 70 82 71
6.10711 14.9257 6.79418 78 77 54
-5.41368 -0.216536 -14.8196 83 92 73
0.955933 12.7301 -8.38127 112 62 12
1.03715 16.1391 -2.73642 88 53 10
-7.32616 8.71972 -5.97787 80 89 73
-2.13699 -4.38223 27.5754 72 84 74
8.89334 7.97538 4.56906 82 97 84
1.85075 17.0679 27.6789 95 60 25
-5.51985 -9.3465 -30.6727 74 78 66
-4.14955 11.6848 -6.3384 104 75 37
9.05258 7.09887 5.417 69 81 70
-5.3876 -5.9042 4.33722 78 93 83
-6.56565 -21.0542 3.46996 72 89 79
6.45098 12.112 10.6337 67 78 65
-7.8547 0.69499 -8.85723 106 124 105
4.33366 -1.6158 -12.2529 99 112 99
-7.32886 -8.73408 -41.3393 61 71 67
-7.76745 -5.74297 1.60764 63 76 64
-6.74912 -11.6477 -1.332 178 210 187
-5.04188 12.2525 5.67373 67 56 25
4.8448 15.6726 2.86087 98 64 9
7.23713 -23.2269 -11.494 167 161 121
9.47953 -1.5101 -6.12696 98 113 99
2.79617 12.165 19.3961 86 64 19
-7.93901 -6.15501 1.07412 63 78 66
-5.14535 -2.02657 4.21799 65 77 66
5.94606 13.8376 -0.73745 94 95 74
7.84395 5.20971 9.55647 83 92 77
0.240574 -2.50517 -21.9125 116 98 54
9.64054 2.27073 -3.06436 72 84 74
7.86361 4.89677 9.40066 104 117 98
-9.24716 -26.6795 2.62053 109 136 119
3.03157 11.9472 30.9837 63 66 52
6.66745 -0.885891 14.8096 65 78 67
-1.41137 12.849 12.3551 57 52 31
-5.83891 -22.9118 0.828094 112 130 114
-3.8222 2.82039 -14.9334 110 107 84
-4.90051 -5.33791 -22.9174 88 88 65
7.11225 14.0391 5.21099 104 102 75
5.12794 -11.068 -11.778 166 180 149
-6.23487 -4.00832 4.1021 67 78 68
-8.25075 -9.17362 -48.5672 102 122 106
6.13022 13.127 -3.42538 64 76 68
3.98625 -21.2979 -11.3432 164 176 152
0.833992 13.985 23.4104 109 61 5
1.04411 17.1905 -0.332283 74 54 25
1.29547 12.4859 20.0481 68 41 1
10.0387 -0.84671 12.2761 69 77 67
3.94995 8.05733 -12.1928 173 165 123
4.9906 7.52617 -12.0696 155 146 97
3.13186 0.722025 -15.8432 108 95 61
8.14644 4.18393 -9.45548 78 83 64
6.43685 7.77339 -10.3629 125 135 112
-1.05354 15.9548 34.9067 43 28 8
-3.54789 13.6756 -2.96584 79 48 2
6.68035 10.4442 11.006 109 124 106
-1.23603 -5.41844 26.6776 71 80 70
-7.5708 -19.428 2.70735 78 92 81
-3.8051 12.3536 9.13464 60 57 41
9.4196 -1.42986 -4.21937 63 75 66
-0.164824 17.2115 10.0371 60 56 41
-7.92327 -26.2263 7.65736 63 75 64
-6.43402 -23.7203 5.0077 60 71 61
6.14418 -8.87016 -11.3173 169 173 132
1.53149 -6.61217 -12.9651 146 170 147
0.989456 17.3542 28.4274 81 47 3
8.14497 6.56521 12.7864 69 77 64
8.37904 3.39665 -9.73807 66 73 62
-2.90386 -27.8919 4.76564 122 141 123
6.98721 -22.9481 -11.5525 169 177 142
1.24847 2.81076 -16.0245 111 82 40
6.18787 13.1647 10.081 67 63 48
8.35569 3.18015 9.61691 146 158 135
-4.99833 10.7062 9.23589 64 73 60
7.99821 6.33366 11.9824 94 97 76
0.155506 -3.286 -22.6491 115 99 54
4.0327 0.0314407 -15.047 88 97 82
5.83785 -9.10902 -11.429 180 187 148
3.27429 12.4813 21.6425 101 73 26
2.76302 15.659 -2.60786 70 53 31
-2.03191 13.3839 27.8417 63 73 61
6.34906 12.3668 10.8281 65 74 61
0.826656 -2.64895 -21.2342 109 103 69
-1.98687 0.661888 23.3977 60 65 50
2.80057 16.6387 29.5156 75 69 37
-2.74738 3.67732 -16.9192 133 114 64
-7.57853 0.755165 2.69642 68 79 68
2.34685 -22.1921 -10.585 123 131 111
9.40357 -6.63118 13.9007 67 76 63
-2.19482 13.914 -6.28848 78 53 14
1.33679 -7.09719 -13.0103 151 177 154
-5.74869 12.6388 -1.97366 108 93 60
-7.54335 0.770313 -9.25592 112 131 112
9.11063 1.64493 12.8694 70 79 67
9.14122 8.97039 3.09173 69 81 72
-4.55693 -7.1032 -28.3346 63 71 59
-8.24133 0.624525 -4.02425 70 84 70
-9.61031 -8.41042 -51.0353 105 125 104
8.32284 11.1818 1.82773 130 143 122
-7.6558 -11.8865 2.11045 69 82 71
-4.006 -7.02174 -32.1133 90 87 60
3.32 -17.0439 -11.0459 102 118 98
4.71792 2.22836 -13.3658 115 131 115
-3.7806 7.09888 -12.5048 114 101 63
-6.61366 10.3305 -4.41824 64 64 48
1.5988 15.0166 -4.74308 100 58 0
4.55275 9.89247 20.8649 66 76 66
-5.48778 11.6674 -3.90228 74 68 43
-3.66287 7.63157 11.3725 69 81 69
4.1301 12.4784 -6.79549 123 121 93
4.59035 15.9299 5.09237 72 69 49
-6.86272 -0.253899 3.22289 68 80 69
6.98784 10.0966 14.4933 67 77 69
3.82897 6.80793 -13.1122 149 117 64
-2.77403 -5.9113 27.8881 82 98 86
6.61807 6.49269 -11.3636 114 117 95
-1.6016 -6.43697 -27.8947 126 118 72
-5.17446 -8.36758 -26.3016 68 80 68
1.21034 13.5078 37.0337 60 60 44
-1.52729 14.2239 -6.67164 92 57 14
-4.3131 -9.48577 -38.0924 85 98 84
0.0752821 2.98277 -17.2701 104 70 29
-2.76325 6.57959 -14.1713 114 98 73
-5.78315 -23.8337 4.56262 58 66 57
-1.53459 14.9855 27.8708 76 51 22
4.52841 14.95 9.24479 68 67 52
-3.02754 11.4987 10.6949 61 64 48
-7.62376 -20.2489 2.96127 75 90 79
5.92223 14.117 -3.54932 63 72 57
3.10703 8.26355 -12.1832 121 88 32
1.29242 7.79895 -13.1831 118 97 34
-6.89493 8.36407 -7.10085 94 108 84
-0.711054 5.5664 21.7345 69 77 70
-2.90869 10.6463 11.3238 64 74 60
6.27191 -10.208 12.41 82 79 52
1.47758 -4.25976 -20.4066 77 92 78
3.45905 11.7211 -8.40351 90 61 12
-1.16196 -7.26262 -28.0907 96 103 79
-0.935589 -0.687279 21.6473 71 82 70
7.83647 -10.1811 -10.177 114 134 114
-5.1176 -1.21307 4.09697 67 79 68
6.4463 -23.9021 -11.9337 167 174 145
8.20786 8.61436 -0.0299377 117 135 116
-8.74784 1.74104 -2.99773 63 76 64
3.08126 13.5455 26.319 66 77 67
9.00377 -7.37523 -9.27576 101 115 99
1.81009 16.8195 11.5433 61 49 18
9.22623 2.02308 12.6483 66 75 64
3.11579 -13.9044 -10.2039 84 97 81
8.36799 7.24223 7.10201 57 68 59
-5.26529 -5.60029 25.716 126 110 79
5.89127 -8.18265 -11.3359 171 175 132
6.15506 -8.03878 14.7468 70 80 69
8.68748 4.04627 10.7315 80 77 56
-6.89259 9.23218 -2.38378 79 89 72
3.17914 -5.08973 -11.9488 151 172 148
-3.00427 -8.95581 -34.4156 84 93 74
8.42116 1.54112 9.83922 157 169 143
-3.40623 10.3454 -9.7008 113 94 53
0.0893326 -6.18515 -25.3671 109 114 94
3.27088 -22.8168 -11.4462 156 167 140
-5.65953 8.66071 -8.3205 126 94 23
6.00486 12.9956 11.5341 65 70 55
-0.976613 17.4099 5.71441 56 33 6
-7.34381 5.77153 1.69657 69 83 71
5.77659 -23.5926 -12.0248 182 189 159
-4.06241 8.27761 10.86 68 81 70
2.92596 13.6176 28.7664 61 69 60
4.39346 -0.439964 -14.3083 86 99 86
-2.57908 10.3376 12.1092 61 67 51
-1.05268 17.4566 3.53424 56 36 5
8.0192 4.51671 -9.36913 86 88 67
-6.21741 6.70882 -9.32851 119 108 86
3.6501 10.3298 23.9157 62 73 61
7.45385 4.93 -11.0139 92 99 77
2.90916 12.1979 33.191 69 75 66
-5.9757 5.66299 -10.5456 112 116 87
8.8745 -3.63845 -8.01861 130 135 108
0.56978 12.1789 19.8952 58 25 4
-2.39804 11.8641 11.25 58 60 44
-3.12581 4.2132 -15.8905 116 111 91
-1.52007 -4.64818 26.9158 72 82 72
-2.5641 12.0244 10.8626 59 56 36
-7.12083 6.51758 -7.82266 78 90 78
-8.79292 -9.05967 -45.0857 54 67 58
1.38238 18.2221 6.3334 76 55 17
-1.19091 13.0876 -8.59046 101 74 32
7.82535 5.68258 10.3659 79 87 72
9.8543 1.36148 12.1103 64 71 61
-0.557625 16.7071 27.732 82 50 6
6.89176 5.7404 -11.5793 126 124 101
-2.09624 15.7466 5.09267 58 46 22
8.68089 6.91956 -5.61218 55 67 57
-6.44293 6.82901 7.26783 67 81 70
7.22718 9.59983 13.1796 61 72 62
-1.36347 -4.97893 26.5796 73 83 72
-1.1599 -8.0397 -28.6785 120 127 97
-2.6539 -8.98759 -33.1079 100 115 94
-1.3372 16.301 -1.97561 65 40 8
5.65623 -4.97754 -10.8951 165 171 134
6.95881 9.02868 14.2092 69 82 72
-9.9411 -6.16224 -51.962 102 114 101
-7.9851 7.29549 -0.543282 74 87 71
2.05728 -22.0737 -10.1946 111 128 108
2.35904 16.744 31.421 64 56 33
2.46217 9.56845 -11.2314 108 78 29
5.49253 -9.00232 14.1101 76 82 67
8.22821 4.50923 -7.18552 110 130 114
-4.75623 10.9658 9.29578 65 74 61
6.5244 14.771 6.56049 75 75 62
6.22949 12.5756 -2.98993 62 73 64
-0.241858 12.886 14.6572 64 59 43
2.52049 16.6348 0.557335 84 60 12
-5.03476 -5.26963 26.7103 71 83 71
3.2079 -19.614 -11.0063 125 143 121
3.16652 -6.09466 -11.9438 174 201 171
-1.50046 13.4829 32.6795 72 78 61
-3.57308 3.22977 -15.3581 98 101 84
-0.553659 16.9071 8.49995 57 52 28
-0.709909 10.7385 15.6964 55 51 35
-2.31187 0.0152397 24.7319 61 63 47
-2.65173 4.99126 -15.7939 133 102 63
1.28001 -5.37791 -13.7243 122 143 127
2.49779 13.6603 22.7548 119 75 29
2.2787 9.02459 -11.9553 144 130 87
0.41766 18.086 1.11294 95 65 27
6.87387 9.5885 10.7586 87 100 86
5.02816 11.3161 -8.30655 89 83 67
-4.8688 8.5451 9.83987 63 76 65
7.55268 10.2778 -2.77038 57 66 56
-4.95513 12.4182 5.91887 51 36 4
5.91224 -17.6484 -11.1247 115 134 113
6.08958 11.545 -6.12598 104 112 99
-0.96081 3.07951 -18.0612 112 68 6
0.000738144 15.2935 12.5352 59 64 47
-4.79354 -3.00059 -18.3095 85 88 73
-7.81718 -10.0364 -46.9399 100 116 100
3.24196 14.3794 27.9429 68 75 63
-6.15324 10.2805 -6.40012 117 115 72
-3.90172 5.17594 -13.574 101 111 90
-7.2629 -23.793 4.93748 62 78 70
-1.84973 10.2829 33.6345 70 83 71
-5.29265 -23.7963 2.2217 104 118 101
-1.74467 9.62635 -12.0176 126 83 31
-5.85954 -8.97778 -43.116 83 96 81
-0.880642 -6.05942 -26.5919 119 110 65
-0.239264 1.86439 -18.6309 108 91 51
-3.47408 -5.82344 27.9191 82 103 90
3.82712 -3.45803 -11.644 148 171 149
1.61331 17.9477 8.20048 65 59 42
5.74271 -19.5375 -9.3572 65 77 65
-6.60477 10.0115 2.67049 59 61 41
-6.55028 0.329273 -11.1482 70 85 75
8.40787 3.31851 -9.13933 63 76 65
-2.66775 -8.45068 -32.5348 92 89 67
-8.27332 -7.11842 -48.1324 66 74 64
-3.96933 13.8981 4.54102 53 28 0
-7.96846 -7.28293 -47.1762 70 79 66
-4.10359 -4.91256 -24.905 64 69 59
1.55312 -5.95767 -13.0505 127 147 129
9.2971 -8.77066 12.458 125 127 92
-7.60267 -14.8511 -0.15303 108 128 116
-1.48746 -0.709412 24.6248 63 74 63
7.95141 -5.51991 -9.81995 141 119 71
-3.16615 8.2156 12.5613 60 68 52
4.8547 9.36616 19.304 113 120 98
-3.78221 -1.94138 -20.1823 82 84 64
-8.29085 1.93271 -4.33409 91 105 87
-5.04804 -5.76542 -22.9813 91 102 84
-5.77813 -1.38384 -13.561 75 90 75
-1.79212 -10.1592 -26.9871 67 77 69
-2.25572 5.24176 -15.8331 123 101 63
2.20626 -22.9708 -10.6469 119 132 111
9.25425 6.43807 -2.53463 72 81 72
-4.2312 -2.12137 25.1026 61 67 50
-5.46406 6.73845 -10.3428 127 115 81
3.13635 -16.1973 -9.86611 69 81 69
-6.61935 8.85589 6.90784 62 78 66
3.59738 16.5157 4.58386 83 72 52
8.92244 1.83974 -6.71155 110 124 104
-0.895533 17.7163 2.49078 57 34 9
-5.7751 -9.04981 -34.4778 63 70 58
8.28527 9.8726 0.83824 88 103 89
-7.03366 -18.7037 2.98875 74 87 76
-8.1643 4.82536 1.04653 66 80 69
-4.15303 13.7941 -2.0255 74 43 7
-9.28403 -8.63821 -50.5055 113 133 119
-4.84539 -4.22904 26.8945 73 75 62
-6.73032 -17.5818 -0.413887 152 177 158
6.7933 10.8847 11.4271 86 103 85
-2.69476 -10.9191 -30.7245 61 75 64
-1.57405 -4.1221 26.7572 71 82 71
3.27613 14.7344 13.1928 67 63 41
3.68579 14.0198 -5.59727 106 62 10
-0.250671 17.1565 -1.11613 70 45 5
8.72233 2.65052 10.1339 143 161 139
-3.34675 11.7965 9.82372 63 70 53
-1.12353 -6.68188 26.1467 123 146 125
0.376235 12.2613 17.6259 43 27 4
-3.61216 -3.40008 4.59804 61 72 64
7.45504 3.27895 8.59966 137 158 138
-1.68081 -6.02498 -27.6258 126 115 72
3.55671 11.2134 19.4277 62 62 40
6.91275 -10.5678 -11.0175 148 156 133
8.45283 2.35026 -7.88594 70 82 69
-2.7483 9.12871 14.0124 61 56 40
-0.436736 17.2224 8.6269 52 40 20
2.31615 -2.27605 -18.7605 87 101 86
6.65424 -1.07517 -10.071 110 128 111
2.71589 16.3138 11.3036 64 48 20
8.92192 6.90532 1.86068 66 77 66
2.42044 16.418 11.5783 62 52 24
-4.47713 -8.47065 -36.8691 87 90 70
-3.51551 14.4076 2.50961 61 49 20
-10.5452 -27.0875 5.39131 104 126 109
6.46947 1.21918 8.64737 135 155 136
9.46351 -0.743021 -6.18338 96 107 91
5.01663 9.2835 19.5883 92 101 88
1.58092 16.3647 -1.34339 77 54 21
9.43018 -4.10592 13.7837 67 78 68
-0.450964 11.4318 15.5918 56 58 34
-7.6479 7.328 -1.9883 85 93 75
3.13769 -14.5922 -10.4726 83 97 84
-1.58504 14.7562 27.4323 77 58 33
-7.86952 -8.53121 -48.3169 94 111 96
-4.85533 8.78444 9.77377 62 75 64
-2.65151 -28.0685 6.5703 59 64 51
9.81482 -2.58682 12.7773 72 84 72
-1.14758 13.1451 12.6266 63 61 43
9.06657 -3.71962 12.106 131 151 128
7.09849 2.57801 8.52395 111 128 112
6.65523 -0.613178 14.817 70 83 72
7.52599 0.546629 -9.92482 104 122 105
-7.94252 -6.42638 1.50918 61 76 70
-3.63563 10.551 -9.063 99 80 47
8.62639 -6.57617 -9.48973 139 136 99
7.45936 7.54914 10.1211 71 83 71
-1.09866 5.48109 21.4152 69 87 73
7.62987 3.60521 -11.2636 123 145 122
6.65587 7.68779 -10.0057 112 129 113
-2.3654 13.0422 9.934 64 74 61
-3.14532 -8.64315 -34.2805 80 84 59
-3.48745 13.5035 -3.39249 82 50 2
-8.10838 6.24829 0.489128 65 77 66
-3.86881 7.45816 -12.0476 129 115 89
-7.12737 5.14175 -9.54918 102 111 92
-6.54653 9.32591 6.05677 86 88 68
8.05482 -24.5444 -11.2328 134 157 135
4.65506 -11.2845 -11.9402 168 181 146
4.00725 16.1904 2.26991 68 54 26
-6.20164 -0.522522 3.54382 68 80 69
-5.30382 -7.79974 -35.725 66 66 52
-7.58896 -19.6996 2.79536 77 91 80
0.865538 -8.08274 -13.0485 150 179 155
-6.34176 -8.17543 -40.0332 67 70 59
7.31462 -4.37234 -9.84717 147 134 86
-3.89491 12.6067 -4.87342 93 61 5
3.55203 15.9938 0.937334 78 43 7
8.17505 5.25698 11.2528 96 99 79
-2.73956 10.4865 11.6999 60 67 57
-4.58549 -9.51178 -38.9196 92 110 94
-1.00936 15.9613 8.76977 47 33 9
6.75106 -7.94326 -11.1616 168 167 113
-4.03214 -1.86207 -19.1838 108 95 66
8.06895 5.36549 10.9444 85 89 71
3.39994 -5.85994 -11.8751 170 193 164
-5.89904 -24.3432 5.57925 60 70 59
6.22564 12.6899 -3.41003 79 92 82
4.4291 14.0293 13.0966 62 49 9
-4.03333 -8.58163 -3.37306 129 153 136
8.23818 3.72488 -7.10023 91 108 95
-7.3039 -19.0585 2.86161 74 88 77
4.4566 9.02227 20.9067 62 74 63
-3.15304 -8.88177 -34.7545 94 103 83
-6.91387 7.44232 2.88493 75 90 76
-0.948767 8.33149 -13.1921 144 118 65
9.49134 2.48285 11.4082 72 72 56
-2.09754 14.6308 7.86211 58 43 16
-4.42759 -6.31366 -28.9221 64 70 57
-4.24949 8.9693 10.5402 71 83 72
4.61528 14.6957 10.6154 68 69 55
-3.78706 -0.365177 24.1179 57 56 39
2.92978 -1.52798 -16.9662 92 110 96
-9.46021 -27.0573 2.99656 98 117 102
-5.08534 7.71748 9.63626 62 74 62
-4.0961 -5.16032 -26.5838 80 89 75
-5.37259 6.15145 -10.9113 122 115 87
3.954 -13.5601 -12.0026 122 136 110
-4.66396 6.77868 10.0754 67 79 68
5.06943 12.8531 -5.54334 129 130 112
3.11223 14.3895 26.303 63 72 63
1.66875 12.6042 18.0116 62 43 13
-7.39198 -7.53785 -45.0795 61 70 57
-1.02857 17.5459 1.32104 66 44 14
8.0303 9.33499 -0.159866 114 128 110
-6.0538 -8.23288 -40.659 70 79 65
4.10681 10.08 21.9681 87 100 87
-1.66306 15.2191 -4.55052 109 71 24
-5.32055 13.1428 -0.361244 53 43 24
-1.38034 -2.35623 25.6959 67 78 68
-2.22781 -0.463833 25.3526 66 74 59
7.37173 12.5047 8.83717 67 70 53
7.68182 8.46298 13.2008 68 75 64
-3.9525 -7.1881 27.1191 72 85 75
3.73388 6.11137 -13.5116 161 132 86
-4.63449 -5.49387 4.38057 53 67 59
8.66677 6.54335 0.535391 98 115 102
-6.6274 -8.01025 -43.8531 65 73 62
-6.60675 2.39536 -11.136 129 137 109
-4.06131 -5.97276 27.5052 79 91 81
-0.861088 16.1844 9.29908 53 41 18
6.98201 10.6569 12.6118 65 76 63
-4.08174 10.0405 -8.68623 110 96 53
7.08224 -6.58086 -10.7455 143 131 82
-1.13416 -0.226135 22.3109 68 78 68
-1.2109 11.8359 38.789 71 80 68
-7.99775 -1.43073 1.92463 62 75 65
-4.18727 8.82339 -9.94831 103 89 59
-0.054409 -7.36515 -19.0221 71 84 73
5.6704 3.47296 -12.7993 127 139 121
2.55707 12.1827 18.9131 76 52 21
5.28288 15.5257 3.03912 95 71 29
-1.09694 11.5854 14.2201 59 52 31
-0.881626 13.8163 25.6954 84 71 36
8.18121 3.68127 -7.39778 81 96 84
0.306007 14.2682 37.4182 73 81 68
-3.42998 -9.61935 -35.4756 92 111 92
8.04499 4.122 9.46342 132 143 121
8.5896 6.55312 6.5468 59 70 61
4.98121 -22.4085 -7.06031 58 70 59
2.98297 10.1119 -10.5852 114 76 27
-8.64894 -7.62057 -46.2043 58 69 60
3.19024 15.9295 -0.322958 105 93 62
9.38202 -4.46648 13.7165 67 77 66
-7.05797 -27.7132 9.08184 66 79 68
-7.26775 4.57424 -9.5564 87 97 84
-4.31471 10.7716 9.6186 68 76 62
-4.19842 12.3835 8.6552 53 53 37
-6.97574 -1.38661 -8.31622 118 137 120
-9.37913 -25.9018 2.71855 131 159 140
8.10636 4.3882 -7.59144 78 93 82
-4.53482 10.9964 9.45578 66 75 62
7.48127 -3.31108 15.0294 71 86 75
-4.31065 -2.32727 25.5413 65 58 37
9.0524 7.344 4.03917 66 78 68
-2.39088 10.8783 -10.4213 122 97 39
5.25702 15.2362 7.57056 70 56 33
-1.74986 -2.79155 -24.5931 112 97 58
6.3684 7.60043 -10.5896 116 124 102
4.73135 -8.56124 -11.6623 166 179 148
-4.45195 9.16749 10.2931 71 82 71
-2.66272 -1.03461 26.198 69 79 65
-3.8065 10.5243 -8.578 79 66 33
4.1167 2.12698 -14.1436 133 140 112
-1.39395 1.3882 20.9922 71 82 72
5.7606 -24.1994 -6.88511 62 74 63
-3.64498 8.1193 11.2814 69 82 71
1.1332 17.3146 28.2233 83 50 14
8.08296 0.377686 -9.04768 120 140 122
1.00034 15.348 24.8956 95 60 7
1.20639 13.7826 15.6022 61 57 37
-3.20923 12.0824 -7.13673 101 85 55
-5.35793 -6.52916 26.1407 69 80 69
7.02199 3.76189 -11.9799 132 154 131
-7.54992 -18.5028 2.6561 75 90 79
-8.31583 -0.764004 -3.15761 72 85 71
-4.38783 -5.51989 4.36497 57 69 61
8.55652 -3.57476 -8.398 130 130 101
7.76214 -10.3837 11.6274 155 166 145
2.43699 1.34825 -16.3781 123 97 57
3.68898 -13.6979 -11.5976 97 110 94
3.16482 -5.59482 -11.976 166 190 163
2.69962 -20.2462 -10.7742 142 156 121
8.34147 9.11338 0.212573 127 143 122
2.10529 -2.9368 -19.1561 93 108 94
3.57898 15.8565 9.76401 66 53 32
-0.672174 13.3193 13.384 62 61 41
0.839237 14.1473 -6.46156 85 49 5
-3.47163 0.501122 -18.1573 68 73 62
5.15237 -3.84034 -10.9577 160 178 144
-1.77835 12.467 37.6483 68 69 54
-7.71633 -13.4218 -0.857018 154 186 164
9.80058 -2.24652 13.198 67 74 62
-5.11091 -2.83648 -16.8889 71 84 73
-0.406906 14.9876 12.1947 64 58 35
-5.07574 1.25688 -14.4697 123 124 93
-2.78246 -7.62772 25.4493 131 141 119
7.63745 2.63673 -10.999 130 150 130
-2.11738 4.12445 20.8433 78 92 82
-8.23265 0.115322 -8.14893 97 110 95
8.3649 2.70246 -9.42433 64 79 68
-6.62745 -8.13836 -44.6582 71 81 71
0.171387 -5.43186 -24.5165 86 86 64
-4.07758 11.0357 9.69657 65 77 62
-8.52222 -10.821 -0.697296 113 140 118
-5.33038 -23.1002 2.4007 67 81 70
-4.70934 10.0592 9.52945 65 77 67
-1.57973 12.7705 12.0128 59 49 25
-7.16251 -20.2031 -0.330772 155 187 165
8.13881 12.3992 2.49547 81 99 88
-1.74749 11.5435 -10.1613 123 76 15
3.91898 -9.52762 -12.0195 161 181 149
-4.0418 8.76256 10.7585 71 83 72
0.351217 13.3214 37.831 65 74 64
9.16093 4.7796 -4.78276 77 90 78
-7.26021 -23.5879 0.936157 147 175 152
5.75029 11.3187 16.0699 75 81 64
4.78017 -21.3512 -11.4605 176 184 151
3.20053 -8.75593 -12.1743 177 199 169
-4.04317 7.5979 -11.6701 124 113 78
1.80187 14.4657 23.5645 111 87 48
-7.83059 -24.3295 5.21204 63 74 64
-2.72028 14.2318 -3.95721 61 42 10
0.500639 15.8501 25.714 98 61 10
3.04781 11.7433 -8.57171 99 67 13
-3.13841 11.8392 10.0315 57 63 50
-4.33591 -26.711 3.01229 144 166 143
-8.39886 -25.0604 6.0127 62 76 67
-7.55664 6.90216 -2.65393 76 82 67
-5.73184 -8.41517 -40.3305 73 78 64
5.14687 14.3128 -4.72017 140 114 66
5.99268 -19.0615 -11.1144 151 155 134
-3.31593 1.27023 -18.4976 77 71 49
8.7891 7.10802 0.886053 101 115 100
-3.06819 11.0458 10.8932 65 76 65
-7.85835 -9.65294 -41.572 58 69 60
-4.10348 10.5595 9.824 65 72 63
-0.853149 17.5504 5.91144 55 32 4
-5.35255 -2.14828 -15.9816 88 99 86
-1.49305 5.16393 21.1283 75 86 76
7.24416 0.795868 14.4156 68 77 66
-4.96222 -7.39639 -32.1711 97 104 87
-4.51264 -2.70905 -19.1823 80 87 66
8.8705 -0.789925 10.6529 163 181 152
0.945919 18.5711 5.96292 62 55 27
-2.66383 -27.3776 5.36056 72 82 70
-3.78654 9.76856 10.7372 62 72 58
7.83539 2.43848 -0.695749 66 77 67
-4.84165 -6.99529 -30.4538 61 64 49
9.03042 6.8591 3.92373 66 78 68
0.164272 17.438 31.0266 58 36 2
-3.41858 3.03159 20.4419 74 83 72
3.39973 8.31402 -11.9787 117 85 25
1.03998 3.7869 -15.427 123 93 47
0.734089 14.5353 -5.82326 107 64 25
-4.39972 -5.56477 25.248 174 169 133
4.16037 -22.4393 -11.6734 175 183 146
3.06616 11.4181 17.4253 68 67 47
-10.3954 -7.08538 -52.6691 109 128 109
4.40519 10.758 20.2348 73 71 44
6.93054 12.4534 9.48661 74 83 72
-5.35529 -5.29454 26.0865 62 61 46
9.00686 7.33278 5.09114 94 111 96
2.01376 -21.1755 -9.91476 107 119 98
-1.58 -1.14381 -22.6676 113 94 46
-3.09988 -10.187 -33.9072 71 86 73
-6.53263 9.44405 3.55238 61 69 51
-1.88729 10.3294 -11.2826 111 62 8
-4.30339 -7.89051 26.6737 74 86 77
-3.16748 0.591724 -19.5735 81 81 60
0.0640182 17.6124 30.199 57 33 0
7.9491 -21.7567 -10.2666 68 60 44
6.38858 -12.0976 -11.1863 149 161 135
0.42601 11.3115 -10.2978 116 78 29
3.94769 16.2472 4.48858 87 76 50
-3.85095 1.06141 -15.9446 130 130 102
2.85496 12.6014 32.7865 65 69 58
6.97117 -8.28237 -11.0903 160 155 116
5.61657 10.685 -8.33749 88 68 31
2.71936 -22.0516 -10.8969 131 147 118
-8.33861 -7.09932 -48.6688 67 78 57
-8.13853 0.732607 -8.45968 104 120 101
-8.02022 -7.35677 -0.135567 91 111 95
-1.89085 16.3478 0.950401 61 40 5
4.45292 14.9288 10.7291 67 68 55
2.8178 11.2979 -9.13315 120 89 50
-1.683 10.2345 -11.4678 116 76 31
-8.55303 2.75058 -2.89285 66 75 64
-1.03321 -0.867813 22.1057 67 78 67
-3.6685 14.2074 0.889761 53 39 11
1.39889 -24.2361 -6.4847 65 77 66
2.53386 -19.9871 -10.5212 117 130 107
-8.03516 1.83981 -5.37826 75 85 71
5.21455 -19.8972 -11.4539 175 197 168
-4.45423 -10.8717 -37.1159 69 86 72
1.21812 12.8933 37.2268 64 73 59
-7.26177 -12.1161 -1.18895 176 211 183
-1.22741 -0.683857 -21.8917 116 92 48
-1.25006 9.5569 16.8023 52 40 18
0.924313 2.62267 -16.5464 109 74 24
8.93247 -5.72481 -8.75451 109 125 103
3.79776 9.51591 23.5085 67 78 68
-3.57077 1.09224 -16.4549 95 98 81
-8.65939 -7.33087 -50.1522 98 108 95
4.28685 0.521473 -14.3902 105 121 104
8.08566 12.3541 4.18947 64 76 67
-7.90218 -9.94193 -41.5328 60 65 59
9.47634 2.4675 -5.18943 82 96 82
-1.7244 13.2865 28.3147 70 84 70
3.21709 -0.627739 -16.5753 110 119 99
-3.31185 12.2594 9.65344 60 71 63
-3.32107 14.248 5.26533 46 27 0
-0.2157 12.1489 15.577 56 47 24
-1.46343 14.3585 36.0654 55 50 30
8.98171 -8.0631 14.3764 73 82 72
3.30735 10.5819 -10.0033 106 63 2
-1.58091 13.5656 28.5551 70 83 75
-4.79226 -7.68567 -35.1364 112 116 90
7.04213 10.0214 13.9524 65 77 68
4.85179 9.49258 18.8028 70 76 61
-1.33238 15.9979 -3.28209 89 59 15
-0.122459 -0.888145 -20.4789 125 104 61
-8.95391 -6.76915 -48.7582 64 67 62
9.09625 -5.06261 14.4816 71 80 67
-3.99335 -6.6077 27.2569 73 87 77
