ply
format ascii 1.0
comment Created by Open3D
element vertex 1363
property double x
property double y
property double z
property uchar red
property uchar green
property uchar blue
end_header
-0.387598 2.56283 -17.9783 118 97 63
1.34996 9.08128 -12.2437 197 166 120
2.48663 1.41691 -16.2515 108 89 55
6.59045 -12.2286 -11.0152 141 156 130
0.755445 18.1819 1.86626 86 66 36
7.69729 11.7057 0.702974 83 97 87
2.15756 17.3883 28.5616 75 61 31
0.0829213 -5.12321 -24.3427 111 110 78
4.28338 15.8456 6.8507 84 61 20
9.58977 -2.0135 -6.04708 89 102 89
-2.85577 -27.2404 4.84752 122 140 122
8.6428 7.48279 -4.8167 80 94 82
2.88947 8.81231 -11.7535 178 142 98
1.95927 12.6266 17.4591 72 58 41
1.13975 18.3314 4.09493 83 69 43
3.56017 12.9019 23.7005 70 81 69
6.55178 -20.3974 -11.2397 152 140 92
-0.807026 -4.60058 -25.1328 116 103 54
2.43822 16.7103 0.668961 73 49 4
1.7977 5.88065 -13.939 158 139 96
2.28196 17.3255 3.65679 71 54 24
6.83742 -20.294 -10.3662 64 70 58
-1.31865 7.27303 -14.1349 121 90 38
8.53602 -3.50152 11.6962 155 172 149
4.49795 10.4923 20.7629 57 66 54
-5.40434 -10.0126 -41.4414 86 102 86
3.39328 0.633751 -15.5762 127 110 70
6.95695 10.766 12.6769 65 75 64
0.736917 11.6416 -9.86873 116 93 43
-0.754406 15.2017 -5.17148 96 52 10
-6.89703 -7.96766 -45.7143 76 87 73
9.85148 1.75459 11.039 86 86 71
-5.76728 -8.29561 -39.4286 66 73 58
-0.154062 18.5771 3.56454 63 42 17
-2.48959 3.81438 -16.9766 130 108 55
2.90223 5.42072 -13.8984 169 146 102
1.67703 17.4746 2.00223 78 60 22
-2.25948 -9.28673 -31.4929 77 89 76
3.28448 -0.704216 -16.4678 108 121 100
8.3236 5.48294 12.0765 95 96 73
-3.48983 11.8756 -6.95951 96 77 42
0.75445 1.40445 -17.9082 115 84 48
4.04751 1.31443 -14.6288 128 125 104
9.0988 8.75362 2.39168 104 122 106
7.25744 14.2043 6.38025 72 72 52
-6.62997 10.2548 -5.65513 122 117 99
-4.79039 5.20572 -12.2015 139 130 91
-2.61198 -28.3298 6.88141 60 64 53
5.75321 15.0069 1.17084 80 79 57
7.99092 13.0464 5.07852 108 113 89
4.48975 6.90704 -12.8332 144 114 70
6.56796 10.6194 -6.5776 99 113 94
1.1332 17.3146 28.2233 83 50 14
8.2837 -4.00305 -8.98688 150 142 103
5.77949 14.2396 -4.0771 97 101 82
-5.95168 -8.72307 -43.3684 76 88 73
8.58962 8.62219 -2.5677 60 72 60
9.21549 -4.17058 -7.60883 107 126 101
6.32516 12.0546 14.0591 69 74 61
0.301167 13.476 -7.65612 97 57 12
-5.21159 -1.39213 -15.9696 92 95 77
7.93427 9.41967 -5.34992 95 110 93
3.8308 11.2091 20.2327 98 63 8
7.8737 5.44176 10.2624 82 89 73
8.98528 -7.67047 12.7332 143 130 83
-3.56023 -9.49125 -35.8434 90 108 92
0.170273 -5.01659 -24.1108 114 120 91
9.0254 7.19665 5.19832 79 93 81
10.0072 0.608047 11.2341 106 117 97
4.03481 9.1292 -11.518 138 111 71
7.26003 -4.47622 -9.92516 153 141 97
-0.13911 2.24236 -17.9991 108 84 43
8.10999 -9.26633 -10.1625 122 145 126
3.07636 13.6916 26.1954 66 76 67
7.98076 -3.76729 -9.13932 145 145 105
8.82687 4.74139 2.2228 67 80 69
8.08117 -3.10441 -8.64226 137 146 118
8.67903 2.99614 10.0581 143 157 125
6.19833 -3.51677 -10.3919 149 157 128
5.95862 12.2515 -5.40102 102 94 69
4.85423 9.1622 -11.1613 140 103 57
-6.55091 -22.4809 3.93292 66 80 69
-0.470814 15.3535 25.6725 97 61 15
8.28425 8.45473 7.46372 71 82 71
-5.47937 10.0774 -6.99264 116 79 20
3.05774 14.9318 13.0509 69 65 42
2.03996 17.6781 5.76795 61 58 34
8.12244 3.43916 -10.4584 101 110 89
8.92109 -7.72684 -9.39722 102 120 109
4.13854 10.6526 19.9161 109 72 17
3.04728 15.0598 27.1167 78 88 78
2.65261 16.7015 27.2996 76 60 33
4.30611 7.82898 -12.2436 158 131 92
2.56388 16.7883 27.4522 87 72 42
2.13767 -20.242 -9.30766 63 73 63
1.54001 17.2177 0.261195 97 52 13
1.44432 16.1993 -2.27465 77 52 12
5.83903 13.5809 -4.46575 121 129 110
-2.63406 -9.00917 -33.0807 97 112 92
0.761112 12.4854 17.8743 51 28 4
1.94027 12.9277 16.5753 69 51 28
2.89268 15.5128 25.3322 106 106 68
1.49438 16.0561 25.6039 118 99 98
-11.0283 -6.22705 -53.391 157 185 158
7.34123 7.95207 9.80779 65 76 66
0.585938 17.4818 29.1744 76 43 9
-3.71039 -7.68935 -32.8348 94 90 62
7.84164 13.0056 4.29031 64 77 70
4.66822 14.9382 -4.41446 117 68 13
-2.9559 -4.63372 -27.7981 125 112 67
-1.48599 3.09255 -18.1484 111 66 5
-2.13547 1.02161 -20.4701 128 96 47
7.60404 10.526 -3.90926 58 62 49
9.96581 -0.738216 12.6032 67 75 69
4.46037 -0.80546 -13.806 78 93 80
1.06405 17.4024 28.5168 79 46 0
2.03074 1.66475 -16.5162 114 83 43
-3.51379 -8.28008 -34.063 83 84 62
4.00829 14.5933 12.5227 66 57 32
1.88862 12.2852 -8.32723 99 74 41
8.4293 6.64149 -1.11251 87 103 89
-0.447586 13.3727 -7.97703 108 60 1
4.87153 4.41468 -13.4277 162 143 102
3.48739 13.6071 24.2528 70 70 60
5.89123 7.21682 -11.6455 142 136 97
6.18071 12.6253 12.5885 78 75 51
9.56517 -2.77734 -6.44671 104 120 101
2.43311 17.2669 7.23291 67 53 26
3.5171 12.1933 22.7735 85 96 74
7.26166 -20.893 -10.5556 70 67 49
2.15781 17.386 30.3953 66 55 33
3.05209 14.1665 26.8759 65 75 65
0.124951 13.0545 -8.24868 106 57 6
6.32248 -14.0611 -11.1994 142 157 134
2.06076 16.9044 27.5011 96 55 8
-0.501482 11.8263 -9.96527 114 74 30
4.17858 15.69 8.19751 66 67 45
-2.49252 8.51177 -12.7593 116 73 21
1.87593 17.2942 28.1934 86 58 21
6.37887 -0.815773 -10.4343 137 157 134
-6.77484 10.0085 -5.88818 88 90 67
3.99636 11.7965 -8.18897 75 46 9
9.36123 -1.72896 -6.48643 121 141 118
-3.92424 13.9012 -1.91693 82 45 4
9.32385 -4.17712 -7.35959 103 118 99
-1.09384 12.35 -9.47714 123 77 27
0.412092 16.2711 26.4794 86 51 9
-8.0072 -24.4654 5.31847 61 72 63
6.74696 9.21349 -8.41838 91 105 96
-1.27877 -7.45016 26.2913 117 131 117
8.70596 6.62679 -5.10569 89 106 91
1.5092 13.2637 -7.26433 88 55 12
5.99649 13.1139 -4.19457 90 107 94
8.38871 9.29754 -4.0038 69 74 59
-0.908194 -1.00568 -21.7878 96 88 49
1.94089 10.682 -10.3372 142 102 40
0.94157 17.0477 27.6933 95 66 18
-2.0902 -8.60301 -31.0242 101 106 82
1.06651 17.2731 28.1265 80 48 14
7.64043 3.60002 8.6863 127 146 127
8.21293 8.03201 -1.86569 62 73 63
7.79179 -23.7829 -11.2665 150 153 120
-0.549664 -7.02782 -26.9994 94 98 79
-6.81403 -7.95307 -45.1593 72 84 71
-1.677 -8.46882 -29.8475 121 124 103
5.84542 -10.0901 -11.5373 167 177 144
8.77534 0.819786 -7.37707 111 129 112
0.120403 0.969765 -18.7445 110 99 67
8.02797 9.04328 -1.19153 111 127 110
7.41052 4.93927 -11.1449 96 104 81
8.92485 9.68119 5.28494 74 87 75
-11.0129 -5.97897 -52.1385 56 65 57
8.38208 -23.8432 -10.7579 131 145 125
2.85967 16.3949 0.469983 103 72 47
-0.964981 14.8045 26.1257 99 76 37
8.79928 7.92064 -3.568 73 84 74
-5.83311 11.6294 -2.74 83 89 67
2.965 12.0195 30.5971 67 72 58
8.82249 10.0505 4.9593 83 98 85
-5.21111 -8.76112 -39.1177 85 95 76
8.50539 -22.7052 -9.88641 66 75 61
5.47242 15.1308 0.842917 79 63 28
-1.05199 11.0775 24.4609 84 69 40
8.99265 9.03384 5.67403 70 83 72
8.88891 -4.71385 -8.52415 128 142 118
5.79888 9.06299 -10.4663 104 117 102
1.11166 -6.98954 -13.2246 138 163 141
-2.07836 10.4176 -11.031 118 75 17
-4.50096 13.4422 3.74677 59 48 20
-8.15039 -24.7509 5.74861 60 73 64
8.09979 -3.98947 -9.12388 153 147 106
8.95548 6.44248 1.81872 71 82 72
3.23891 8.31685 -12.0511 127 92 33
-10.7533 -7.63024 -52.5484 130 155 130
2.71316 16.376 11.0613 65 51 32
2.75623 15.6454 -2.90751 92 70 39
2.50835 -1.81948 -18.1012 98 99 81
-0.30397 -3.89317 -23.7772 131 113 72
3.33221 -3.64877 -11.9746 148 174 151
2.09385 -20.3559 -9.38269 72 81 70
1.55048 18.1658 6.7036 54 34 1
6.75198 7.15839 -10.0316 102 113 100
-4.69774 -7.17656 -27.1612 73 74 57
1.988 9.16414 -11.9385 150 116 81
-7.32262 -7.90655 -43.2048 59 67 54
0.487604 16.5001 -2.44686 83 52 10
8.48648 8.8693 0.458279 102 118 102
0.118481 1.67379 -18.3337 117 89 54
5.30696 11.8282 -7.24797 116 97 72
1.85656 16.9228 27.4452 92 54 10
3.66836 14.8455 -4.61482 107 61 11
5.23194 13.8518 12.7362 66 64 51
1.30811 18.2411 7.93904 57 44 17
2.58458 7.71279 -12.7663 132 79 21
1.73372 12.7872 21.1367 80 48 9
-4.50857 -5.18228 -23.614 96 93 69
2.41188 14.4138 14.3097 63 63 50
-9.10921 -8.56325 -50.3089 112 134 117
0.300795 -1.87518 -21.0038 134 99 37
2.33532 13.0119 21.7429 103 69 20
4.48729 15.0039 9.95748 74 67 40
2.13752 15.9376 -1.33721 83 86 55
1.11803 16.6164 -1.62083 78 64 28
-4.73097 8.1592 -9.74144 115 100 64
4.71903 15.6049 7.06859 78 65 41
8.54548 10.4969 6.82515 68 78 70
0.673792 6.01586 -14.51 137 112 67
5.06215 -10.0042 -11.7277 168 172 140
0.800949 -2.60046 -21.2332 110 102 66
-1.01112 -3.35204 -24.0173 108 90 45
-0.194366 3.369 -17.1581 117 89 63
2.43284 17.3261 7.11816 66 51 26
0.61026 -2.29918 -21.1836 116 91 38
-1.60419 10.9283 -10.7789 118 81 18
-5.9478 10.8961 -5.71671 89 60 1
8.26578 0.174797 10.0216 150 173 142
6.14109 5.9979 -12.2242 123 104 63
6.5886 14.8152 2.94646 96 77 36
-1.36047 -0.161892 23.6582 64 78 65
2.90576 12.8143 28.8431 64 75 64
4.45008 10.2916 19.7646 125 86 32
-0.7787 -6.26839 -26.6425 110 107 65
-5.61582 11.8286 4.37297 60 61 43
6.21793 9.08581 -9.48451 117 110 79
-1.43251 8.23711 -13.359 144 112 46
-2.58961 -7.29436 -30.1407 130 120 64
9.25017 -5.67994 -6.8267 63 75 65
8.73491 7.31585 -4.53503 87 106 90
-2.2787 -4.28134 -26.7765 118 102 62
3.1081 12.4188 15.2323 68 65 43
-2.12585 4.90651 -16.2405 121 76 6
-2.69963 13.8652 -5.01344 75 53 6
1.85798 12.3691 19.0583 71 54 31
-0.430027 14.8764 25.1083 80 50 6
4.30708 5.34417 -13.4726 159 140 89
1.78304 17.5728 9.23122 62 55 38
-1.12113 -0.337952 -21.4897 120 94 40
7.52481 8.78139 12.8668 77 85 72
8.01295 2.35671 -10.5217 109 127 109
0.0675087 -4.79016 -24.1052 128 117 85
2.49314 11.9191 -8.55541 104 64 9
-0.614427 16.7162 -2.24425 76 42 7
2.55648 15.5081 -3.6049 73 40 9
3.28201 14.3617 25.3477 61 69 58
0.663757 13.6817 23.1386 89 52 0
-0.683075 2.41074 -18.629 124 87 41
6.54764 7.24604 -10.4636 94 108 91
1.13741 15.2764 -4.64018 91 52 12
9.65185 -1.65778 -5.53035 83 98 84
3.98959 10.4601 17.2025 75 61 45
-8.52111 -7.0347 -47.5492 57 68 56
2.24469 10.4931 -10.4389 121 79 33
9.21518 3.18876 10.981 101 106 87
8.58913 7.97991 0.528397 113 133 117
4.65496 8.21951 -11.8897 153 126 71
-0.488991 -1.20984 -21.3247 100 84 43
6.95337 -1.35667 -9.57786 119 140 120
5.38728 -12.3107 -11.7776 152 158 119
-0.0174675 -7.11902 -25.8294 84 99 88
3.79814 7.99381 -12.2503 240 230 195
-2.02891 8.84571 -12.6464 120 84 21
4.08166 12.7906 14.4557 65 49 20
8.05364 -10.0001 11.6006 145 144 115
4.85283 15.2258 -2.86961 84 76 60
-1.20961 13.263 -8.34265 105 71 36
-1.15531 6.80979 -14.5832 135 110 73
8.82938 6.89452 1.04996 97 114 99
0.344165 -4.64916 -23.5599 118 118 88
7.18637 11.1681 -3.46338 77 88 70
-1.46121 6.35188 -15.0639 119 84 19
-4.86071 -24.4375 3.55444 66 72 62
7.24812 13.8487 5.23319 101 94 59
4.06454 10.7919 22.4214 68 70 59
2.58392 17.1993 6.41051 75 61 35
-4.86882 13.4445 -0.264182 52 45 27
-4.98117 -25.0335 2.69962 112 131 113
-8.95308 -6.82808 -48.4262 58 69 57
-1.75784 -7.79411 -29.6219 84 80 55
-1.06651 0.331619 -20.8221 131 99 48
2.74547 -19.8381 -10.6775 121 132 109
6.32414 15.1306 3.90223 73 76 59
-2.92036 -9.01761 -34.1578 78 86 68
-4.50832 -25.1071 4.74725 61 64 53
6.55598 11.9411 -3.96577 60 67 55
2.67215 13.8645 23.1123 105 69 12
8.94746 6.71049 -1.96636 61 69 62
8.98044 9.22777 5.01461 88 104 89
0.109297 14.6999 24.6252 91 51 5
3.2294 16.2752 1.23421 81 49 3
-7.72213 -7.40195 -46.5011 62 71 60
-0.298584 -7.57424 -26.5185 88 99 86
7.04355 5.44785 -11.5727 110 112 89
7.0272 12.815 9.08478 68 77 64
7.54041 5.41637 -9.15312 105 118 102
-0.798809 -1.00562 -21.6188 109 98 62
-4.96712 5.66929 -11.7233 144 141 115
-5.26594 10.3399 -6.84618 124 117 87
2.56734 16.6586 27.0646 86 69 30
7.64503 -5.79065 -10.1358 135 133 97
0.817421 -1.86498 -20.5502 130 105 49
1.2793 12.807 16.9605 63 43 10
7.33956 13.9004 6.97578 71 79 66
-7.11826 -8.47105 -41.2803 62 71 56
-6.44432 6.23563 -9.53365 124 111 79
7.37279 12.8087 7.78447 67 77 68
3.80594 11.6792 21.5394 58 62 48
9.00417 0.86763 10.2976 150 160 135
5.98683 -6.76458 -11.1332 166 163 119
1.97692 17.8742 6.58517 63 45 7
0.561164 -2.62877 -21.6954 98 85 45
4.98226 5.82774 -13.1139 140 123 77
8.54392 -0.661621 14.3495 68 75 64
0.289288 16.1544 26.2925 82 52 11
8.74532 4.14339 2.6629 66 78 68
0.866669 17.5265 29.159 78 45 10
9.4136 4.22873 -4.05253 88 94 81
2.21418 15.8733 -1.42649 76 72 42
7.52411 -21.3293 -10.6651 101 99 65
-0.185352 -0.476837 -20.2339 119 103 71
-2.52578 -1.53305 -23.6548 124 106 66
-1.96984 14.1172 27.4058 67 53 23
2.10826 9.03849 -11.9862 162 134 111
4.16818 5.40158 -13.5224 157 145 96
8.9356 6.71058 -4.32158 101 112 99
-4.25396 5.85194 -12.492 125 117 93
1.67921 11.1008 -10.0616 133 89 48
-0.677359 -6.48046 -26.6938 122 107 73
9.3718 4.44397 -3.95061 93 101 85
-3.19623 -5.49316 -28.9831 131 118 74
4.52036 15.2514 8.32876 70 65 38
4.09948 15.3608 9.73861 64 51 26
0.860733 0.503471 -18.249 134 96 41
9.14165 2.68024 10.6577 132 144 123
3.56806 11.5588 -8.6718 89 52 3
0.609596 -3.97439 -22.584 98 99 73
7.78193 7.16924 12.1382 86 93 77
-3.95246 13.4785 6.45331 59 33 3
-0.286268 14.6947 24.7907 85 52 4
-1.78013 15.7435 -2.68802 79 53 5
4.32597 10.716 21.0233 56 68 55
9.74426 4.07316 -2.92927 70 80 70
4.11226 16.1247 2.27281 70 59 35
-1.36069 6.25713 -15.132 120 84 31
-2.06556 -8.21468 -30.3005 103 106 78
1.51805 15.6867 -3.63774 73 43 6
-1.25673 7.18271 -14.231 118 88 32
3.00937 13.7839 28.0296 68 78 67
0.797894 16.3681 26.4108 86 53 5
-0.895779 0.947319 -20.1305 120 86 21
5.73331 14.9736 5.48657 71 62 46
2.40502 -1.66362 -18.2492 105 99 72
-1.44376 7.0733 -14.3406 123 108 59
2.4717 16.7394 27.2235 86 68 42
3.33134 11.669 15.9297 70 66 47
0.964661 17.4639 28.8382 73 41 6
9.17051 2.06883 -6.15714 102 115 98
3.4167 -1.16278 -16.0735 80 99 84
6.01954 12.9831 12.1472 60 67 52
2.12139 12.5351 17.8518 77 69 46
3.23364 12.115 25.878 104 115 96
-1.89968 0.900446 -20.6505 132 100 53
4.74496 9.64524 -10.7555 148 114 59
-0.791443 5.02573 -16.0732 134 99 61
2.80508 14.4514 23.7953 126 99 64
8.82154 -0.902901 10.6664 166 184 154
8.02705 12.358 2.05995 117 127 113
-1.71339 10.3151 -11.351 120 78 37
-1.72847 -6.50008 -28.075 116 104 74
-4.67047 -7.3982 -34.0751 101 102 79
9.41384 -4.94745 13.7942 68 75 64
1.39581 17.3462 28.2251 75 51 30
5.64254 14.3561 -0.469466 108 89 47
3.39685 10.8795 28.7073 67 71 60
2.80206 14.295 -5.4052 106 68 9
7.91809 10.1132 -4.3872 67 73 57
-2.69231 -2.96347 -25.648 139 132 87
9.42667 -4.35279 13.5012 65 76 65
3.79344 8.81219 -11.6416 151 101 44
7.60402 -3.49046 -9.32123 144 149 112
7.50382 8.72985 -6.97228 99 108 93
8.25161 5.24673 11.5366 99 99 78
-3.6217 -5.68171 -29.3923 126 116 75
3.00729 16.0876 27.4104 64 68 54
1.78472 15.9832 -2.46542 96 76 29
-8.97895 -6.94266 -47.9173 59 69 58
8.00141 9.36115 -0.64007 64 74 63
9.06548 -8.17996 12.5785 156 139 86
-2.66986 10.7078 -10.4058 122 97 66
-0.639122 17.1545 29.4135 52 30 2
4.09367 -22.2803 -11.6214 231 239 204
1.37627 6.86315 -13.7574 143 111 64
3.58329 13.048 24.2421 61 70 59
6.27595 13.1231 -1.26539 77 93 74
5.68882 14.2712 -2.27987 71 74 61
8.20812 10.0945 7.38965 63 74 64
6.50155 10.2043 -7.12643 104 116 101
6.65825 -10.6633 -11.1575 153 168 135
-0.297351 15.5015 -4.71625 86 47 6
0.0109577 17.1775 -0.938819 91 65 23
-4.29772 10.2649 -7.9584 119 91 59
3.96368 10.2584 -10.6442 123 88 37
-3.98711 -7.568 -33.1746 86 84 61
-0.643082 12.1976 -9.60742 106 57 4
0.0231781 2.03406 -18.1244 96 72 30
-10.3273 -5.99066 -51.1595 55 61 55
1.85075 17.0679 27.6789 95 60 25
9.60411 -0.923241 -4.78794 69 83 73
3.86671 13.5512 -6.07337 128 91 63
2.30527 15.7566 -2.69646 95 75 53
0.210043 11.3696 -10.2454 121 88 32
1.47961 15.9587 -2.83965 78 43 9
8.35545 9.42217 7.2228 62 72 62
1.89809 3.26249 -15.3011 130 96 39
7.02386 8.05028 -9.05769 111 127 109
5.86161 4.39143 -12.9829 149 155 123
-9.00482 -6.75708 -48.7352 64 67 61
8.02824 12.6251 4.16454 60 71 62
3.40372 13.863 24.8794 61 65 53
7.45863 -11.1141 -10.5692 132 146 124
-0.770803 7.30431 -14.1435 124 84 27
6.51997 11.3786 11.0445 91 106 94
1.40936 15.5714 25.1027 95 73 24
2.71357 15.5467 -3.38557 78 44 10
3.57206 11.8725 22.5656 66 74 61
-5.83126 6.08944 -10.4135 127 126 96
-5.70529 -8.21652 -37.7544 65 70 55
1.17805 18.3023 7.57265 62 45 18
2.3648 12.1491 -8.24898 100 69 34
-3.15298 -5.30227 -28.7251 132 121 82
6.30596 -22.4826 -11.7056 172 175 139
7.62805 10.5409 -4.17718 60 59 45
-5.09055 -23.9374 3.23232 60 69 58
2.05886 17.0533 27.7303 99 64 11
8.45351 -24.1451 -10.7731 129 143 123
-3.92356 -5.91058 -30.0885 131 130 92
-2.86143 -6.90717 -30.0243 120 107 66
1.19368 17.4819 28.7124 69 42 9
-0.47229 16.878 -1.90078 81 41 7
4.1987 1.66709 -14.2213 125 132 105
3.82832 15.2634 -3.99218 87 46 5
9.14546 9.03333 2.9361 67 79 70
8.32213 11.9645 2.65264 79 102 81
0.210348 18.1993 1.29854 76 46 1
4.28032 10.799 -9.90716 97 71 39
2.83328 13.0422 21.9805 123 87 28
2.49792 6.38724 -13.5055 151 136 90
0.703821 9.96882 -11.6852 132 92 53
4.0001 7.81875 -12.3208 139 120 82
-8.86192 -6.762 -49.8039 61 63 54
3.05502 12.1064 29.2572 63 69 57
4.06073 11.3172 21.1759 55 58 44
-5.55269 6.63368 -10.3274 126 117 78
6.64337 14.4395 7.25607 73 74 58
-0.937145 10.8795 22.9777 90 63 25
0.276283 -6.6132 -24.9891 89 103 93
-2.1442 6.61178 -14.6654 124 83 33
8.98977 5.94252 3.94512 66 78 68
1.31242 17.5521 28.9169 76 48 15
5.29734 13.8741 11.4024 63 48 10
0.170244 11.6054 -10.0268 124 90 37
9.36835 2.13288 -5.61713 95 113 97
0.700474 18.2767 2.24446 69 48 10
-1.4071 0.898643 -20.4781 130 101 49
-5.31725 -8.71045 -28.3145 66 75 64
0.00736046 17.5175 -0.305181 94 58 11
0.221098 12.4858 16.4076 51 31 8
1.40594 12.3866 19.3405 64 38 5
7.5559 7.46301 11.5279 77 87 74
-1.60344 -7.68087 -29.0269 105 105 81
7.76017 6.1206 -8.41818 123 143 124
-2.2823 0.756001 -20.8168 128 97 28
1.44984 16.2878 12.5133 58 47 17
8.21551 8.5191 7.90616 68 79 69
8.41169 2.38709 -8.38294 73 88 76
-5.52537 -8.47301 -39.1989 75 82 66
1.82945 17.0864 0.331573 98 59 15
3.83176 11.03 -9.74531 98 58 11
2.4733 15.7234 -2.89472 94 72 43
-4.43641 -6.42621 -30.976 75 71 51
8.75641 -1.06755 -7.59074 115 134 116
3.83281 14.592 12.7293 66 59 34
8.68534 5.31211 0.0234623 76 90 78
-2.90591 -8.11356 -32.2842 93 88 56
4.48409 15.0478 -1.67543 83 77 54
3.98197 11.0505 22.7293 65 64 56
3.3891 15.4629 -1.38313 90 66 37
7.52606 -0.951569 -9.05476 109 128 109
7.68009 -9.78079 -10.5165 132 149 123
-1.86176 -5.31976 -27.0109 124 108 69
-4.78767 -6.8746 -30.7734 72 74 57
-6.51235 -8.82036 -38.5658 63 68 58
0.185406 4.0649 -16.4016 107 83 46
1.80714 -1.99535 -19.5095 91 80 49
1.27115 15.9706 25.5879 116 83 66
-0.4205 17.0728 31.5506 55 35 4
4.19176 -22.0636 -11.5607 175 182 149
7.82977 9.46743 -2.48008 59 67 57
5.02781 15.3777 0.996067 91 63 15
-3.54125 14.2387 4.73243 48 37 15
6.09113 4.47153 -12.8763 153 155 127
7.82052 7.69218 12.9998 70 81 67
7.44726 7.64111 9.69321 68 79 67
-5.78374 -8.47663 -41.8106 70 78 68
-3.66314 -5.87977 -29.8678 121 114 75
8.81195 7.51284 -4.05807 86 96 84
-1.11832 15.5094 -4.46533 97 52 7
-3.91452 -25.9154 3.8276 111 125 106
2.15188 17.2519 28.1841 80 69 43
-7.73594 -8.39974 -48.1263 104 117 103
2.23188 16.3912 11.9906 65 55 32
-4.81718 11.9546 -4.97404 88 60 15
-2.71531 -3.30714 -26.0794 166 146 95
1.49461 0.01371 -18.1452 127 94 45
0.970449 13.7796 23.1544 107 64 0
-5.81807 -8.38854 -40.8896 69 74 61
-7.3065 -24.4679 5.85349 55 66 57
-2.25647 15.3206 -2.35108 68 43 5
1.64356 16.7238 -0.523309 94 70 26
-4.17262 4.40216 -13.4009 118 115 91
-1.48214 16.0636 -2.5602 62 43 5
-5.74681 9.16821 -7.78394 113 81 24
8.11716 -2.52359 11.0982 155 175 151
-0.384425 14.0097 -7.03462 101 58 5
0.938324 -0.117714 -18.7543 112 81 17
9.8042 0.0957317 10.9419 134 147 123
6.36822 -8.51437 -11.27 197 195 153
6.21336 -5.72339 -10.8508 192 189 145
-3.25487 5.59229 -14.3155 133 123 77
6.15118 -5.90573 -10.89 166 161 116
-1.4834 15.5446 -4.20996 94 56 8
7.7481 10.4125 -4.79442 74 73 55
5.74486 14.198 8.53019 72 74 56
-4.29223 0.0369186 -16.4506 127 121 89
9.45742 -2.3151 -6.60168 93 113 94
-0.789665 3.27059 -17.776 158 120 83
4.65125 2.0301 -13.5021 111 126 107
2.35392 7.91105 -12.6405 147 101 39
6.07695 13.6777 -0.790437 91 96 78
4.96274 -2.82816 -10.9689 156 177 154
4.40893 10.4272 16.7914 69 60 34
0.907779 0.194763 -18.5023 121 91 17
-0.422742 -3.52863 -23.5572 123 99 49
6.16636 -13.8632 -11.3622 142 158 140
3.62604 6.70402 -13.2137 157 115 67
4.2369 1.13732 -14.3751 112 117 89
2.10379 14.4851 14.5488 63 60 39
6.60912 13.9267 1.27474 68 72 57
-2.71121 15.031 0.576714 86 57 6
-2.30718 11.4122 -9.97158 133 105 56
0.879499 16.2403 26.1607 95 60 5
6.84701 0.958839 -10.7359 142 159 136
-8.34704 -7.10583 -47.2289 71 83 70
4.43606 15.3434 -3.1642 75 57 36
2.41615 17.3974 6.41048 77 63 37
8.84411 5.41558 0.887016 103 122 104
-6.88717 -7.873 -43.3824 63 71 58
1.2273 18.0165 2.83624 64 54 24
5.70975 15.4068 3.22079 95 66 29
-5.7401 -8.20093 -37.9951 68 72 57
6.76902 13.7264 1.28777 69 74 58
1.53897 17.4013 28.4154 76 50 20
-1.17489 8.60756 -13.0262 136 115 58
-4.19009 9.85539 -8.76431 113 97 56
1.52334 11.5351 -9.77311 118 70 21
0.235128 17.2019 28.6611 71 37 7
0.945255 18.4868 4.1338 74 57 31
-4.13005 3.35536 -13.9936 140 133 98
-7.65389 -26.5086 7.99329 66 78 67
4.70923 -0.431957 -13.5304 96 114 98
-0.413219 6.95317 -14.4439 125 106 72
4.26884 9.66294 -11.0811 146 131 105
-4.72405 9.96408 -7.71046 133 138 100
0.283985 -3.68991 -22.9075 102 94 62
-3.32831 14.4081 -0.429348 61 41 9
1.97469 17.1445 27.8787 88 61 23
6.66632 13.8603 1.15328 69 69 54
-0.0567398 -7.53127 -17.2965 62 73 63
8.26648 -22.5684 -10.5822 142 139 118
-0.187133 16.5036 33.527 52 34 0
-4.47112 -27.8764 7.88457 65 73 62
2.29107 12.9118 16.2352 66 56 30
7.86477 9.6869 -0.929739 76 88 74
2.47652 3.83612 -14.655 166 135 47
0.920477 11.3315 -10.1169 108 73 35
-1.4005 2.84325 -18.4302 130 88 30
-4.11928 13.7481 2.312 62 40 1
-0.959862 5.40903 -15.7903 122 83 23
6.77138 6.98742 -10.0594 102 113 100
-5.8582 -8.43465 -41.9487 67 74 64
-0.267372 -3.13282 -22.9724 106 82 33
6.17062 13.7411 8.85905 84 73 47
1.82034 15.0855 14.108 63 57 35
7.30407 -4.826 -10.0178 146 137 108
2.72098 10.0845 -10.7034 126 88 38
2.81416 -20.0697 -10.8453 139 145 125
3.15299 11.6728 30.2032 60 63 51
2.75522 16.8905 7.91569 70 56 33
8.41298 9.58067 0.967367 67 80 71
4.96577 -21.033 -11.451 174 180 147
-3.71149 -5.76644 -29.6275 101 95 64
4.15006 15.9256 7.59327 69 65 43
4.70262 1.29033 -13.5858 100 112 96
3.06508 14.6365 27.197 84 94 80
7.07692 5.30487 -11.6206 114 118 97
-3.68665 -7.57412 -32.5393 96 92 64
6.67286 12.0924 10.0891 66 78 69
6.99456 -2.77946 -9.65108 152 160 134
4.73251 9.82964 18.794 67 73 60
1.64217 17.8157 3.44303 87 60 18
-0.970259 0.838562 -20.3073 134 100 36
3.63519 10.9022 24.1653 67 72 65
0.344265 0.241383 -19.0092 138 107 54
4.02002 9.32789 -11.3629 148 124 84
6.90895 10.638 13.1737 65 77 67
-3.52213 -4.43951 -27.785 119 111 74
9.35421 2.93579 11.4881 67 71 58
-3.45359 11.811 -7.15576 96 76 36
1.77534 -21.0429 -9.18843 76 85 70
1.11636 10.449 -11.0727 136 99 62
5.09151 1.5895 -12.4498 102 123 106
2.76408 13.1744 22.0905 126 80 17
3.72738 16.4113 3.25032 85 72 33
3.22932 14.4295 -5.06794 112 68 19
2.88146 12.7293 27.802 66 76 65
0.308788 11.7467 -9.88029 119 79 24
1.86646 5.5371 -14.0682 157 131 82
7.03029 -5.35136 -10.3922 154 131 76
0.747208 18.3466 2.66733 80 59 33
-3.82978 -0.504463 -17.4572 134 137 105
2.21992 13.9693 14.9536 63 68 51
4.50083 -12.5211 -12.109 166 173 141
-3.06595 -1.12318 -22.8075 113 104 72
8.71621 2.62744 -6.68527 133 149 126
0.0623684 16.2635 -3.16241 81 46 15
1.38752 17.47 28.6189 75 49 19
1.28374 12.7475 17.2135 59 41 9
6.26298 -4.84634 -10.626 160 160 120
7.09322 8.8805 10.576 81 93 78
0.214012 2.87008 -17.2366 104 76 40
6.04622 13.4128 -1.86915 91 108 83
-6.66748 -8.01975 -42.7401 64 72 59
3.71669 15.386 -1.1397 88 66 29
7.59273 5.9747 8.96905 69 80 68
8.04066 9.2354 -0.924168 81 92 79
4.58113 -4.88538 -11.269 197 218 186
5.93909 14.7118 1.74823 74 71 56
-2.78986 -9.50714 -33.4913 79 89 72
-0.960217 -6.03831 -26.6834 108 98 60
-10.3186 -6.05218 -52.423 98 110 95
8.86546 5.18554 2.76122 70 83 72
6.67357 11.5883 -2.69201 74 87 75
1.55973 9.91791 -11.4134 122 88 42
-0.169912 12.5773 -8.9328 95 57 10
1.16573 15.8349 -3.45352 80 43 10
0.38743 -4.59115 -23.4512 120 121 92
-5.24543 3.45158 -12.7897 129 117 82
6.09019 10.6774 -7.61334 88 82 54
-7.24026 8.53133 -0.346169 59 60 42
-4.83294 -8.30212 -37.0423 91 91 72
7.67258 9.74779 -1.79197 88 102 89
2.33013 12.4537 19.9471 86 48 14
7.41294 -4.9758 -9.99516 150 139 107
2.3601 16.9562 27.6244 107 86 51
2.91618 0.834831 -16.1349 102 95 68
5.13919 10.04 17.3306 87 86 72
-3.64063 -7.79038 -32.8802 95 92 63
8.76346 3.71491 12.6925 63 70 61
2.85867 11.5025 -8.88765 130 93 52
7.25723 11.1522 -1.08144 119 138 115
-7.08969 -7.83117 -46.0739 79 91 76
8.20633 4.17351 -9.13994 70 77 64
0.959721 3.06319 -16.1209 131 97 58
8.38274 2.79199 -9.2922 61 75 64
1.789 -7.69314 -12.5986 161 190 162
8.38841 9.22842 -4.2394 72 82 69
8.56274 7.18708 -7.20905 85 97 83
-5.91505 -8.23221 -39.2261 63 69 56
-6.49874 -23.3411 4.59577 64 74 66
9.34267 -4.39615 -7.39983 103 119 102
8.07533 4.11534 9.50998 134 145 122
2.32328 15.9154 12.5261 65 65 50
2.02614 12.2858 -8.23964 106 92 69
8.47342 9.73734 6.99936 62 72 63
3.69693 15.7643 9.88992 63 49 22
0.720233 12.6886 -8.52013 109 59 15
4.11934 0.355724 -14.7082 110 130 103
4.95591 11.4286 -8.29789 87 77 58
5.34212 14.7632 -4.16161 102 85 55
2.12269 16.9856 0.686123 68 55 24
1.59316 12.5171 20.1156 73 44 0
6.51421 -24.4824 -7.20312 66 82 70
6.14579 12.6912 13.4561 62 65 56
5.96829 -21.562 -11.6477 177 176 141
2.09617 17.219 28.0796 80 65 44
8.97956 -2.02869 -7.35037 139 153 131
-4.59594 -5.72542 -24.2883 110 108 81
6.18924 -7.14272 -11.1731 159 152 107
8.1233 9.00132 -0.644753 65 74 63
7.75073 1.75149 -10.5607 134 154 131
-5.13528 12.4436 -3.07963 109 97 63
0.730358 13.017 -8.01213 110 69 29
-0.350739 -4.67832 -24.5963 99 84 44
7.31789 13.1354 7.64447 68 76 66
-0.0211048 -3.33875 -22.9089 108 89 46
-4.14274 12.9568 -3.8582 96 60 0
2.56397 -7.12745 -12.2698 162 185 160
-1.03015 17.2454 0.323706 76 49 8
3.36377 11.2593 -9.07303 101 61 6
-9.02121 -6.69456 -49.067 66 69 64
-0.212051 -2.94183 -22.6767 125 96 38
5.32566 15.2493 2.56215 94 64 18
9.05436 5.19115 -4.58673 78 89 78
-4.39592 -8.78271 -37.4543 93 97 73
7.66096 3.41019 8.781 131 150 132
1.42276 11.4299 -9.87579 122 73 17
8.25611 3.32139 -7.60318 66 77 67
0.397524 16.3883 26.6884 82 48 6
1.38238 18.2221 6.3334 76 55 17
6.51064 13.5506 8.78098 83 71 45
-0.122648 14.3525 -6.34754 89 51 0
-0.614357 16.9672 28.6591 88 54 5
-3.5327 13.4435 -3.55925 75 45 5
9.43536 4.10704 -4.09646 81 88 75
-4.52699 11.2833 -6.4458 120 96 58
-4.26402 -25.2579 3.83518 81 88 71
8.16296 2.7521 9.44994 132 148 127
2.98545 16.7687 3.47054 73 62 37
-5.25796 5.82407 -11.3584 141 139 100
-0.26708 17.723 0.123522 76 46 2
7.71084 9.83091 -5.46929 123 136 117
-1.86743 16.238 2.35799 56 39 6
9.28156 -3.93718 -7.35641 102 116 96
6.76745 -7.52839 -11.1237 146 142 91
8.99554 8.75973 4.89676 82 98 83
1.63528 -2.70174 -20.0647 109 126 104
8.57499 -3.17857 -8.19695 138 147 118
3.08201 16.3158 9.46812 72 61 36
8.87584 -7.57835 12.7503 167 152 103
0.0994072 0.774796 -18.9165 115 99 63
-2.10213 -3.67391 -26.012 129 109 58
7.97042 -9.02208 12.1377 118 105 67
-2.8862 -2.17483 -24.5908 146 135 90
6.36524 -1.28339 -10.3098 134 153 131
7.5451 -7.2081 13.1184 150 160 130
-8.81503 -25.4584 1.91859 117 142 124
9.45493 -0.275452 -6.11928 87 99 84
3.46825 12.2948 -7.2077 159 133 96
7.30072 -3.11835 -9.48846 148 153 118
-2.67638 -6.0292 -28.9663 112 99 59
3.46361 15.8208 -0.0941639 86 78 55
9.3468 0.941963 -6.02499 99 115 96
-2.29623 5.57872 -15.4136 118 86 49
-1.86004 -5.84283 -27.6366 117 105 66
2.09318 16.1646 25.8924 86 52 8
3.01548 5.86081 -13.7397 152 115 62
1.68657 -3.14699 -19.9984 102 120 102
8.41942 9.56396 1.11158 71 87 76
2.0567 17.3326 28.3428 88 62 22
-6.94452 -9.25076 -46.0048 93 110 98
7.50697 12.2263 0.437245 95 106 90
-5.30792 -11.1215 -39.3488 73 92 76
1.95575 17.4082 28.5069 80 51 9
8.40999 2.91072 -8.38322 60 71 60
-3.71099 -7.98849 -33.7439 85 84 60
-1.96647 -0.534325 25.2432 66 77 61
5.50564 -9.22025 -11.5188 172 178 142
4.40026 9.76548 21.2907 61 71 61
-2.55919 2.8726 -18.0553 124 100 67
4.4242 3.0794 -13.7728 130 137 119
-3.25763 -8.6152 -34.4764 83 89 67
-0.152149 16.8807 27.8582 92 51 3
-1.26547 6.64159 -14.7435 131 92 44
-6.89829 -7.95736 -42.8011 62 70 56
-3.95477 13.9768 -0.0425739 56 33 9
3.05156 15.8567 -0.589878 92 65 28
4.63461 11.9729 -7.57218 76 51 18
5.80705 12.5539 -4.68528 116 118 104
-0.209177 16.3379 26.8743 91 49 6
-2.69204 -7.42093 -30.3487 112 101 68
8.43441 2.7029 -7.16528 83 96 81
-7.52311 -8.44649 -42.3838 61 70 64
0.45233 18.0832 9.26399 52 35 10
-3.4815 -2.05158 -23.5725 88 84 63
8.35145 7.15702 -7.6558 113 125 107
2.32807 10.5803 -10.3424 130 89 26
9.14643 -6.92687 -8.74058 75 88 73
7.11854 -10.1859 11.6817 122 128 107
-6.48008 -8.42319 -44.6481 79 92 78
7.26066 8.97522 -7.51112 80 82 66
-0.098484 -5.17097 -24.8569 96 92 65
4.13228 10.2365 22.102 93 105 89
8.9503 7.65873 2.14991 129 151 131
-5.4357 1.51108 -13.7396 118 122 94
7.80938 6.58636 11.6618 89 93 74
3.80483 -22.92 -11.6825 173 180 148
-5.91426 -8.5551 -42.916 67 72 59
2.5844 16.828 9.18721 64 57 32
8.22294 -7.4673 -10.1466 141 140 101
1.02447 14.1463 -6.37177 91 55 9
0.186619 18.693 6.10321 56 35 9
0.602858 18.6415 5.36727 68 48 12
8.90275 3.0721 12.6796 67 78 69
-2.40091 -2.97182 -25.52 120 105 66
7.94457 -22.4716 -10.8722 154 142 113
3.06472 1.0108 -15.6909 117 103 65
6.43828 11.8918 10.9417 62 75 62
7.13496 8.71844 -8.207 112 110 97
4.98888 15.1397 -2.7103 79 74 56
-1.84959 0.527031 -21.0283 125 98 37
-2.94787 14.9912 2.22634 62 39 6
2.34596 7.7029 -12.802 131 87 28
-0.730831 17.122 29.7006 65 48 16
0.759377 10.3765 -11.2966 120 77 24
8.66867 11.0846 5.38786 67 79 69
1.17501 10.3531 -11.1273 188 153 106
7.87042 5.17545 -8.15971 106 123 108
5.23729 -23.2821 -11.9202 177 182 152
5.20787 1.94637 -12.3297 114 134 116
2.78146 16.9602 6.68506 79 76 47
9.46111 2.46964 11.9781 59 62 49
0.506739 16.9931 -1.01072 107 87 64
-3.91189 -7.27218 -32.4931 98 93 67
1.32176 1.52091 -17.0529 135 107 57
-2.19226 -2.85335 -25.1391 131 116 60
2.00489 3.19994 -15.2892 132 101 47
6.72049 11.4981 13.2715 70 75 59
2.18563 13.2548 15.7779 64 63 47
-1.11904 -6.21353 -27.2548 108 99 69
1.93398 7.35046 -13.2391 131 100 53
2.74401 15.6419 12.4722 69 67 50
6.07961 13.8131 9.09771 75 66 42
-10.6485 -6.98372 -53.0008 124 136 122
7.72866 11.4353 0.478443 97 114 102
5.9318 13.9923 -3.95471 79 90 77
5.64725 9.49839 -10.4019 102 100 76
0.970301 16.6525 -1.73191 94 77 43
4.78934 10.0563 -10.3167 131 100 49
3.5276 2.89823 -14.5069 141 144 115
7.75505 11.6102 0.873954 71 83 75
2.48957 17.1345 4.76403 72 56 21
9.20066 -6.73768 13.1382 146 135 100
6.75501 13.8257 1.66765 86 83 57
5.85636 13.8555 -0.898583 87 86 62
5.1993 11.4641 -7.77264 125 109 69
6.77948 10.0321 -6.74071 106 109 92
7.12046 1.23558 -10.6876 135 155 130
4.33215 15.3159 -3.81149 79 51 4
4.98743 -5.29508 -11.1941 164 180 149
4.20306 12.0549 15.3895 62 51 13
9.43181 -8.84776 12.6566 88 99 83
-0.247963 18.5829 3.98124 60 38 4
-1.43983 13.9917 -7.1968 101 60 9
7.98658 7.4608 -8.03821 137 147 124
6.37635 12.7566 10.314 67 77 66
-7.54119 -7.47331 -46.0793 72 82 69
1.8078 14.0683 -6.07137 109 64 1
-2.78804 -6.2042 -29.2635 124 112 71
5.63815 14.283 8.53513 72 74 56
-2.89234 3.30237 -17.108 117 106 69
1.60962 15.6057 25.0816 89 67 16
6.89359 11.7308 -2.04365 104 115 94
7.71061 10.0261 -5.33535 113 128 111
-6.83674 -19.1488 -0.52327 168 193 170
8.04737 9.86008 -4.52321 85 92 74
9.62141 4.01261 -3.66484 90 99 86
9.19414 -5.50071 -7.98808 94 107 91
1.63305 -1.87317 -19.7327 99 88 50
0.729365 -2.40741 -21.1397 114 97 51
7.52961 10.2779 -1.62763 77 90 76
6.90123 11.4995 -3.15228 59 67 57
4.69325 9.92939 19.5831 112 91 58
8.40342 12.0723 5.14006 86 101 89
6.62439 -23.9577 -7.43594 63 76 65
-1.6955 0.996044 -20.4956 137 105 56
1.33415 15.1036 14.0858 63 47 23
1.14745 12.652 17.7267 60 39 13
3.70042 7.28965 -12.7667 140 100 41
0.900831 17.9863 9.62362 59 48 22
3.29296 16.408 1.73142 88 50 10
-4.58753 13.3238 -2.63931 97 67 15
-2.54325 7.26887 -13.8377 115 102 57
0.657612 18.6166 7.1032 56 40 16
0.491047 8.11155 -13.3823 141 113 57
6.08186 -6.93117 -11.1496 161 157 112
-2.39277 12.0437 -9.24987 123 94 52
-0.98888 -3.26402 -23.8798 117 95 46
-0.0891418 1.40041 -18.7462 121 103 75
-1.71204 -8.89659 -29.7693 92 104 89
-1.57313 3.61062 -17.5897 118 74 5
7.408 10.7479 -4.046 63 58 48
0.191273 15.6968 -4.23757 76 57 6
3.29045 12.3704 15.1151 67 61 36
6.74456 8.25633 -9.59513 98 113 96
9.36182 -4.98566 -7.27988 87 100 84
5.22461 9.91278 -10.3727 115 76 36
-3.35166 -5.74401 -29.3527 130 118 76
1.44402 9.74359 -11.6272 186 151 81
7.71117 -6.78268 -10.3869 149 120 73
-1.61268 16.6225 3.57211 62 38 5
6.57915 14.3408 7.46434 73 76 60
2.244 17.47 5.45544 63 56 34
5.39271 -13.8243 -12.0746 153 158 125
8.54769 -5.8904 -9.4129 151 151 118
-1.01917 9.11211 -12.5813 151 114 60
2.52889 -5.78964 -12.267 152 177 154
-1.36794 15.9231 -3.41232 90 61 14
-0.888728 17.6299 3.07173 64 40 6
9.5013 -3.02415 -6.60284 97 116 95
7.54769 10.442 -5.15831 102 88 52
5.79922 14.3014 -0.37766 113 100 68
0.63773 2.22116 -17.1414 112 87 50
-3.99357 -25.6639 4.06409 84 89 74
4.63293 10.1431 20.7159 61 74 62
-0.618862 -5.96598 -26.2864 132 106 75
2.76358 16.1644 11.6707 64 53 26
8.88502 8.94723 4.11793 63 75 65
7.90203 5.72309 10.7972 90 97 80
6.30091 13.6947 8.93443 75 66 43
2.49026 15.0513 -4.49676 100 54 9
5.02765 -9.58488 -11.6726 160 165 134
6.50304 11.9164 12.816 67 68 54
6.46095 7.40335 -10.5736 106 121 101
-4.29731 -9.37953 -37.9964 89 99 86
0.349691 -3.61863 -22.7465 112 105 74
-0.955418 17.1142 30.1995 48 34 16
2.96915 15.4107 12.5832 67 63 44
5.83438 15.3412 4.57586 77 73 51
9.41681 -3.88103 -6.8011 87 105 90
8.97208 5.8145 1.86156 67 79 68
2.46451 5.61164 -13.8756 149 111 46
7.07131 -23.3191 -11.5856 164 165 138
-1.18568 -6.36647 -27.4986 120 114 84
4.11487 14.4278 -4.99908 125 83 44
-3.97008 -6.53016 -31.1418 108 105 73
7.14992 6.87296 -9.37873 121 138 120
7.24938 4.08275 -11.698 137 155 133
6.95851 -20.5713 -10.1667 59 62 52
8.32506 9.87666 1.11437 77 88 79
-1.62512 -0.381973 -21.8359 145 113 54
2.89426 14.7679 24.1822 115 107 77
4.35349 -0.111914 -14.3909 113 127 107
5.15976 -23.113 -11.8828 177 182 150
0.585045 2.03457 -17.3984 102 78 48
-4.21387 -0.043541 -16.6416 129 123 91
6.61448 7.50997 -10.1735 113 127 111
3.41251 15.9123 0.14312 77 65 36
5.97033 -12.7833 -11.5975 151 148 113
2.01972 7.50059 -13.0802 118 77 17
7.63746 6.32278 -8.60708 118 138 119
-5.68062 -8.08339 -36.0204 74 78 64
2.92281 13.3568 27.2067 61 71 62
8.31846 10.8627 1.68194 150 165 142
7.31378 5.52306 -10.0118 80 91 77
9.25356 6.57537 -3.27695 79 94 81
7.38784 10.6721 -5.02398 98 80 44
6.05429 13.4513 -3.39547 59 77 62
5.92301 15.3663 4.28647 77 71 48
0.786884 -0.779121 -19.5254 132 96 42
6.14388 -9.1412 13.535 90 95 70
-2.72713 1.99091 -18.9165 106 78 43
1.30316 16.3686 26.2194 93 67 28
-8.45061 -7.04803 -48.9633 67 80 66
3.23761 13.8923 13.8657 66 68 58
-2.33195 3.90173 -17.0314 129 111 71
-0.968296 9.73715 20.3541 91 56 7
7.35034 5.3829 -10.316 76 81 69
9.26017 8.23309 2.75651 75 89 79
2.17787 15.69 25.2583 121 95 42
6.13794 12.6431 12.162 64 65 48
-2.48712 -9.58331 -32.1691 57 68 58
8.89495 6.03952 -6.20196 81 96 82
3.14285 15.3887 28.1232 75 77 59
-4.12483 13.9421 0.136336 69 38 6
-5.88395 -8.29037 -36.6451 64 71 59
-0.749945 12.5133 -9.23029 90 59 15
5.60839 6.34505 -12.4419 138 110 57
7.86129 4.55763 9.24615 111 125 106
1.33421 17.3089 28.1242 78 53 33
8.02755 9.51914 -0.08671 141 158 137
9.5223 2.80488 -2.61838 65 77 68
7.56577 13.7298 2.74745 74 89 79
-2.75234 1.77773 -19.2177 143 127 100
6.33047 11.6401 -5.44207 96 110 96
7.33672 -8.66497 12.8625 113 115 86
-4.33427 -3.5209 -21.339 110 106 75
0.675806 16.3615 26.4568 84 50 6
-6.66663 -24.1023 5.49689 62 71 65
-0.429737 18.0454 0.781462 72 46 9
2.13373 17.387 3.41232 91 64 17
-6.86811 4.83565 -10.1334 147 147 111
6.33704 12.3616 -2.57783 85 100 84
0.282221 16.2584 26.5148 87 50 9
6.29525 12.2867 11.8577 68 67 56
-1.17159 7.63305 -13.8658 153 111 90
9.50156 0.934193 -5.44174 76 88 77
-3.47689 -6.48506 -30.5166 112 105 72
-8.06175 -8.00895 -48.8387 100 111 97
-2.40253 15.5945 1.74009 56 36 5
3.13469 14.6969 27.4253 93 103 84
-0.601986 17.459 7.44661 48 31 5
-1.57457 6.46658 -14.9711 121 91 25
0.485315 2.83834 -16.9115 118 102 70
6.26798 12.36 13.654 63 70 60
8.84026 9.73567 4.82503 91 108 92
3.23786 11.554 -8.76917 117 80 33
4.36731 -8.25586 -11.757 167 184 153
5.01167 -7.08282 -11.4258 161 174 140
6.0044 13.332 -2.87432 67 80 69
-4.28545 -8.63101 -36.8788 87 91 71
-3.61162 -8.0397 -33.6033 99 98 70
-2.77232 6.93136 -13.9002 136 121 79
9.16362 -3.60723 -7.48576 104 114 95
6.21489 12.9674 10.4596 69 75 62
1.99874 14.5274 -5.42683 105 62 13
7.87549 3.88822 -10.7558 116 126 109
-4.58433 10.4306 -7.46015 143 133 93
0.551506 16.2216 -2.94693 83 50 26
7.69517 10.3994 -3.79721 60 64 52
7.27335 -20.9894 -10.754 99 105 74
3.24106 11.6468 27.9601 66 71 59
-1.03379 -7.97193 -28.4052 101 105 84
6.88834 6.2738 -10.5319 78 85 73
-3.88503 0.0542526 -16.832 143 142 113
-3.40696 -4.05065 -27.1617 120 106 62
5.46891 -9.54779 13.5481 67 72 48
2.7796 12.5384 20.9611 88 56 8
3.34088 11.891 -7.97005 86 61 32
-1.31361 11.8275 -10.0447 105 79 33
2.55124 1.84904 -15.7989 133 116 77
3.3324 10.5166 -10.083 101 59 0
0.489708 12.4291 -8.96181 91 55 18
0.691315 15.1918 24.8336 97 65 8
0.800423 11.7933 -9.68199 104 68 10
-3.74632 -9.56487 -36.3844 86 101 87
0.61956 -7.53727 -13.5125 114 135 116
-2.2375 6.81519 -14.3984 118 80 21
8.40201 8.03651 -5.3459 97 109 94
6.56292 -6.8124 -11.0096 171 160 117
4.80741 -22.0694 -7.19328 60 72 61
4.13381 16.2471 4.11519 69 51 14
3.29311 12.0511 20.6373 85 63 17
-9.42709 -6.36013 -50.1949 63 65 60
-4.08525 1.86584 -15.0232 135 126 93
8.83859 10.1706 5.65195 70 83 72
8.66424 -3.57735 -8.25903 127 129 101
-1.5509 -3.71911 -25.2557 94 89 53
9.06219 9.12594 2.36656 94 110 96
0.50071 18.3737 2.16906 69 47 11
-7.14986 -8.60449 -41.0449 60 69 59
-0.624903 16.0079 26.7709 63 44 13
-2.9914 11.9518 -8.03313 99 86 61
8.04963 -0.983032 10.3741 164 187 164
6.04163 14.9755 6.62932 89 88 64
8.56396 9.35489 1.52742 116 133 115
4.40799 15.8997 2.65301 90 77 35
0.292862 -0.923431 -20.0121 121 94 37
0.271793 -4.07484 -23.3051 117 112 83
-4.86472 13.4698 -2.21551 86 59 3
-0.592419 -2.72927 -22.8651 109 84 40
5.36103 12.7547 14.6698 71 65 53
5.85428 7.91102 -11.2346 120 130 108
4.52824 10.2163 20.869 62 79 66
8.30583 6.07255 -7.6703 110 129 112
-2.11467 -8.27016 -30.4954 81 82 59
0.882654 4.12715 -15.3566 118 93 50
-2.25189 -4.12643 -26.5725 112 97 58
4.24127 -4.50405 -11.3303 172 194 166
2.78648 -1.0936 -17.428 106 115 97
0.052803 3.67848 -16.7475 129 101 68
0.282427 17.6483 30.1377 63 35 3
3.65838 -23.284 -11.7035 157 170 147
-0.294197 17.3648 -0.634083 87 56 17
-5.47141 -27.1651 8.20299 64 74 62
0.433604 16.4836 33.6812 55 38 12
-6.92782 -8.06496 -42.0224 62 69 58
9.65168 -1.55686 -5.41816 75 89 78
-2.53608 -3.09698 -25.7672 123 108 67
8.20816 8.64065 -5.36638 118 132 110
1.68779 15.9471 25.4148 164 173 169
1.77803 16.7194 11.7406 61 47 14
6.85023 11.0997 12.476 62 64 56
-1.5213 -7.60525 -28.8654 112 114 85
6.60111 -4.4856 -10.403 148 143 105
3.95976 1.94669 -14.4157 117 114 89
9.1994 3.49695 11.4954 62 68 56
-0.39126 16.1909 26.8 86 50 5
-5.86784 9.24749 -7.56903 107 88 34
6.87925 14.5278 5.67459 94 74 39
-4.66615 11.8046 -5.53006 97 62 14
7.48067 13.9686 6.40926 70 74 59
8.20618 -1.26345 -8.19043 125 145 126
4.82696 -4.31876 -11.1353 167 186 153
6.50117 12.0047 12.2071 61 70 54
-5.55213 -8.5369 -40.0595 83 87 73
3.57574 10.8412 -9.85552 95 55 1
6.20517 12.7111 10.7666 64 73 64
8.81953 2.39532 10.2441 142 160 139
5.76244 14.5261 -3.46402 73 79 65
-4.96669 12.2704 -3.99757 74 58 29
6.59243 11.6814 12.8187 63 62 47
9.01702 -7.98014 12.6302 154 136 84
-2.89366 -9.01441 -33.974 67 73 56
3.98912 14.0201 13.3641 65 61 39
3.91309 16.2353 2.5634 70 58 39
7.71284 9.44002 -5.73953 133 131 112
-1.51797 -0.050354 -21.4551 124 98 45
9.70165 4.63167 -2.78571 70 83 71
3.47291 15.7831 -0.294269 83 72 51
4.4465 15.0943 -0.71429 66 47 12
6.76846 11.1841 10.1982 65 75 66
8.4495 -3.90121 11.8463 156 176 150
4.92862 11.5389 -8.03675 103 87 61
7.66937 6.56474 -8.54364 129 146 126
-3.17905 -8.92209 -34.8595 96 106 86
5.99106 -20.3832 -11.4696 173 164 126
-4.37221 -2.77628 -19.8063 88 86 59
1.63589 17.0773 27.6327 104 69 36
2.56133 15.2243 24.3604 114 93 37
7.80961 7.6864 13.5294 65 75 64
7.52428 10.602 -3.63609 61 67 56
-2.95857 14.7562 0.273682 56 37 4
-4.9081 12.3825 -3.72454 86 63 26
0.526741 -4.62088 -23.2286 110 114 93
0.177986 18.3186 7.86637 53 38 7
-1.71925 12.901 -8.63554 111 67 24
-0.875206 9.83068 -11.9528 127 70 11
-4.2604 13.8545 -0.409984 51 33 1
-3.48315 14.2528 -1.176 72 45 7
-0.603729 2.58714 -18.3487 106 77 42
7.89707 12.9819 4.83726 106 101 79
6.52817 11.0028 10.841 68 79 69
0.0485687 14.507 -6.06058 106 60 15
-6.45698 10.494 -5.18855 72 73 54
5.98608 10.7831 -7.59944 87 75 49
6.42641 7.31794 -10.724 94 106 88
8.97451 9.91864 2.93289 67 85 71
4.67479 11.016 -9.1397 93 78 57
-2.94396 8.41472 -12.6094 111 77 19
-0.786671 -1.83956 -22.2816 114 97 48
3.60432 11.9252 -7.7073 101 71 18
-2.76384 5.49101 -14.9291 120 103 81
3.22412 16.56 7.20863 71 56 34
8.37875 9.05989 -2.70202 52 56 42
8.51986 1.59091 9.91449 152 163 134
1.06782 0.305664 -18.2367 124 96 35
0.864033 9.51302 -12.0895 129 81 38
8.08655 9.32888 -0.0520449 133 148 127
0.148597 5.56917 -15.2796 127 87 37
4.62918 14.8592 9.23365 68 67 54
5.20859 -11.1428 -11.7513 164 177 146
5.35466 8.05619 -11.61 154 137 100
-5.27518 -10.2545 -40.5286 75 92 75
5.77247 12.7053 14.4247 63 71 55
-2.28722 -0.178406 -21.8466 140 112 62
-10.5592 -6.98509 -50.3322 58 71 61
-1.93065 -4.39061 -26.4549 116 103 65
0.310884 15.8361 -3.9917 106 61 27
2.50235 14.5012 23.7345 135 104 72
-1.52547 0.676384 -20.7721 131 103 51
-0.58832 12.3539 -9.39655 103 58 7
4.15035 7.49151 -12.5627 187 152 90
6.00508 8.22221 -10.6607 108 115 97
9.64983 1.15343 -4.58158 80 92 80
-5.41227 11.2915 -5.41415 93 85 57
-1.80785 13.399 -8.00661 109 82 22
6.47552 13.078 -0.750341 101 100 73
3.38137 12.7368 22.5173 68 76 62
5.16956 -8.35544 -11.5042 172 185 150
-1.61424 -4.04628 26.8434 72 82 72
4.31183 13.3348 13.9222 67 54 34
-5.22755 -8.82909 -39.8824 62 68 55
2.81267 0.333248 -16.7001 113 101 70
8.80857 6.1177 -6.54385 92 109 92
-6.16831 -17.0736 -0.471596 163 186 168
2.99903 14.7958 24.3883 94 91 68
2.30964 13.7539 15.0697 62 68 54
-3.5612 -8.85252 -35.7038 90 102 83
-2.98519 0.395142 -20.3775 82 73 54
1.74354 14.1975 -5.92732 97 58 3
1.25885 6.44086 -14.0047 154 121 67
4.18106 15.2657 9.60667 65 57 32
-9.35036 -6.37454 -50.4369 64 67 59
7.17429 -3.77099 -9.74385 145 145 112
-1.31835 -0.384579 23.7142 65 81 69
4.12163 13.9824 13.3391 64 59 37
3.50945 -22.3685 -11.4655 165 179 150
6.01223 10.676 16.3367 68 82 69
-0.199166 -3.6629 -23.4809 126 106 60
-4.13756 4.75533 -13.2659 121 103 79
-4.39318 12.6302 -4.09911 82 57 7
3.73759 8.90463 -11.5766 139 92 29
6.47127 13.5451 8.51592 73 66 41
7.75309 -0.289459 -9.28216 109 128 111
9.20683 0.714016 -6.47502 100 114 96
-5.21163 6.45509 -10.9017 129 120 89
2.37538 12.6018 20.6459 67 40 6
4.41872 10.2987 -10.4087 118 98 74
7.65933 11.0178 -0.0237007 112 132 115
4.21007 16.1066 3.05568 69 49 9
9.69844 3.25177 -3.596 76 90 78
6.1879 -16.3762 -10.9645 111 127 107
-2.85734 14.024 -4.12385 87 65 19
7.22591 3.22108 -11.7223 137 150 133
3.02436 12.6851 21.5702 93 69 18
3.24987 12.2514 15.3129 66 60 35
7.50755 7.18911 10.0817 69 81 70
8.56427 7.45846 -5.23635 79 91 79
-10.5171 -5.85261 -51.7623 60 69 59
-2.69956 0.313644 -21.0255 128 116 83
0.468958 -0.637413 -19.6223 130 96 42
4.49519 0.909758 -13.9561 119 135 118
-9.05273 -6.65997 -49.3759 59 68 58
8.8867 5.71525 2.6822 71 85 73
9.20424 4.36738 -5.28705 69 80 70
-3.90624 9.97477 -9.18288 110 96 62
8.93467 5.58875 -4.70252 79 95 83
9.41547 -4.33249 13.3275 81 93 80
-3.22792 2.17273 -17.4974 102 93 65
5.97513 6.02991 -12.3528 125 101 56
-3.58497 6.45002 -13.2775 121 104 78
-3.35623 -8.19505 -33.3979 88 86 61
0.123587 16.1443 35.2246 55 41 12
0.0722427 13.8983 -7.06254 102 71 41
2.37032 9.55531 -11.3062 106 75 25
7.51266 11.1031 -0.372398 91 109 98
-6.8268 5.31352 -9.87323 138 137 102
-3.32538 -6.69625 -30.5308 104 96 65
1.50789 15.368 24.6563 140 132 102
-1.28927 13.7737 -7.57951 108 70 19
4.26935 10.0325 -10.7855 127 112 84
5.12107 15.2443 0.618629 90 62 23
-2.78697 9.7841 -11.4309 143 119 92
4.41488 -11.1349 -11.9783 170 179 151
7.32141 8.08334 10.2382 87 100 85
2.4217 -6.86103 -12.307 157 181 157
5.9151 0.0788879 -10.9203 138 156 136
3.22784 14.6712 -4.7933 123 84 54
0.613462 16.6246 27.0493 89 58 8
7.54801 -8.1696 12.8968 121 111 90
1.29086 12.6684 20.8886 81 46 6
-1.38144 -3.67163 -24.9242 101 88 51
7.60344 13.8545 3.66426 65 76 65
-7.55904 -19.7363 -0.244675 146 177 155
5.99217 12.5249 -4.30261 102 116 103
2.73094 12.9189 21.7773 100 73 47
8.57958 9.03455 1.09859 67 79 68
0.260773 18.0959 1.03793 93 62 10
-7.14798 -8.34263 -46.8069 100 115 101
-5.8559 11.1982 -4.82192 73 54 25
-4.63042 -6.98956 -26.7961 85 85 69
-4.66622 13.4646 -2.41067 102 67 11
2.09338 10.2069 -10.7772 146 129 76
-1.47707 13.7588 26.3484 112 71 11
-3.78393 -6.60397 -31.0429 100 94 67
5.12962 15.2309 5.57206 76 67 45
2.7392 16.4769 26.748 86 70 43
7.32879 10.8443 -3.8959 67 66 58
8.50839 -5.34203 -9.3081 136 129 93
7.82451 -22.2897 -9.18687 59 64 53
-2.23438 -9.53315 -31.1049 71 85 71
-4.09482 -9.33177 -37.5266 97 110 94
-4.62656 2.59248 -14.0762 142 127 88
-6.22782 2.02503 -12.1901 117 131 110
2.91468 16.1313 26.3907 88 84 66
4.84614 9.28577 18.9312 69 76 64
3.43889 16.5147 5.02919 75 69 47
4.90419 13.6943 13.3525 67 67 49
-3.59164 11.9278 -6.66846 108 82 55
4.12583 15.0539 -4.29646 106 58 11
5.92256 -18.4296 -9.99055 64 76 65
1.70944 17.2672 1.04942 65 59 33
-1.85146 -5.50586 -27.2117 123 106 71
0.948002 17.2667 -0.186874 78 62 43
-2.60832 14.9956 -0.922775 72 46 5
5.34175 15.2797 1.54279 70 61 32
-4.18618 0.207054 -16.3874 132 126 94
-2.50483 -8.42084 -31.7108 92 95 76
-0.673014 -1.91181 -22.1768 107 91 38
7.75173 5.80476 -8.43988 122 141 123
4.01836 15.8211 0.941784 83 47 12
9.5291 1.89375 10.7637 132 120 82
8.31931 8.0375 -5.7458 71 79 62
-3.32232 -6.83066 -30.6315 105 97 66
-4.95837 5.08984 -12.1028 137 126 93
1.51652 6.48007 -13.8705 165 138 92
2.80289 10.6993 -9.99113 122 85 45
4.37871 15.8319 7.12357 78 66 39
2.25891 13.6234 15.2727 63 67 55
-8.40761 -8.3926 -49.3187 93 109 98
6.21647 2.16488 -11.6348 110 122 105
6.87914 -13.6849 -10.7705 136 142 116
-0.199526 15.0594 -5.38447 83 46 3
9.58992 -0.165001 -5.46525 84 98 85
3.63792 7.60821 -12.542 144 97 54
-0.98616 8.6101 -13.0025 195 158 91
-8.00693 -7.37344 -45.4673 59 66 55
0.432938 12.7313 -8.56538 109 71 31
-6.44684 -8.135 -41.772 72 79 65
-8.72375 -6.86272 -49.5236 78 83 68
6.92268 7.97383 -9.33403 113 126 106
1.6294 6.21454 -13.9077 160 126 74
6.50562 2.08338 -11.4081 108 121 104
-6.11154 -8.27628 -41.9863 67 75 63
2.51879 17.0457 2.82469 65 50 38
8.06332 7.37144 8.06661 65 76 66
0.838005 11.0841 -10.476 114 75 30
-6.65886 -8.06271 -44.3403 73 83 72
-1.67343 -4.41921 -26.0938 112 101 58
-3.98794 -6.71862 -31.4882 114 112 76
2.6988 17.0468 6.9556 59 49 20
-3.58194 11.2178 -7.8813 101 74 30
-1.05285 4.83905 -16.3561 121 77 10
-0.536163 -6.46547 -26.5514 125 113 77
-0.60352 18.0054 1.18449 51 34 8
6.14255 12.6458 -3.81645 87 105 94
0.74852 16.8915 -1.04462 105 93 67
6.10812 14.9667 6.50728 93 92 66
3.25927 11.6883 27.7751 66 71 59
2.34513 -21.5992 -10.4362 129 139 117
-6.4527 -8.14256 -41.1414 64 71 55
-2.80849 14.1721 -3.40927 77 54 11
3.99683 15.0682 11.679 77 74 46
9.58118 0.255714 -5.32143 81 95 82
-0.719955 3.8581 -17.1416 192 179 137
-3.37724 -26.3847 4.30384 107 126 105
8.92808 7.08563 1.38944 75 89 77
9.16668 6.20444 -3.86298 92 109 94
7.53326 8.26241 -7.97599 100 87 66
2.67163 14.9275 24.1827 120 100 67
-2.59617 11.6233 -9.45504 127 95 50
-0.183308 16.0916 -3.61411 73 37 0
-1.99849 -2.6769 -24.7817 114 97 59
6.94995 10.0027 14.835 67 77 67
8.3295 -23.9402 -10.86 134 146 124
1.47512 17.8334 9.26923 62 54 37
5.22032 14.474 -1.64991 74 71 48
2.1827 17.4099 4.66154 66 53 24
-4.61654 13.1422 1.66436 57 50 33
8.53212 4.97879 12.2902 75 80 64
-0.500816 -6.97034 -26.81 99 107 86
0.937002 12.8337 -8.24463 98 54 15
1.61525 7.27171 -13.4323 144 116 69
6.18495 -1.19106 -10.4951 139 159 136
