ply
format ascii 1.0
comment Created by Open3D
element vertex 1372
property double x
property double y
property double z
property uchar red
property uchar green
property uchar blue
end_header
-8.0064 -0.380657 -0.100037 59 71 60
9.22366 4.95648 -1.96919 61 70 62
7.10873 0.796551 14.4546 69 79 68
-4.05348 11.8555 -6.17007 96 70 24
5.02816 0.238731 7.28822 83 96 84
3.32766 9.30806 23.8216 65 75 65
0.0633125 -0.0212517 -19.5229 101 78 36
2.75038 12.9852 33.1918 62 69 58
-6.88832 5.84477 4.95956 59 72 61
-3.37879 -1.34745 -21.5373 77 76 60
-7.95773 -16.7254 1.64422 65 79 70
6.3694 12.4193 -2.27264 81 96 81
7.47929 -22.0896 -11.1303 176 177 135
8.1172 0.654325 -9.06638 101 120 104
-3.9172 -7.36019 -4.78896 137 161 142
6.1874 12.6834 -2.70591 75 93 90
6.91794 7.30947 -9.66124 121 140 119
-1.93629 -1.41773 -23.2712 122 103 50
-4.19789 -4.03505 4.48656 57 67 59
-8.43027 -0.388718 -7.46421 78 90 78
2.97213 -20.5604 -7.24303 53 66 56
6.5027 11.9466 12.4574 64 70 55
1.88679 17.8511 6.16402 79 63 31
4.60064 1.61326 -13.7081 119 139 119
0.757521 15.6201 13.2091 53 37 8
1.82872 11.5844 -9.58944 93 66 18
-8.55706 -6.95761 -48.6485 64 73 61
-3.89197 -2.05396 26.4801 62 56 38
1.85452 14.5078 23.6103 123 99 57
0.138683 6.64328 -14.5682 155 122 69
-0.825571 15.4409 10.5477 61 46 20
-6.34953 6.03545 -9.79547 135 119 83
-0.790079 10.6129 22.0485 62 58 37
-2.50238 -0.503675 5.91651 61 70 63
-0.426357 15.0721 12.0871 58 51 24
-4.46806 7.7703 10.4726 71 84 72
7.71133 -7.03867 -10.4938 138 123 74
7.74012 -8.26597 -6.58748 62 76 69
6.28036 12.7065 -2.13758 86 98 80
1.904 3.75329 17.8216 65 77 67
6.26414 -20.4872 -11.404 164 153 117
-7.13026 -9.21293 2.86797 71 85 73
-1.60367 -4.06071 26.1725 97 117 100
7.66982 -23.8378 -8.37852 63 75 64
5.54099 -9.9707 13.5824 51 59 46
-4.33673 13.1295 6.6073 49 32 4
-2.61092 -8.40875 -32.3531 86 90 64
-4.75935 -7.68607 -28.7105 87 95 77
5.22875 -2.21151 -0.0603409 59 77 63
5.9918 -23.7461 -7.10815 62 74 62
-6.42107 -11.6456 -1.35689 179 211 188
4.99306 7.16177 -12.295 156 137 95
2.55144 14.7744 24.0147 128 102 80
-8.49801 -10.7034 1.20537 62 77 67
-0.0113316 18.375 7.20284 51 35 17
-2.50579 -5.01602 25.6881 146 168 146
-6.3572 2.02162 -11.8569 80 90 78
-7.63837 -16.9106 0.279205 110 137 119
-6.5686 8.98534 5.08656 58 68 55
-2.4258 12.222 31.9162 63 49 22
3.80227 -22.6082 -11.6371 171 178 146
-4.2155 3.79633 19.3174 66 76 66
-7.93179 -6.30663 1.44048 62 77 72
-3.54419 -7.41895 -31.87 95 89 62
3.4257 -0.435921 -16.0266 88 99 84
4.0543 -7.62378 -4.74324 72 88 77
-3.6137 -9.28868 -23.021 54 65 55
-2.24842 0.81382 -20.7451 133 103 38
7.90545 -8.21671 14.9895 74 86 75
-1.11563 16.6789 7.20304 48 30 10
-0.669178 17.0412 -1.17471 74 42 0
2.66869 -19.3368 -9.45166 60 69 58
8.14071 2.43593 2.29301 70 84 72
-3.70351 -0.634747 -17.7909 106 103 73
9.58765 1.8239 12.2552 67 73 63
6.2782 13.2661 -0.990364 86 87 68
0.564999 16.766 -1.80426 125 95 67
-3.97084 13.9784 2.5308 56 37 10
-5.23933 -7.3317 -24.6377 70 79 67
-4.20808 1.51753 19.0927 73 84 70
-8.3463 0.378166 -7.74579 75 87 74
-3.32915 3.02568 8.21748 57 68 59
-0.859079 5.71458 -15.5179 135 98 41
-3.5232 1.00786 -17.1111 68 71 60
0.223116 11.9358 20.6285 67 47 23
-6.49615 10.525 -4.32333 59 63 52
9.07818 3.84477 -6.02625 110 129 110
-3.91528 -0.387759 21.7364 67 75 60
-5.67944 10.0683 8.58285 62 71 58
1.44469 9.35056 29.9395 89 103 90
4.55926 15.9457 5.14932 71 71 51
-1.29724 8.64361 27.1606 56 63 54
-6.00512 0.373371 -13.2792 79 96 77
-7.14979 8.52853 0.0646248 61 61 47
-6.82303 -27.1267 8.8817 67 76 66
-2.49354 -6.53358 -13.6099 55 66 57
0.0799484 15.298 -4.85141 102 57 10
-8.10331 -7.19697 -47.0137 65 71 60
-1.46616 -7.87516 -6.51054 96 116 101
2.59858 -11.815 -7.89631 47 61 52
-9.89184 -27.7405 7.88937 68 83 72
-2.19585 -2.99683 -25.3285 103 91 44
-6.41988 -10.5414 -34.9068 59 70 62
5.33083 -8.90525 -6.0952 67 80 72
2.30135 -22.8225 -5.99724 57 70 61
-8.04404 5.16631 1.16215 72 86 75
-0.934341 4.34044 21.0386 73 86 75
2.17969 -7.8191 -3.86498 69 86 74
-1.04628 11.0691 24.4284 84 70 43
-5.19801 -17.1242 1.98893 67 78 70
3.59633 16.4248 4.98473 73 67 48
-4.32189 10.2781 -7.89751 120 96 65
6.27537 14.3318 1.44081 71 74 54
-7.53699 -4.4279 1.31211 60 74 63
-3.40353 1.06755 -18.1639 66 67 51
8.95113 -5.12964 14.7707 70 79 68
8.11842 -9.81435 -8.2867 62 76 66
-4.6255 -12.5053 0.123026 85 104 89
6.15446 15.2291 3.76492 84 82 59
7.42966 1.26489 -0.427124 62 74 66
3.47392 5.10688 17.0346 69 82 71
-4.09939 4.94241 -13.2447 117 105 81
8.77641 7.82277 -3.82187 93 102 91
-6.10119 11.9899 -1.89503 94 87 63
1.2513 17.8049 29.908 69 49 22
9.62479 -0.893787 -5.23584 68 80 71
-2.63251 1.6856 7.39564 58 69 59
-7.71485 5.50543 1.51451 71 85 71
6.78287 8.65543 -9.01934 94 102 86
8.50269 -2.23285 -3.48346 64 77 66
-4.06401 -3.98358 -23.1183 88 92 73
2.53843 15.1464 -4.37831 101 50 4
-3.11006 8.43217 12.5557 61 67 50
-1.01057 16.9506 30.4649 49 33 13
6.65297 2.45295 5.7475 61 68 63
-3.0154 -7.5445 -31.1039 99 88 56
-1.76865 -8.99569 -29.8222 91 105 90
-1.37253 14.1555 34.5114 60 54 30
-4.66409 0.0864506 4.51297 63 74 64
3.13602 3.48403 16.1421 72 85 73
-0.112949 14.5631 -6.05328 104 59 15
-3.26231 5.34176 10.7131 58 68 58
-1.56883 13.6821 30.5238 80 90 75
-0.472736 -5.71208 1.39497 75 89 78
4.20349 -0.033926 -14.5956 138 154 127
5.89984 -9.82426 -11.5082 166 172 135
-5.29766 13.0033 -0.0572147 55 47 25
5.09954 1.9335 -12.501 102 121 105
3.33397 12.6573 14.7924 66 64 44
-5.97873 10.7518 5.05132 59 64 51
2.41384 2.41305 16.2784 77 91 80
5.46413 13.6849 12.5501 64 69 51
-3.92794 -1.68903 4.71403 66 77 67
5.93895 -8.27837 -5.97186 68 81 73
3.87711 -9.86738 -6.14418 68 82 74
-2.33207 14.5741 -4.50191 72 49 9
5.45198 7.9273 16.911 64 77 66
-8.95808 -6.86386 -48.2634 58 69 56
3.33755 13.0796 22.7915 89 90 69
2.17624 17.358 2.74473 67 55 27
-3.59853 14.2281 3.57233 53 40 13
-5.7952 11.1401 6.90235 55 58 38
6.22584 1.58494 7.61081 88 102 90
-3.61479 -2.05644 -22.3182 66 69 54
7.05423 5.76069 -10.7976 76 81 68
-2.5214 12.8122 33.6251 46 35 10
-7.96167 -19.4124 0.250589 116 140 123
4.49622 9.99583 20.9362 61 75 64
-5.68694 9.01786 9.09805 66 79 64
-5.35145 10.8592 -6.23692 125 108 78
6.44264 13.6143 8.94392 75 66 47
-7.76003 3.1002 -7.28566 63 74 64
0.0303116 11.0736 19.6206 75 72 56
-0.76244 11.6209 39.1341 79 94 84
-6.92316 8.50531 4.14419 65 73 59
9.62796 5.18134 -2.61186 65 76 66
-0.276844 14.754 -5.87141 100 55 12
-5.88398 -14.9931 2.99553 78 92 82
-3.80992 6.46413 18.0171 55 46 29
-8.45392 -1.06344 -5.99949 65 77 66
7.23394 10.3341 11.956 70 70 58
-1.97986 2.73277 21.2784 63 73 63
3.45339 -18.7363 -8.34674 68 84 74
-6.6694 -7.90843 3.2171 78 92 81
0.301895 14.026 37.5156 70 76 63
1.84517 12.0257 35.6591 65 72 58
-2.37448 15.2339 -0.128342 65 43 4
6.29406 6.50935 14.9321 70 83 72
7.22101 0.367681 -0.00535965 67 78 68
-0.00929642 3.44386 19.5242 68 79 69
-1.23771 9.95241 16.1113 50 31 4
-0.50013 18.2977 5.44463 54 36 8
-0.850979 13.7057 -7.65567 108 59 19
7.12257 10.4538 12.4105 62 70 57
-1.43318 -8.06314 -29.0472 108 114 84
3.20908 10.6672 30.4968 80 90 74
2.15127 5.41655 -14.0202 155 119 70
-0.561844 2.46831 19.055 72 84 73
-6.84952 8.54834 1.03012 63 72 63
-0.765617 13.276 13.1461 56 59 40
-6.7069 -15.8796 -0.506958 145 178 155
-6.21362 -9.49668 3.36839 82 97 86
2.63273 11.7894 -8.65601 107 65 19
-2.15989 12.7776 10.4576 58 56 42
7.61917 6.77068 14.0257 69 80 71
-5.59937 -16.5734 -0.178925 123 147 128
2.98952 -8.93029 -5.33868 71 85 77
-7.24205 -10.4006 -45.2962 99 118 102
-2.82451 8.99701 13.4991 58 53 30
-1.60625 16.1145 -1.32821 66 43 10
7.09715 -6.07324 -4.94281 68 80 74
-3.34359 -4.29362 4.53371 57 67 59
-7.18445 -10.3188 2.87293 73 85 75
5.6119 -20.2434 -11.477 188 184 147
-4.05462 13.2444 5.58481 50 45 26
4.39129 -22.8623 -11.7841 180 186 149
-2.96682 12.4191 -7.28263 101 79 46
4.94262 -9.88694 -11.7459 165 170 138
-5.20005 11.333 8.36437 58 70 57
0.688408 16.8895 32.5213 59 46 19
6.71278 2.19498 8.12203 90 103 90
8.41114 8.07516 -0.68887 65 77 65
9.83065 -0.0282745 12.569 67 75 64
7.19658 9.93796 13.0579 62 68 60
6.1757 -2.22324 -1.60194 59 77 66
7.7515 -6.69103 -5.57242 64 76 68
5.43236 11.762 -7.16929 108 97 71
2.94519 15.5491 -2.24391 65 43 9
1.7258 15.1898 24.3585 140 138 106
-7.88999 3.54659 1.88335 70 81 70
-1.10025 -0.0960083 21.9279 66 79 67
-1.09196 1.0617 20.119 70 81 70
-9.88752 -26.5707 3.60253 101 124 109
-1.35829 8.21531 24.0236 50 61 50
-6.24674 7.58588 8.41907 64 76 65
2.07262 -3.5131 -17.173 59 70 60
7.8273 5.94649 10.7566 92 100 83
4.1941 -25.1397 -6.35892 58 71 57
8.30782 -4.43291 15.1617 71 83 72
2.59571 10.0468 30.1755 86 96 86
-5.86151 -17.2564 -0.339043 142 167 148
-8.0416 4.92447 -1.89742 64 72 61
-4.99709 -4.76987 25.7295 126 121 72
-1.93645 15.7249 -1.05287 67 44 9
-1.2775 -8.85161 -18.3306 59 70 60
-2.77977 -5.07416 27.8477 80 94 82
-4.32064 9.31399 -9.0952 104 92 62
-4.78996 -4.9002 -22.2915 84 85 64
0.27557 17.8717 0.472806 94 59 15
8.15044 2.39353 2.6548 67 79 69
0.287502 16.0873 -3.41738 77 47 24
0.725655 8.64555 28.3669 68 77 65
7.2325 2.88475 4.74353 59 72 62
-4.79822 7.45731 10.1346 69 82 69
-1.3596 9.21048 -12.5119 163 129 93
-0.602345 0.83551 18.7795 71 83 72
-3.16544 -5.3629 4.32851 64 80 70
0.413155 4.04438 19.8727 63 74 63
0.987801 1.84821 16.8378 74 85 75
8.11278 -6.13423 -9.82396 150 157 127
-6.78448 7.13357 6.45705 59 69 58
6.33591 -14.4115 -11.0881 135 155 128
4.4843 6.94473 19.3524 61 71 62
2.63583 15.4102 12.8345 67 65 48
-2.99056 9.89422 11.6508 64 74 63
2.90951 -19.7298 -10.7793 116 126 104
2.99813 10.26 26.9994 95 107 92
-6.75117 5.63602 3.00858 59 72 61
-0.598976 13.0938 25.0803 90 89 67
8.20181 8.75922 -2.21248 57 65 56
7.47614 -5.54183 12.7435 156 181 152
1.64766 -22.8533 -6.8671 55 69 59
0.251919 18.7418 4.58128 71 49 19
-4.99662 6.97085 9.71664 65 77 66
-1.89058 15.7968 30.003 65 56 31
9.25242 1.58742 12.7665 70 79 67
-6.6323 9.44019 1.0533 62 67 54
7.26029 7.19719 -9.09792 124 135 118
8.24333 8.5098 7.74248 68 79 69
-1.01276 -6.97774 -27.6852 118 129 97
6.86112 -12.4632 -8.44745 61 73 63
-0.937675 -5.62138 -26.3644 126 112 63
-2.0107 15.4477 30.8639 70 82 64
7.01665 -9.49836 14.7552 70 81 71
-6.07655 9.54877 7.92236 54 56 42
-4.60458 2.86713 6.99067 53 64 54
0.0791168 -6.96427 -18.4533 62 74 64
-3.41288 2.0665 -17.1407 93 96 79
-4.75994 -7.80414 -29.7293 64 71 61
7.46165 -8.56336 -6.58008 63 73 64
5.96782 14.8125 1.28993 73 75 62
-1.2962 -2.37125 24.8882 70 80 70
4.42342 -5.09827 -11.345 171 192 162
2.3548 13.7274 15.0165 62 68 55
4.70712 -21.5211 -7.48624 59 71 60
-4.38065 -5.03233 -23.6696 93 94 75
1.24245 -9.9563 -7.63733 66 78 69
7.10835 -4.82125 12.6198 136 159 135
-1.48292 11.7012 35.9229 64 75 61
-0.985739 -2.13632 -22.7962 108 93 53
-4.83711 -4.94674 4.35708 62 75 66
2.70642 15.4795 31.5498 59 67 61
-10.3302 -8.09442 -51.8581 120 139 119
2.13861 17.5086 5.1155 80 59 19
3.59335 -8.59108 -5.26325 70 84 77
-0.3162 2.10315 11.2894 62 73 63
-4.89234 -25.7779 6.42098 58 64 52
8.5866 -0.52002 10.4639 156 174 148
7.60247 -0.258203 9.88451 159 178 157
5.70848 15.479 4.03523 83 70 44
1.56896 13.7683 -6.58304 138 91 26
0.95957 15.004 24.4667 107 67 12
4.55753 -5.8454 -3.30734 58 80 68
8.50879 3.87729 -1.37965 60 71 61
8.9484 -3.23688 14.7557 66 77 66
0.49813 15.5752 25.3661 102 62 11
5.11495 -2.69595 -10.8874 156 177 155
-3.69519 10.236 10.5772 66 75 61
8.20084 -7.93101 15.0125 72 84 73
3.72184 1.25715 -15.0456 133 124 88
2.28067 16.6415 31.6704 71 52 27
-3.77007 -1.37384 25.7108 66 62 49
7.10154 -7.62128 -5.87856 69 78 71
-2.23381 12.1039 31.3982 66 62 42
-1.10122 2.40599 -18.7794 123 84 15
4.73106 -7.95593 -5.28703 69 83 74
-4.33047 -25.3966 5.19381 56 60 48
3.12743 -14.7438 -8.72348 55 68 57
5.05644 8.72421 19.8206 64 76 67
8.92895 -8.05747 12.585 150 130 82
2.23842 5.77969 20.6919 68 80 69
-5.28883 -9.26109 2.86133 70 82 74
2.87558 10.85 -9.77672 117 77 32
1.67285 3.52346 17.8535 66 77 67
5.41869 -8.28558 -5.81217 66 79 71
7.29193 -2.96178 -2.95338 62 76 65
-4.99393 -7.24243 25.0658 134 115 74
-0.962753 1.6128 9.2548 60 71 61
-8.19658 0.709963 -7.15436 66 76 67
7.36697 8.05378 -8.4707 113 118 93
-5.22827 -21.695 1.3078 69 79 71
-2.92977 -7.00779 27.5831 80 92 81
7.23466 -5.0609 12.662 140 164 137
9.03766 6.64474 -2.05572 62 72 63
-0.216869 -8.08704 -18.7804 72 87 74
-0.433702 13.377 13.9157 59 50 30
-4.2766 -9.67701 0.207445 60 70 62
-5.45656 -8.47443 -38.9494 88 91 74
5.36861 7.81568 17.4642 67 80 69
-2.23614 6.14536 -14.8903 133 108 78
-2.85884 5.21785 14.6673 69 89 77
3.57213 11.9989 23.3308 61 72 59
8.37745 2.77821 9.70985 134 148 126
-1.53904 16.0377 -2.38077 63 44 4
8.73198 7.70327 -4.12037 88 98 87
4.22671 10.5028 18.7544 65 47 17
-4.90229 -7.91676 -36.0826 91 93 72
-0.756752 16.6357 -2.43834 79 44 5
5.99911 -9.82138 -6.71992 67 78 72
-3.66494 5.67214 10.5024 60 73 62
3.24245 15.5269 -2.70582 79 65 38
4.83383 15.5399 2.21591 74 66 47
8.60268 10.4059 6.65784 71 82 73
0.828625 0.507904 -18.2649 136 97 41
-1.51924 11.9692 13.431 56 53 33
9.06738 2.92705 -6.18625 140 156 131
7.61304 5.0819 -9.4432 97 110 86
1.80462 14.4854 -5.53276 103 62 21
-6.81885 -7.6841 3.25323 76 87 77
-5.11694 -7.73907 -31.6844 59 66 55
-9.61886 -26.2215 3.06551 108 131 115
0.591175 17.0693 11.1764 57 43 24
2.59377 13.0601 31.8717 110 119 109
8.94936 5.32421 1.13922 82 97 83
-3.52221 6.60722 -13.3402 123 110 81
-2.48406 2.44494 21.3538 75 83 73
0.415039 -6.23669 -21.2589 56 68 58
-6.01662 -11.0482 -41.4016 63 72 63
-3.8446 -7.6218 25.0503 133 142 119
-2.15576 -4.84388 27.6896 74 87 76
-0.0236397 11.4773 20.9667 88 86 59
-1.34673 0.757093 21.4165 71 76 68
7.01299 -13.4986 -9.39417 61 72 63
-3.02537 6.69184 13.6964 58 64 53
2.24619 -11.1177 -8.38798 53 63 55
2.02902 17.1652 1.74082 88 60 14
-7.434 -8.65057 -41.7331 60 69 60
8.62936 6.227 -0.351088 65 77 66
-6.64566 9.79729 2.86322 61 69 52
9.03764 7.28647 5.60654 67 79 69
-11.3707 -6.23763 -53.4118 170 194 174
6.8739 11.5926 -3.63798 59 64 49
0.254898 5.77596 22.6553 69 78 71
-1.95407 0.157776 24.264 65 70 58
-0.762962 8.27418 27.9177 62 70 57
-4.18391 1.46797 19.567 59 70 59
-0.436981 16.4147 10.3718 52 38 13
-9.03988 -7.79293 -46.7846 59 70 60
8.50677 -23.029 -9.56638 60 69 60
3.81171 15.9278 0.99702 90 50 13
6.69884 9.81201 -7.29337 94 103 88
-8.28516 4.80138 0.538361 64 79 67
-7.12619 5.86947 1.80953 67 81 70
8.51126 7.69858 -5.19618 89 101 88
-6.41284 10.6934 -3.40139 78 78 59
-9.34013 -6.39192 -50.2654 65 67 60
-2.48829 11.1454 30.8742 64 67 53
5.01195 9.35679 19.6202 86 94 82
3.31826 3.55232 -14.5482 153 123 84
7.61199 5.66248 8.60674 70 81 71
-3.16882 -8.9216 -21.6232 57 67 57
9.44601 2.78909 -2.48696 64 75 66
-8.15529 2.11155 -4.74574 75 87 73
4.68195 15.6294 2.48455 70 59 40
-1.43821 9.60349 16.5221 48 31 4
-6.24853 10.4875 -0.753085 61 79 67
5.43975 -20.2172 -8.68909 63 75 65
5.45103 11.6364 15.8809 73 65 46
-1.02319 10.8328 23.1231 77 56 23
-1.8796 16.0865 5.30777 57 39 13
3.78801 13.2393 -6.40771 146 112 76
2.73249 16.952 7.33137 65 61 45
-5.04254 -9.68977 2.34853 64 75 66
4.32211 -20.8265 -7.65764 59 73 65
-9.79376 -29.1605 7.75307 55 66 55
0.523964 15.9213 35.8403 64 58 34
-1.0141 8.71481 29.2177 62 71 60
1.56171 -23.7763 -9.36431 81 97 79
-0.235115 18.5419 4.51674 53 31 11
-1.9945 11.2918 -10.278 133 83 19
-3.04092 10.6247 -9.93833 110 83 35
-10.5548 -27.8368 5.03779 91 111 98
-7.82636 -6.65157 2.04228 64 76 65
0.187805 8.96129 35.3372 73 81 72
5.03497 -6.17992 -11.2666 164 174 143
-5.57766 -10.2503 -41.6928 80 93 82
-0.748337 -4.80737 -25.3134 124 108 58
-4.53544 -10.757 0.68222 62 72 66
3.12342 11.7982 -8.42699 85 61 16
-2.99835 5.5702 11.7749 56 70 60
3.00846 -20.6891 -10.9736 158 170 154
0.953712 17.4008 31.4305 65 55 35
3.51614 8.11002 22.1825 56 66 56
-0.933968 9.77962 21.7036 59 58 43
-7.7114 -24.4766 1.28578 151 182 160
-4.72624 12.1513 -4.66685 89 66 22
-1.06964 -2.6513 5.36591 64 75 66
-3.34106 -1.61819 -22.9062 98 96 73
-6.68161 4.62555 -10.3344 139 126 85
1.96566 16.0022 25.4537 125 133 110
8.28666 12.1198 2.98647 64 78 67
6.92931 14.325 4.52253 73 80 68
-2.281 -2.64903 5.05449 59 69 62
0.510403 13.6008 23.0994 83 47 1
-3.26404 2.96389 -16.6501 108 98 70
3.95688 -2.87761 1.67194 52 70 53
-4.7092 -7.53955 -3.8836 117 139 123
8.38581 4.42253 -1.30093 62 74 65
-0.48455 13.4349 38.4125 63 67 52
4.11872 -3.73662 -11.4013 159 181 157
3.35343 11.2989 26.626 80 91 78
8.55854 -2.88909 -3.81858 65 78 67
8.75616 -3.11788 11.6391 154 171 145
7.50291 -10.4663 11.5958 158 173 151
-6.04267 1.77483 -12.4798 106 115 93
7.04733 9.62971 9.81102 63 75 66
-0.729576 -8.6738 -23.0425 61 73 61
1.23898 15.8534 34.959 61 60 37
7.88912 -10.1127 11.5693 150 153 127
-0.382957 8.53518 31.2482 75 84 71
5.14281 10.9284 -8.60695 100 91 61
-4.8032 -5.48252 -23.5298 94 90 63
1.52207 16.1374 33.399 63 53 29
7.81813 5.48656 7.37011 62 72 63
-1.24952 14.5322 32.888 81 95 80
3.26727 -10.7114 -12.0503 159 177 154
-0.688427 -5.69716 1.55877 73 88 77
4.67272 7.3185 19.0017 88 104 90
-5.01469 -7.51738 -32.3175 69 75 61
7.77162 2.16299 -0.505018 69 81 70
-4.75768 -10.9765 -0.644459 102 121 104
-3.83969 -0.0433803 5.2753 61 73 63
8.43766 9.18495 -3.00858 56 56 41
7.27159 8.35301 10.5505 88 101 83
-2.90701 2.06994 -18.4813 93 89 70
-5.48702 -7.24484 3.62672 77 90 81
-5.92294 -11.6908 -1.3196 176 210 184
-3.40559 -5.27713 -10.7843 57 68 59
-0.715897 6.40654 22.492 59 69 59
5.24549 -7.95225 -5.4613 74 88 79
-7.90962 6.1302 -4.08951 60 67 55
3.2224 -16.501 -10.7255 74 86 73
7.26811 -8.60281 12.9476 113 115 87
3.0256 -2.43131 3.8772 67 78 64
-4.8153 -2.22661 -17.5041 99 101 79
3.99683 15.0682 11.679 77 74 46
5.81706 12.5241 -4.70634 116 118 102
-7.97455 0.969723 -5.35365 63 77 67
-0.29047 16.8002 32.2693 58 39 9
3.6841 10.6118 17.9844 92 64 23
4.12606 6.4484 17.4445 66 78 69
6.59955 -7.6176 -5.66971 68 80 73
9.6227 0.988438 -4.84359 85 97 84
-8.51031 -11.712 1.39901 69 83 72
8.86402 2.311 -6.6366 132 146 124
-6.70964 9.31992 2.8468 61 74 67
-0.818321 11.0054 38.3914 78 96 76
8.15967 12.2376 2.37406 83 101 88
-4.18092 13.1468 -3.34394 85 55 6
6.27296 8.81465 15.8633 68 80 70
6.63718 7.64086 -10.0646 114 129 114
5.5571 14.8986 0.152486 86 67 19
-1.01233 14.1292 31.8125 64 75 63
-2.23285 -5.1161 3.89408 68 83 72
-1.23054 8.21401 25.7869 60 72 60
-2.39832 -6.94526 -15.0574 58 70 62
5.9893 -1.27771 13.7031 50 59 50
-8.66661 1.79661 -2.47085 63 75 64
-0.399628 8.20151 34.4098 79 94 81
-0.28137 15.1526 -5.23738 80 44 3
-7.0196 -20.4702 3.30614 79 93 81
4.435 15.5828 0.802189 91 55 9
-5.45863 -8.52828 -33.2239 63 70 59
-0.0691566 -1.49019 6.33656 67 79 71
7.96857 -22.9229 -8.84759 59 68 57
2.61251 -0.624475 -17.4975 175 166 136
-8.55222 -8.4295 -45.0025 58 69 58
-7.72213 -7.40195 -46.5011 62 71 60
-7.91918 -7.02433 -0.239939 99 123 104
-5.46272 9.7492 -7.27758 130 92 19
-1.84669 -2.62095 -24.5261 112 97 58
4.11825 -11.6656 -12.0749 164 184 151
-6.05034 -11.4222 3.15574 80 94 84
8.96404 -2.50294 14.6331 70 80 69
6.72239 3.84669 14.4295 71 83 71
5.99158 -1.52133 10.7798 60 68 59
-7.12825 -7.73952 -44.0243 61 70 56
-8.72496 1.10561 -3.24938 85 100 86
-1.99853 -6.27332 1.81376 66 80 71
-4.45034 -5.78302 -24.7188 100 106 83
-7.32382 8.68962 -1.7485 73 75 60
5.38881 9.56195 18.0042 61 68 58
-7.87434 1.30193 -9.09765 89 103 88
-3.3234 -1.31102 -21.8258 80 80 59
-0.976875 16.7558 -1.55978 61 43 10
-1.99358 -4.131 25.7525 126 147 126
-4.38758 0.816959 -15.7383 146 135 100
7.45829 -6.99489 -5.61935 66 76 70
5.98202 12.8351 13.1877 65 52 29
0.688282 16.5545 -2.21096 87 55 13
2.81873 4.16757 -14.4201 159 154 90
-3.61593 -2.23375 -23.3664 68 68 55
-8.52412 3.1215 0.782616 62 72 62
-4.1536 -4.43478 4.44533 57 70 60
3.32416 -4.42471 0.337963 54 73 56
-11.2956 -7.124 -53.0582 130 158 141
8.86004 5.01207 2.33092 68 80 70
-8.41181 3.97449 -3.37855 66 74 63
-1.46769 5.71868 21.0888 65 81 69
4.85035 15.1686 -3.82091 97 61 21
-3.7523 -6.8651 2.70094 65 77 68
-6.88844 -24.5101 0.957428 165 192 169
-3.94861 -8.81953 0.299109 64 76 66
7.21412 8.99815 -7.61678 90 90 71
2.38342 -19.9604 -8.965 59 68 59
-1.2877 13.9958 33.6986 56 57 41
-2.60552 -6.67036 1.86184 70 83 76
-10.8784 -27.8092 6.56531 64 81 68
-3.89725 4.87432 17.111 89 92 69
0.509529 12.3948 17.6878 45 24 3
-3.54832 7.3683 16.3868 58 57 38
-3.90013 -0.334991 23.1761 62 59 45
-5.13158 -4.09055 -17.3012 63 74 64
-2.54835 -7.10763 27.4316 77 90 79
5.6295 10.6114 -8.47844 92 68 25
3.25754 11.4132 29.7058 61 65 54
-5.15247 -10.9045 -29.5917 58 71 60
3.88018 16.422 3.73805 67 58 35
-10.3282 -26.5381 5.14693 83 101 88
4.14283 4.06389 -13.8111 157 131 88
-4.02627 0.928459 -15.9173 169 164 130
6.98396 -4.58223 12.5775 131 154 132
5.88673 -7.3084 -5.22801 70 84 76
8.96301 7.5525 4.84697 90 106 92
2.56828 5.54356 19.7699 64 76 66
5.0909 -15.8027 -8.80533 66 80 65
-4.87934 -4.3324 4.39125 61 74 65
1.30332 17.666 30.5383 62 44 11
-2.32364 11.1339 -10.1864 128 109 48
0.912254 8.82482 34.6849 63 76 65
-6.61136 8.53178 -7.60749 115 119 92
0.107738 11.0334 18.2408 66 58 41
-8.04214 -17.2692 1.00434 84 103 90
4.67697 -21.3725 -11.4438 177 186 154
6.72355 -6.27122 13.4891 123 132 108
-7.42742 4.1909 -7.96243 83 94 85
3.71627 -25.0871 -6.01781 60 73 65
-2.47351 10.0201 29.6462 53 61 48
7.07139 10.9092 9.66529 64 77 67
-0.510738 16.9043 9.55066 50 35 8
-5.72966 -1.07358 -14.1656 59 70 60
-4.99117 -2.88487 -17.617 87 96 79
5.10078 15.4158 1.3771 81 67 34
4.0804 -10.141 -12.0034 166 187 153
5.40988 -4.95311 -11.0112 168 178 144
-7.76033 -23.419 4.28227 66 80 69
3.47655 7.19551 -12.8979 145 111 61
9.49786 -3.39706 13.9123 68 77 68
-1.76288 -0.266638 24.6939 59 68 56
-5.03777 -5.15747 26.7068 71 83 71
1.55012 12.7282 -8.00447 119 81 33
-3.33473 -8.22404 -4.26046 120 145 126
-7.50712 -8.20538 2.35262 69 83 72
4.60059 -10.1435 -11.8547 171 183 150
-1.13095 7.98129 25.4913 54 65 55
1.18217 -8.34416 -12.687 159 188 164
6.0791 -7.62662 -5.52029 69 83 75
3.41705 0.0427122 -15.8342 108 116 96
-7.35373 -20.2807 -0.21286 152 184 162
4.09809 14.4954 -4.9287 120 76 30
-8.38556 -0.181622 -1.25562 60 74 63
5.79131 -8.10683 14.3962 55 63 51
-2.60583 5.21204 12.5105 57 65 58
-3.62047 0.47017 18.9041 75 89 74
-3.81838 -0.702492 24.594 57 55 35
-8.49083 2.69397 -3.40424 87 100 83
5.64936 -16.4683 -9.37543 67 79 70
-3.65015 9.88673 -9.78662 125 106 70
9.82595 -0.0679722 11.0444 120 133 111
1.65198 11.9532 -9.12111 100 58 12
-3.41098 13.9748 5.78045 51 40 14
-3.78619 -8.76526 -36.0203 114 119 97
-7.93479 -1.56451 1.36608 78 93 80
1.10492 -1.43404 -19.8833 125 94 40
-5.20351 -8.51132 -29.2639 80 87 69
-9.09553 -9.94474 -47.2386 51 63 55
-1.67028 16.1088 6.22766 58 51 28
9.20438 3.62682 -5.74151 104 121 104
1.47824 6.61981 -13.8087 156 132 90
4.82227 2.94923 -13.3079 125 140 119
-8.31599 -10.464 -44.0849 56 64 58
-3.62305 0.177331 5.55527 61 72 63
-4.84242 12.6104 6.12748 52 35 2
1.20352 -0.394424 -18.8287 116 86 42
6.84386 6.19704 -11.0368 75 84 72
4.21662 9.28033 22.2781 81 94 81
-1.15258 5.42911 -15.7755 123 90 30
2.18835 -21.0786 -7.50781 53 63 52
-6.28113 1.67222 -12.1319 116 127 108
0.590641 16.995 27.7241 82 58 7
4.63608 10.3819 20.1893 70 72 54
8.14529 4.85336 10.2596 100 102 80
7.11492 12.8781 0.29705 120 129 103
-5.07358 -7.52585 -34.5358 76 77 60
5.86282 -22.4819 -7.54165 60 69 59
1.5294 -7.88358 -3.43591 70 85 75
-7.7414 -7.72243 -47.996 82 97 87
7.78325 7.5696 12.4929 82 91 76
2.82529 10.1085 31.1101 67 76 65
-6.17046 -8.19966 -40.7958 69 80 69
6.97583 -8.99595 14.8313 71 84 73
6.82609 -11.3974 -7.80705 69 80 74
8.13959 -0.503908 14.4795 66 74 64
5.64611 9.24369 17.2035 62 71 62
-7.03081 -5.45286 3.73955 69 82 71
-1.43706 6.67197 21.1633 68 83 71
-0.676537 17.8979 0.848098 78 52 5
-4.71715 -7.19408 -27.0992 78 79 61
-2.38948 1.438 7.40789 60 69 60
9.2165 0.550148 -6.49632 101 116 99
1.18667 5.92738 -14.2442 139 115 70
3.83249 10.4497 23.4698 60 69 58
7.94894 11.3377 8.36778 63 72 63
-1.35119 -4.32465 4.41531 71 87 75
4.03383 10.6126 19.105 67 66 42
0.884842 -5.31585 -19.1297 53 64 54
1.06651 17.2731 28.1265 80 48 14
1.24475 16.9847 32.1591 60 56 35
-4.66626 -1.60316 4.3438 66 77 67
2.06229 12.6378 17.158 69 60 36
4.56595 -16.4235 -12.1638 172 184 155
-2.19797 -3.34571 -25.8177 127 103 55
1.18037 6.65369 22.7804 65 77 68
-6.34132 4.91701 6.07658 57 69 58
-7.6912 -23.6792 1.15617 157 189 164
0.0741177 11.0872 17.6137 62 63 48
-8.62002 2.16547 -3.50103 89 100 84
3.87704 6.34387 18.6818 92 109 96
7.56952 8.46014 -7.55209 87 87 68
-4.16204 -9.34645 -37.6848 110 120 106
-1.69976 -1.862 21.154 96 113 98
-1.34402 9.35683 17.0539 50 40 18
-1.54189 14.5624 9.47225 55 44 18
-7.29778 -22.2785 3.62628 71 85 74
-1.96982 13.767 28.0928 64 71 58
4.15222 9.79182 21.9632 74 83 73
-6.49591 9.88377 1.58832 73 87 70
8.65575 -3.46564 -8.20725 134 137 108
9.35861 -5.17423 -7.15385 85 100 83
0.045681 18.3657 1.90582 73 42 10
-10.1108 -25.9756 5.16865 68 83 73
6.04008 14.9876 6.53754 89 87 63
-6.22445 -10.2201 -43.5428 79 97 83
0.672462 11.6237 37.5457 66 73 61
1.5886 -4.28508 -18.5769 58 70 61
9.14159 7.93093 3.79116 73 85 75
3.60932 16.5392 4.10482 66 48 14
3.26812 16.6567 4.89742 70 64 40
-1.67067 12.6221 37.8434 66 68 53
2.22363 0.897549 11.9274 69 81 70
1.09629 14.0315 -6.51858 95 56 9
-5.4962 11.4003 5.27242 60 64 49
8.76164 -2.74874 14.7838 72 80 70
-0.662308 8.29516 28.4494 67 75 62
-2.53651 15.1068 0.150841 64 41 2
0.427042 16.7188 27.2873 88 53 11
-1.88128 16.303 1.92165 58 41 12
-2.46514 -4.17724 27.6896 74 87 76
4.85997 -0.284809 -13.214 97 114 99
4.58426 12.4025 15.0177 63 45 10
3.02332 13.7487 27.7214 62 70 59
-3.04699 -6.0643 3.33046 68 82 71
-4.70197 -4.63555 -14.3908 55 66 57
-2.32764 -9.85511 -31.0391 71 87 72
8.03333 4.46942 -8.71154 61 70 59
-2.48434 12.5654 32.729 60 51 25
3.08132 -14.7127 -10.2932 81 95 82
7.94494 9.46686 -2.61443 57 63 53
6.50777 -5.59048 14.7188 58 68 57
1.56847 -3.6626 -15.4397 66 78 68
-4.22286 -26.7386 6.96738 61 67 54
0.168755 -6.60361 -19.4247 59 71 61
-6.48617 9.81867 0.580053 83 87 71
6.96331 -6.24955 14.9466 68 80 69
2.9955 -19.308 -8.36133 55 66 58
-7.78131 4.05844 -5.82291 77 88 75
1.2936 -6.8778 -13.1013 142 167 145
6.67486 13.3172 -0.13408 110 112 87
0.175884 13.5291 14.8363 54 40 13
3.87363 -0.676178 6.15892 66 79 68
-1.70157 -5.90436 -27.5163 125 111 71
8.30923 2.73753 2.85974 63 75 65
-6.69682 -16.4999 3.02716 79 93 83
7.38615 -21.5448 -9.40395 53 55 44
8.52518 7.33299 -0.679293 90 105 89
3.73874 10.6882 -10.1433 100 59 2
-7.32132 7.11946 -6.00943 73 85 73
-4.55762 -10.6035 -0.342314 92 107 95
-1.4665 3.5947 -17.5817 119 77 19
-3.08678 5.67187 -14.4088 132 121 76
-7.93069 4.55795 -5.28343 94 108 92
4.70658 15.7217 1.93871 75 67 48
-3.97971 2.16627 18.2856 82 90 72
-2.2744 0.880674 6.96349 61 72 63
9.64378 -2.27137 -5.79618 81 95 82
-7.02698 3.25798 -10.4796 130 139 106
0.678074 18.6598 3.88699 81 67 36
-4.78716 -10.0616 -26.2914 58 69 61
-2.0441 14.8995 -4.6391 66 43 8
9.95463 0.397755 11.1052 114 126 104
-0.993919 4.91532 21.321 72 90 77
5.62791 15.2095 2.72083 101 70 24
-9.59373 -25.6378 3.27567 77 94 81
-3.45526 -7.13086 -31.3188 106 99 69
-7.81728 -6.28013 -0.275627 82 101 88
0.827377 18.548 7.17967 60 43 15
8.79592 -0.274988 -2.82967 60 71 65
1.06759 2.52042 -16.5274 123 86 36
-0.776899 13.1311 38.6557 68 72 51
-4.73866 10.878 -6.81276 109 82 31
2.96413 14.4446 23.9476 104 96 65
-1.69627 11.7307 35.45 62 69 61
1.33205 2.57067 17.0289 66 80 69
8.84953 4.92363 2.60262 68 81 70
1.76319 9.18616 26.0631 61 71 60
-6.39117 -28.9822 9.22301 68 83 74
-1.44895 13.2945 11.7673 60 62 46
-0.44915 2.12022 14.2306 87 103 88
4.19838 0.916656 -14.5193 111 118 110
-2.43414 -7.84175 -0.580757 71 85 75
-6.14509 -10.7677 -34.0179 56 67 57
9.35107 -0.734848 -3.92371 61 73 63
8.63623 1.72721 -7.4898 94 111 93
5.61043 -9.03936 13.9026 87 93 70
-0.899023 17.0715 -0.636032 78 48 6
-5.88705 -9.6343 -43.0479 90 107 96
9.21941 0.0238342 -6.68961 108 122 104
4.667 4.71268 15.6883 70 84 73
7.6275 9.87529 8.96491 63 72 64
8.59727 3.00671 9.97182 134 145 119
4.88167 4.23099 -13.4486 154 143 106
-0.44677 -8.69034 -17.9316 59 72 61
-7.74137 5.52887 -5.60056 83 98 82
3.87992 10.6838 18.5379 80 51 6
1.12109 -7.411 -2.45363 66 83 72
-4.73354 -11.5976 1.2456 66 77 68
5.50779 -18.3572 -9.49858 65 79 66
-1.3463 14.1123 26.3884 104 79 40
-4.0107 8.44528 -10.7784 113 105 77
2.69749 -10.0124 -12.0584 147 172 147
0.364952 -9.52201 -6.50359 74 88 77
-4.99151 -24.2615 2.73397 98 115 94
9.66843 0.92659 -4.22692 72 84 73
-9.37368 -27.2784 2.93264 89 106 92
0.894249 -0.558666 -19.2027 116 83 26
1.10084 -4.15655 -21.405 82 98 83
6.59764 -20.5623 -11.2689 156 150 106
-6.65601 -8.04396 -42.6067 65 72 59
-1.69439 13.3995 36.9141 70 79 69
-2.53178 7.10751 19.144 62 64 51
-4.91463 -7.35753 -31.3243 65 69 61
-5.07212 -20.6663 0.88998 77 91 78
1.6955 16.6764 32.169 66 63 44
-4.65499 -13.2555 0.179287 92 112 99
9.11282 6.2781 -3.96444 92 110 95
-8.51917 -24.7709 5.44721 60 73 63
-5.98035 -10.3077 3.27411 79 95 83
-6.61605 -0.0467834 -9.95801 89 107 95
1.83058 14.3294 23.3493 142 113 89
3.37174 13.7581 23.9311 80 71 50
9.29343 -3.44011 14.3744 67 78 68
6.70723 8.51511 -9.43688 95 105 92
-4.82126 4.83404 8.99592 61 73 62
-1.20325 8.83628 19.3919 57 52 33
-3.73495 -5.06744 -9.78375 57 66 58
2.23368 15.5382 25.0324 91 54 2
8.23783 5.80862 13.0917 64 74 64
-1.13288 9.96018 34.4816 71 85 73
-3.97009 13.3642 7.26507 51 47 27
-2.61148 10.0638 29.293 60 72 62
-4.9725 -7.05962 -21.5267 65 77 67
-7.76195 -9.52393 -1.18739 150 178 158
-6.93545 -22.8752 0.576157 170 196 173
8.30037 9.47353 -3.3883 59 58 41
-5.50819 -15.0795 -0.522591 141 170 150
-7.42428 -4.42498 -1.54329 64 77 67
-5.65666 -8.5384 -41.2085 65 72 60
4.0683 15.7035 8.55217 67 63 51
5.57061 -20.8851 -11.57 181 179 139
6.65193 -7.28249 14.9321 70 82 72
-4.83662 13.6209 -1.34307 71 49 7
-8.21586 -1.06233 -7.35655 95 111 97
-0.114202 12.5367 22.4472 53 39 14
-4.65522 -12.5926 1.11837 62 76 66
2.98493 13.6393 28.458 63 74 65
-0.892994 17.1734 30.2786 43 33 21
-4.99942 -12.3771 1.78424 63 74 67
-6.74377 -26.5131 8.49219 70 80 75
2.38923 7.1805 22.0519 55 64 55
-6.29955 10.5154 1.0461 79 83 67
-2.42214 12.1374 28.652 55 53 34
-1.04869 16.7241 29.1325 85 84 64
-5.14783 13.0574 0.159707 50 42 21
-5.66268 9.71587 8.98982 61 69 56
-0.301888 11.339 36.0672 71 83 73
7.49757 10.6873 -4.34081 59 54 37
-5.72532 -9.28075 -33.0819 61 68 55
4.61353 10.5251 -9.95694 87 72 52
6.62667 11.5823 14.5626 59 70 63
8.56433 7.12312 -7.25347 88 101 88
6.18936 -15.2582 -10.9876 109 126 111
-2.23753 -3.81955 25.385 120 137 119
-1.3755 10.9925 33.5688 68 81 72
-5.79445 12.645 -0.666508 63 68 54
-4.11421 4.40061 19.2403 69 81 67
-2.79119 -8.39802 -1.17015 68 84 73
1.7016 13.0809 -7.42998 82 53 12
-3.02399 4.06944 -16.1338 122 112 75
-5.66908 -17.9779 -0.177185 125 149 124
-5.69707 -14.4805 2.87883 72 84 78
-3.24149 13.5523 -3.87938 93 65 18
5.08004 15.7278 3.19698 103 61 15
7.05404 -7.44006 13.3516 176 187 160
-1.19633 13.1198 38.374 55 62 47
-2.00136 12.8557 36.719 68 75 58
-7.74874 2.80727 -6.5446 71 83 72
9.8316 -1.87468 13.1022 68 75 65
1.61952 16.1605 -2.16655 76 59 11
-4.25224 -6.51554 -5.47825 121 143 124
-1.78186 12.08 12.3397 56 52 36
-0.00134277 -7.37067 -17.7288 67 80 69
8.98809 6.6023 -4.14158 90 101 89
7.29749 8.66772 -7.95066 108 115 102
-7.79813 -16.9914 0.567833 98 121 105
4.93882 6.73933 -12.6407 139 121 81
-1.86792 12.0549 -9.5304 128 79 18
0.352661 13.2353 15.5394 54 44 24
-8.08134 -0.258362 -5.13232 64 75 66
-8.00869 -20.5221 2.57118 77 92 81
-0.757082 2.71248 -18.3574 111 77 36
-4.78141 -3.43762 -18.9747 74 86 73
6.72075 -2.99542 -2.55258 62 77 66
-3.69196 -0.424294 24.5255 53 46 25
-2.60345 15.3424 4.231 63 51 27
3.55829 11.7569 -8.27129 83 54 12
3.33672 -14.5517 -8.24802 58 71 60
-4.42555 13.7919 -1.6417 56 35 5
-3.42113 -3.43118 -26.1555 103 88 58
-0.684921 17.2278 -0.73609 85 48 6
8.70145 -2.20776 14.7465 67 78 67
0.149431 11.6234 20.2127 62 57 40
2.45274 -10.4433 -11.0214 78 91 78
1.60469 5.0699 20.6613 65 74 64
0.101082 11.3208 36.4196 74 84 73
-3.0372 -7.92947 25.4413 125 139 118
4.64768 -6.57413 -11.4519 173 186 156
2.4408 -2.03848 -18.3494 81 94 76
1.84765 6.83515 22.2224 63 74 64
-6.11584 3.9846 5.87935 57 68 57
4.57138 13.8549 13.3301 68 58 34
6.74359 -4.10603 12.4965 116 136 117
-8.21741 1.45467 1.88876 66 80 67
1.93826 -3.67127 -18.5372 64 75 64
-0.339504 13.0761 14.2919 62 66 48
4.66754 11.783 15.7302 66 53 27
-7.74174 -10.2236 -46.5835 84 100 86
-0.999344 15.6004 9.52362 55 50 30
2.24502 16.792 11.1032 64 51 38
-4.96614 -8.43189 -30.2927 68 78 65
-3.80623 6.26302 16.6269 63 66 51
-3.65775 -2.13717 -21.9259 63 65 53
9.57498 0.659664 -5.18137 86 97 85
2.93445 11.4798 -8.89328 125 91 48
-7.27373 -28.6151 9.11393 69 83 72
9.15761 -1.897 -6.97047 118 132 114
1.16058 15.5083 35.417 68 71 58
-2.42138 9.81444 31.7275 62 72 62
3.19257 11.8058 28.9402 65 67 56
0.896202 18.5474 4.51729 62 38 1
-5.16971 -3.6223 -17.0312 71 84 71
6.4481 12.574 -1.62987 87 101 90
0.528725 -5.81658 -23.8306 94 107 90
9.56313 -1.13133 -4.57898 70 83 74
-3.90111 13.5161 5.43316 52 47 29
-5.55466 11.5466 6.75145 59 58 38
-1.86438 13.2155 28.0915 69 79 63
-0.599297 -8.84645 -20.9634 72 85 71
-10.758 -8.5784 -50.9972 59 69 60
6.09196 10.2506 -8.45797 80 84 70
-1.27376 17.2247 1.81561 58 35 3
8.24826 -4.63885 12.1363 154 177 151
-2.70351 -27.889 5.21392 90 102 87
-5.32875 4.49053 8.05225 58 69 58
-1.36387 15.2074 35.1897 62 60 39
-8.33971 0.457268 -1.43611 61 75 64
8.73218 9.52754 1.84266 137 160 138
-7.10498 -8.01051 -42.6477 60 67 54
-0.968803 13.3371 25.8706 101 80 45
3.95396 -23.9339 -6.17046 63 75 66
-3.37871 -7.0975 -18.1818 57 69 60
5.73304 14.9997 0.935032 74 68 41
-5.83782 6.54137 -10.0361 126 119 91
7.12364 9.45126 11.3263 95 109 94
6.12907 14.2023 -0.0269318 97 98 68
3.03183 10.4975 30.1777 85 100 85
7.57367 -10.704 11.8502 101 116 102
-5.68471 -1.49058 -14.9184 84 90 72
-0.516647 15.8238 10.9912 65 64 46
-6.14094 -14.7263 3.06251 79 94 84
-3.60884 9.50815 11.011 65 75 62
4.4947 15.0849 -1.88888 79 76 57
-0.130783 14.5893 37.5499 71 80 68
2.04407 -23.1099 -6.06573 55 67 60
-2.93843 13.503 8.46902 51 37 9
-4.33504 -9.73231 -38.0936 76 92 76
2.38225 6.4044 -13.5499 152 135 94
-0.933559 17.0585 29.9668 74 56 24
7.80185 4.56005 9.09808 107 121 104
-1.29677 14.6578 10.38 51 37 10
9.84911 -2.13039 12.9854 67 75 63
1.24614 16.3026 26.1338 97 68 22
2.59647 -22.7556 -5.87969 60 73 64
-3.13247 5.77216 11.6251 58 69 59
-10.357 -26.851 4.7254 85 104 89
-1.12892 11.4865 38.7735 72 83 72
0.258726 4.97616 21.3624 64 71 63
-3.68822 -6.04473 -6.95166 94 113 98
-7.05685 -25.0761 6.98325 53 63 56
-4.52295 -6.57178 3.83078 70 84 76
-7.6573 -6.64616 2.52778 65 77 67
-2.27221 8.60595 17.1629 52 36 12
-2.01639 5.91808 -15.253 121 99 44
3.08662 15.7772 -0.76604 88 58 20
-3.90859 5.39233 17.1456 83 85 65
7.53671 13.7293 2.60697 81 94 84
6.58633 14.8784 3.07906 91 74 37
-2.02146 2.63422 9.13357 58 69 59
1.8918 13.6794 -6.50661 115 67 14
-0.616241 1.83489 18.8089 70 82 71
3.71544 10.9679 19.1781 62 56 30
5.20052 -1.73717 1.41003 65 83 69
-0.206284 17.901 8.45796 55 40 12
2.72958 -6.3022 -2.04149 62 82 69
-0.987137 11.2888 34.2799 44 59 49
-7.71045 -11.455 2.1911 70 84 72
-1.63581 3.58624 11.7558 50 65 53
-2.90547 -7.56837 27.337 77 89 77
-1.73666 -8.50877 -5.26276 119 139 122
2.47598 -7.72253 -12.3409 169 196 166
-1.66025 3.32168 10.5992 52 62 53
7.70504 12.5681 7.50606 69 79 70
1.83719 -2.61312 -19.7701 111 127 105
-5.499 10.6549 8.53917 61 69 56
-4.22171 -8.00916 1.99218 64 76 68
1.27231 10.611 -10.8491 115 72 20
-5.16826 -6.40004 -23.5903 81 91 76
-7.38845 3.52553 -9.56369 62 73 65
-5.84574 -10.0453 -42.5426 83 96 86
-7.1848 2.81655 -10.4379 132 142 114
-9.27121 -8.09644 -46.9497 57 69 57
-6.40175 2.64424 -11.3189 114 119 90
3.35645 10.9173 17.6434 71 59 37
-8.28149 0.77031 1.93064 65 77 65
-8.25014 3.77904 -0.85556 74 86 72
-5.16897 -9.59281 -1.9522 184 219 194
-3.8773 -3.00112 27.2894 63 64 50
-1.45474 16.769 4.58014 58 39 3
0.362583 14.1649 23.7943 93 49 6
-6.71344 -11.7247 3.24894 80 96 84
-1.85321 15.413 -3.57673 64 40 7
2.19205 1.1586 15.2167 74 80 76
-10.7487 -27.1188 6.10774 81 99 84
-2.91792 -11.2817 -30.8163 66 82 68
0.106955 -4.32586 -23.673 119 110 71
-11.1488 -8.01843 -51.6771 64 79 69
1.91843 17.6394 4.29286 77 65 38
5.33795 -9.62256 -11.5978 163 167 134
-2.35148 1.5989 16.9313 111 131 111
-5.86397 -10.4387 -42.1738 94 111 99
8.36574 -5.36524 15.2019 63 78 66
-4.97798 -4.22924 -13.6014 63 73 65
8.28399 -7.01984 15.1139 69 83 73
-7.30456 -22.4484 0.578588 142 168 146
-1.52469 16.7651 2.69631 56 37 8
-0.986984 8.46525 27.5612 58 66 54
7.31413 -10.3827 -10.7413 149 155 125
-3.85248 9.40221 -9.9395 103 96 65
1.48763 12.9816 16.635 63 45 13
8.39511 -9.34868 -8.83093 61 70 63
5.2503 2.08549 14.8687 77 89 78
4.17892 0.29547 12.5931 69 81 71
-7.33997 -10.0702 2.67087 71 84 73
-1.25887 -0.695423 23.7917 67 79 69
-2.2043 12.1914 36.6711 60 68 59
2.32243 14.4905 23.6588 127 94 72
8.23813 2.97709 1.12535 78 92 79
6.73603 -1.38131 10.0951 160 186 162
6.4484 -23.974 -7.28667 64 76 65
-3.97353 -4.42867 -26.6373 93 96 79
7.07036 8.95256 9.96553 64 75 65
-1.24372 -5.55853 26.9258 73 83 72
3.06001 0.473034 11.0288 66 78 68
5.22964 -6.40194 -4.1377 61 80 70
-9.98981 -27.6331 4.0779 80 95 82
-6.0163 6.76532 -9.54124 126 124 98
-6.94807 -7.85468 -43.5272 66 76 61
-1.10481 6.78201 22.2547 58 70 60
2.34351 14.3118 23.4489 120 96 69
-5.71576 -24.4886 1.6685 122 136 120
5.59832 -11.2829 -11.6109 162 168 131
-2.1803 10.3474 33.2434 69 82 69
-6.38059 3.53107 3.89897 58 69 59
-8.48104 1.69946 -1.97342 61 74 63
-6.26801 0.00920105 -11.9649 72 87 75
8.34542 11.8919 2.62207 80 100 82
-1.31746 2.84311 -18.4231 126 85 31
0.404513 5.62731 -15.0095 125 82 38
4.31843 10.4219 16.7811 69 58 31
6.45233 2.02295 7.52562 90 104 91
9.62148 -2.60507 13.7094 69 78 67
-4.33633 13.4853 -2.64126 94 59 8
-1.32275 7.68759 23.3751 66 78 68
-4.97017 12.6146 4.89646 55 60 43
0.907724 15.3405 13.6455 50 38 15
2.88861 12.7755 29.0261 64 74 63
-2.08961 6.68238 -14.6349 132 93 39
-2.04871 15.5407 -0.487049 60 40 5
6.88218 -12.531 -10.714 133 147 124
-0.137398 8.37335 33.3922 81 98 83
2.96131 13.097 -6.70455 132 97 52
2.82114 -12.2782 -7.8667 53 61 55
6.54097 2.65122 -11.97 116 129 111
9.33387 2.95214 11.2667 79 83 68
-6.95977 4.31449 2.48579 65 78 67
7.4787 12.0602 0.144032 99 112 96
-8.048 -9.53286 -47.8665 102 122 107
-10.387 -27.4724 4.68064 91 109 97
-1.27549 -2.54917 -23.5787 113 93 46
-2.82067 14.6355 -1.72875 68 48 7
2.69416 -3.2517 3.2179 72 84 70
6.24992 -2.88424 -10.2181 151 168 140
-8.58195 -23.0389 2.31805 86 104 92
-5.72912 9.74445 -7.19735 119 87 23
9.0918 -1.4277 10.9959 152 173 149
4.09852 10.5238 19.7429 109 73 23
-6.85411 8.82978 2.94589 82 91 73
-2.43448 12.3579 34.3782 57 63 48
-1.24919 0.738365 21.0608 69 80 68
-3.59921 0.601984 5.77913 62 73 64
-1.49063 2.2646 9.52026 59 69 61
-3.17257 9.18464 -11.6269 119 94 53
-5.71564 -18.0584 2.81536 67 78 71
1.40373 13.5013 36.4643 61 63 50
6.76861 11.3254 -4.79772 91 101 85
-2.63751 15.318 2.94069 52 37 0
0.739761 -3.68913 -22.2676 118 127 101
1.34802 3.97971 -15.0946 157 133 84
1.1807 -9.72976 -8.08568 67 79 68
-1.94308 -5.85628 2.61101 71 87 76
3.30151 10.478 28.8491 66 72 62
3.25795 13.1361 25.0148 61 73 64
3.47404 1.00867 -15.3727 140 123 78
9.43773 -0.897179 10.9507 139 155 132
-8.1548 -0.529175 -5.37229 65 77 67
0.165611 16.7743 27.5185 75 46 6
-2.52919 12.6047 34.0719 50 45 23
1.30941 17.394 31.3421 66 52 30
-3.91403 5.72147 17.1902 79 82 63
3.90821 10.4388 17.5243 68 50 21
7.94749 4.77038 9.54163 102 112 93
5.90984 -6.3541 -11.048 156 154 113
-3.57373 -1.39053 -20.3935 67 69 56
8.68144 10.4217 3.82133 67 78 68
-5.20936 -11.996 -35.672 63 73 65
8.79201 9.63838 6.34847 66 78 69
-0.447079 12.2303 14.6885 61 61 44
-8.44505 -10.2593 0.917461 66 79 70
3.78257 0.274761 11.5043 69 80 70
0.982399 -2.24848 -20.8009 120 100 60
5.11964 -4.09446 -11.0073 161 178 143
5.8436 -12.8009 -7.96729 66 78 72
8.74465 -4.17869 12.1275 140 165 140
6.02623 12.8994 12.3321 61 65 47
-6.9218 1.20145 2.93387 69 82 70
-6.75047 -10.3063 -36.3303 53 63 49
4.50922 11.3737 16.0324 72 64 44
7.08797 8.83664 -8.13191 112 103 86
-7.97683 -2.26061 -4.49699 58 71 62
-4.62289 12.1312 7.94587 50 47 29
8.36439 5.12535 -7.21974 117 139 120
5.40477 -0.782303 10.3807 58 67 57
-4.84813 9.26279 -8.40918 110 106 75
-0.483961 11.7573 22.7538 75 58 28
-1.72129 3.1414 14.6622 67 81 69
-7.87231 -17.9409 2.38706 73 87 76
-3.73879 -0.710457 25.0063 64 60 44
-2.78852 -6.46249 -29.4965 113 104 65
2.35075 14.1912 14.6232 63 69 55
-6.05885 8.98735 8.65682 68 77 65
5.71433 -6.10252 -11.0439 171 172 133
-4.05261 7.34964 -11.8325 116 109 76
8.05338 2.53607 0.857246 74 87 75
8.96923 7.40119 6.07377 69 81 71
-3.81833 -2.92949 -22.2476 65 71 60
7.21145 3.61322 7.44119 63 75 64
7.56157 6.45455 9.6216 79 91 79
-4.73736 8.92141 9.96839 64 76 65
-1.63819 16.761 1.67886 56 38 8
-3.00612 -4.7969 -28.0252 122 109 67
-5.20296 -27.8422 8.28214 61 74 63
-3.84915 -3.50352 24.8232 104 118 95
6.15843 -22.5426 -11.756 175 179 144
-1.53722 15.9252 32.1894 53 44 22
-5.53532 1.53772 4.14231 60 72 62
-3.425 5.23268 19.6456 72 79 71
-5.09199 -9.00266 -39.9948 66 72 57
-1.51786 14.2474 30.5169 87 101 86
-5.99006 12.2328 -1.04133 61 74 58
8.8172 -0.496647 -2.97798 63 74 65
-2.4712 0.231514 24.3248 62 59 43
-1.61678 3.10566 10.3892 56 67 57
4.39727 -17.2788 -8.69212 69 80 74
7.40753 -9.23231 14.8623 74 85 75
-3.16613 -11.5499 -29.4649 70 81 71
6.84607 8.88309 -8.59606 98 104 83
7.42579 8.4499 11.9835 79 90 75
-0.290287 16.2795 11.0022 62 64 47
7.12552 9.75295 11.3905 110 124 106
-6.37124 -8.61291 -38.5159 63 73 63
2.83499 5.5055 19.3121 58 68 59
-0.100952 13.0618 38.5211 66 64 49
-5.45149 -10.9658 2.54972 70 81 74
-2.70955 14.1908 -4.17124 87 64 20
-0.564991 14.6158 12.3144 63 58 37
6.93058 -3.84151 -9.92444 151 152 117
-3.98265 -27.8318 3.42432 133 156 136
-3.51242 8.96716 11.2509 70 83 71
-4.4191 -5.25368 -23.9308 102 104 81
-1.60925 10.7847 25.3867 79 60 29
6.61095 -1.97237 14.6596 60 72 61
-5.98735 -1.81833 -11.6735 74 89 76
6.28542 12.4128 -3.44211 73 85 76
5.43384 7.77615 16.4791 62 74 64
-0.289436 -8.00356 -20.8342 63 76 65
6.98035 8.63396 14.2748 70 80 70
4.78819 1.35416 -13.333 109 123 109
7.45376 -3.76944 -3.5914 61 75 64
-3.79443 -6.61245 27.4281 69 80 68
-0.54108 6.02604 -15.2908 160 130 89
0.19458 11.3159 37.9941 73 85 73
-0.727928 0.0774117 19.5208 70 81 71
1.06775 16.6731 26.9769 87 58 16
-1.24943 14.8869 34.6285 80 77 56
7.73382 10.7547 8.7543 62 73 64
5.19263 -1.73122 1.70865 59 75 63
0.540802 8.80637 32.5944 73 87 72
-5.45416 -21.0698 2.3444 65 76 67
-5.23927 -10.077 -40.6698 82 98 83
-7.46894 -8.93437 -47.3456 90 110 98
6.10205 15.2771 4.23816 74 73 53
-3.19736 7.91669 14.9671 77 66 39
-2.02446 -3.06709 4.94834 60 70 62
4.72629 0.082329 12.2978 63 75 65
9.40124 -6.56894 13.5226 71 81 65
6.37964 -1.00276 14.592 63 75 65
-3.44675 -4.57422 -28.0017 123 116 75
-3.33289 7.76658 15.5893 64 57 31
3.82965 6.20508 19.4096 63 72 63
-0.258286 -8.26219 -18.1712 66 79 68
6.85026 -22.6805 -8.31419 60 69 59
5.04761 15.2889 7.596 63 47 21
4.82253 -6.54457 -4.09123 62 81 71
6.26839 13.761 8.40002 70 69 52
-8.13268 -29.4537 8.42039 61 72 61
6.84288 12.8328 9.40714 71 79 69
-2.25788 12.637 35.9407 59 54 39
-5.57166 -9.47305 -42.2418 94 109 94
8.78122 7.33887 -4.36814 90 109 93
-5.80729 -25.4919 1.73569 129 144 123
-4.1633 -5.17175 -26.0578 69 77 64
-1.82524 -7.43877 25.8154 139 155 131
2.13262 14.234 34.4351 59 68 58
7.85274 -8.4299 12.5768 126 116 81
2.53996 -2.84831 -13.4 82 91 80
-2.96598 11.4652 -8.97421 99 86 56
0.913044 18.1745 2.37272 74 56 15
3.48507 -17.6012 -8.49001 69 81 71
1.59628 2.23773 16.6344 76 87 77
-8.57663 -8.79241 0.239267 83 99 87
0.584118 9.0801 -12.5085 142 104 50
2.91487 15.3864 29.7559 58 69 59
-5.41862 -8.63396 -39.8039 66 69 56
-0.437244 1.00067 -19.5822 117 97 57
-1.71958 -6.55015 27.4138 72 86 75
6.43245 -5.10698 -10.6013 155 150 107
-5.05741 6.50605 9.42182 63 75 64
-8.28199 -26.7472 7.92806 65 76 66
7.57477 -1.22696 -8.8849 118 140 120
-5.31447 -8.54902 -2.53606 156 186 163
-1.21991 -9.1936 -24.2307 66 78 67
-6.85163 6.83258 2.05266 57 75 64
-4.42654 -8.93333 -37.7742 96 100 79
-6.48089 -21.9132 3.63453 72 85 74
-1.58717 13.6429 33.4222 61 63 48
4.30486 7.13383 19.9415 68 79 69
9.68562 1.81019 -3.72318 70 84 73
-6.83739 9.17667 -0.984467 64 73 60
-1.88257 -9.61777 -21.6351 64 76 66
-3.014 -4.99648 25.4903 144 168 145
-6.13712 9.15937 8.41444 61 68 54
-3.60412 0.67569 22.331 50 40 17
-2.78208 9.91303 -11.3153 129 115 75
-5.55615 -22.0592 2.8364 61 73 64
-3.34879 -3.98114 -27.0806 134 118 74
-2.09187 -7.38565 0.237396 70 85 75
-2.62302 11.902 10.8728 58 55 36
5.8838 -0.809057 13.91 52 61 50
0.279442 13.1585 -8.05244 103 62 19
-7.42734 7.0094 -3.27179 78 85 70
2.81762 11.2542 25.6667 92 110 93
-2.61874 -3.84084 25.103 121 143 124
-4.45195 -6.69273 -26.6955 72 75 61
-4.97971 -11.8709 -0.669327 109 131 115
-1.06214 16.9129 6.79718 58 56 43
-5.24213 -5.46077 -5.85495 117 142 126
-0.962955 15.0648 11.0163 59 48 18
-3.47978 -8.09899 -20.4116 55 68 58
8.57051 3.36538 9.8773 135 142 118
-7.05649 -12.5805 -1.11202 175 208 182
0.127071 -0.906944 6.79581 69 80 72
-4.34322 4.86207 9.40897 62 73 63
-4.55391 -2.02654 -17.9471 101 103 79
6.23036 8.62275 -10.0991 127 110 82
5.89481 -14.3618 -11.7341 133 148 122
9.47974 -3.52914 -5.2604 62 74 65
8.58369 11.4369 5.20527 71 84 73
3.36596 5.80763 17.8119 61 73 64
7.95247 5.52298 -8.09506 117 137 120
6.04622 13.4128 -1.86915 91 108 83
-2.328 9.65948 29.2145 61 74 62
8.88826 8.24549 6.27603 65 79 69
8.48261 -2.43868 14.9002 65 76 66
1.58507 -2.23505 5.79013 72 86 75
2.8384 5.23144 18.7953 60 71 61
-7.5706 -16.5606 2.36701 75 89 78
-5.31761 -18.929 0.00531769 114 137 118
-6.94167 -16.1866 -0.383329 162 198 174
7.2312 11.1178 -3.27208 60 67 56
3.06459 -22.2742 -6.14237 60 71 61
-4.1235 -9.32716 -0.933804 62 74 64
9.87141 -2.09063 12.4877 76 85 72
7.86229 -2.70255 -8.82763 141 153 129
1.51478 16.3495 32.8979 60 54 31
-4.95254 -8.82204 2.52752 64 76 68
4.94538 -1.15355 -11.6269 112 131 116
3.43307 16.445 6.96861 70 62 47
9.92233 -1.10511 12.7081 65 78 62
6.51199 -10.4119 -11.2539 161 181 149
-0.754494 2.10948 15.0379 81 96 82
-6.61726 10.242 -3.5771 62 64 48
-6.2487 0.117496 3.38126 68 80 69
-2.5321 -1.15672 26.2632 68 81 66
5.79556 14.2029 -4.08606 97 101 82
-5.27756 -7.32825 -23.6268 62 74 64
6.99204 -22.1033 -11.3878 167 166 130
-8.24637 1.97241 1.67674 65 83 70
0.984932 12.002 37.3186 68 78 63
8.49278 7.91096 0.329605 128 150 133
4.64811 15.6441 1.2426 82 60 21
1.72921 15.5587 -3.82715 77 43 3
1.92286 -7.48073 -3.27473 64 79 68
-3.70579 5.81714 -13.624 106 98 69
-6.47478 7.24839 7.24466 64 77 66
-2.00352 14.3623 -5.93665 105 80 58
-2.07943 13.6576 27.5093 65 67 53
-6.66983 -2.22199 3.68473 66 78 66
8.86058 6.75982 -1.89278 61 68 61
-0.572344 15.7455 -4.25532 88 51 10
-0.166107 1.4814 15.4988 114 133 117
3.3037 6.22572 19.8136 67 76 67
6.1854 1.40044 7.80226 97 113 99
-5.3014 2.18301 5.4889 63 74 65
-0.468336 10.0894 19.6964 82 85 64
9.36034 -6.40608 14.0603 69 79 66
-8.08538 -2.04187 -6.53618 78 93 81
-1.68945 -1.69362 -23.3105 117 95 54
7.99528 -24.188 -8.44427 61 72 63
1.35808 18.3399 5.56141 68 44 9
-8.90565 -6.75381 -48.9506 66 67 64
9.43271 5.99102 -3.00339 74 83 72
0.218933 -6.70959 -17.0599 64 76 66
-4.68995 -12.3307 -0.101263 104 124 108
9.52888 3.8052 -2.45031 62 72 64
-4.32133 -7.86097 -34.9839 98 97 75
3.59477 -3.27949 1.87181 55 72 53
1.69247 17.5411 28.7935 88 57 23
2.15731 17.5098 8.00353 63 48 19
-4.60796 4.13507 -12.9458 124 110 83
3.86018 6.90886 19.9952 63 73 63
-7.31757 -23.3856 4.54603 62 76 65
1.5178 6.36779 21.9321 63 75 66
-5.06095 -4.4228 -19.2208 76 86 72
2.70674 12.9831 -6.83816 136 105 74
-6.35671 10.3665 1.57687 68 76 60
-1.54681 0.982581 16.8045 130 141 125
-7.28529 7.36589 -3.5712 63 76 63
-1.61251 10.2088 24.6426 100 71 21
8.52464 -22.8093 -9.90629 68 79 66
3.06498 12.113 32.046 70 70 56
-2.76967 -10.0146 -32.9139 74 91 76
-5.26403 0.0934525 3.94837 70 82 71
-7.20243 -27.8584 9.06555 68 79 68
8.73243 6.31182 -6.82873 83 98 85
-2.71235 -4.47765 -27.3755 120 102 63
-5.46802 11.9445 2.72598 54 50 30
1.23227 5.35278 -14.4901 138 107 55
5.41179 10.2453 -9.70882 84 60 27
-4.16854 -28.5729 7.91059 66 77 66
-2.03538 3.28686 9.79869 54 66 56
-4.23919 -3.92977 27.444 71 76 64
-3.0792 2.10454 21.0477 70 79 64
9.05059 5.09666 -4.84519 77 89 91
