ply
format ascii 1.0
comment Created by Open3D
element vertex 1377
property double x
property double y
property double z
property uchar red
property uchar green
property uchar blue
end_header
-8.13958 1.805 1.87816 68 82 69
3.20592 11.1388 17.1897 70 66 49
9.51914 -3.16592 13.9646 68 78 68
7.134 -1.47242 -9.32879 132 154 131
7.38059 -9.20562 12.5107 99 99 69
7.03181 4.92007 14.3779 68 80 70
4.93439 9.01133 18.8118 65 78 68
-9.79827 -25.4405 4.46284 68 86 74
7.95859 -1.93454 14.9621 67 78 66
0.512615 14.3722 -6.12974 92 52 5
7.7893 -10.346 -10.2259 116 137 121
-7.8772 -3.81127 -3.8353 55 67 58
-5.16999 -6.87321 -22.1875 62 73 62
9.06941 3.64204 11.0552 103 97 73
7.8184 -5.69934 -9.97334 145 134 91
0.563648 2.43826 -17.1081 112 85 49
-1.02512 13.8039 29.3503 70 87 71
3.11034 15.5471 -1.35871 87 65 27
2.94869 16.4253 0.861583 65 50 18
7.72811 -4.23504 15.0966 68 81 69
-8.16117 -25.0303 6.18056 61 74 64
5.02073 0.957764 14.9162 78 90 77
-2.25218 12.0318 36.9695 61 67 55
8.97019 9.13299 4.93519 88 105 90
7.2126 -12.926 -9.65627 61 74 63
-0.132759 6.26429 23.16 64 76 66
6.65372 13.9518 1.81963 105 90 59
-7.58703 -6.25734 2.83012 66 79 70
-8.19821 -17.5137 1.19492 73 91 79
-1.61557 14.6783 -5.6617 107 74 24
0.437231 15.0232 -5.20515 92 59 22
-2.23312 -4.21255 -26.65 113 98 59
5.53726 -9.94712 -11.6049 168 174 139
-2.32102 10.3396 33.0904 68 79 66
3.13648 2.49374 -15.1009 142 123 86
5.9833 3.18143 14.746 74 88 76
-7.93764 2.58132 -5.48819 79 94 81
2.41835 12.3436 -7.82534 95 69 30
7.49436 -4.45958 15.0883 67 81 70
3.51201 9.7907 -10.8495 119 71 9
-2.70449 10.5547 30.002 85 91 71
0.708708 14.3759 14.547 55 43 23
0.714056 14.2865 23.7373 108 55 6
5.82104 14.6782 7.91185 69 77 66
-1.68216 13.5633 33.383 60 60 44
-4.41455 2.89794 19.1594 61 69 58
8.2897 10.9642 7.38147 65 75 66
7.33154 4.89052 14.2176 69 81 71
6.54752 -0.155968 9.39213 151 172 150
4.30547 2.31271 -13.9483 136 145 126
-11.0892 -5.80736 -52.4405 59 70 61
4.67978 -11.2356 -11.927 169 181 148
-0.525085 17.0627 -1.24687 76 40 0
4.32118 10.4096 19.8072 116 81 27
1.22806 1.08543 -17.4915 110 84 46
-1.64513 16.7499 1.64112 58 39 8
7.6294 6.86381 -8.53729 129 144 123
-8.05068 -18.3252 2.23258 73 88 77
-2.16898 15.91 1.32425 56 38 5
2.46654 12.7962 21.3061 110 59 4
8.09823 7.76993 8.106 66 76 67
6.43663 -10.3099 -11.2982 164 185 153
-10.6876 -27.5969 5.39737 98 120 104
7.40537 8.14131 11.3216 71 81 68
2.95458 -0.515011 -16.9563 122 135 111
8.52391 3.54854 13.0814 69 81 72
-6.72989 9.33482 2.62953 62 72 63
5.82462 -3.15943 -10.503 148 163 137
6.65759 -4.26345 14.7129 65 75 66
7.12198 10.3625 -5.79078 108 99 70
4.25346 8.97657 22.7509 65 76 66
9.05374 -3.71116 12.0946 132 153 129
-6.92802 4.11823 2.57176 68 80 69
9.36455 -6.88571 13.256 118 119 88
6.62559 1.50111 14.4093 72 84 72
-10.593 -26.9068 5.69742 82 100 86
-3.05959 0.822918 22.9685 48 40 19
-6.05968 -9.78604 -43.5484 83 96 88
1.46749 2.23069 -16.423 113 74 26
-5.97837 10.0319 -6.83977 150 144 101
-2.31104 -7.38757 25.5903 133 148 128
0.739113 1.98112 -17.2042 109 87 50
7.74613 6.59084 8.45826 66 76 68
7.21328 8.72091 9.67315 65 76 65
7.36359 0.648563 9.485 163 178 155
-1.22509 -1.40971 24.1974 70 78 70
-2.49588 -10.5398 -30.7603 67 82 70
4.12837 3.12356 -14.0316 136 142 111
3.2224 0.141144 -16.3134 112 97 73
-1.90895 14.0198 -6.67603 86 59 22
-7.88536 -14.7821 1.18871 66 79 71
-4.36029 -6.39492 -27.6417 61 69 56
6.57107 11.8659 -2.55136 87 102 88
-0.338808 3.26982 19.5576 68 79 69
-5.25858 8.56679 9.2813 67 79 68
-8.27639 2.70953 -1.69896 61 73 62
-5.56677 -8.45004 -34.7521 66 72 62
-1.35215 14.8121 32.9016 70 85 71
2.68954 12.5279 20.7881 68 41 6
4.31492 1.32015 -14.1762 123 128 100
7.09785 -6.58144 14.9963 71 83 72
3.87314 11.5854 21.3934 53 56 42
-1.49476 -1.64667 25.5008 68 78 69
1.35929 14.7512 -5.33672 95 54 17
4.96306 7.65929 -12.0257 160 150 103
1.69169 -3.83366 -19.8761 81 94 82
7.36977 1.74996 9.07296 145 170 146
-4.85965 7.9044 10.0746 69 82 70
3.49951 2.7471 15.7982 75 89 77
-3.92481 13.961 1.18666 55 34 4
8.05873 4.59575 9.71885 105 113 91
7.26528 -0.543253 14.7762 70 82 71
7.09388 0.575153 14.5109 71 82 70
-7.48709 -8.65963 -41.8133 58 68 58
0.766285 1.78747 -17.3676 105 74 36
-5.46025 -9.35938 -29.2239 58 70 59
0.64024 10.2377 -11.4495 126 76 15
4.34892 15.7085 6.4565 74 62 33
8.66187 -8.68516 -9.44408 86 106 94
6.03214 -1.69712 -10.4898 146 167 146
3.35064 15.1014 12.6145 66 63 45
-1.96851 -0.00345039 24.5715 64 70 57
4.50354 -24.4748 -6.39788 65 80 66
-2.9806 -26.6173 5.35378 58 63 49
7.55373 1.83721 13.8377 67 82 70
7.29868 -0.102743 14.6564 69 81 69
-0.422905 10.6679 16.356 53 47 23
7.08364 -5.64151 14.9692 70 82 70
-3.81827 -6.38552 27.4998 71 83 71
9.14861 -1.09424 14.1298 68 76 63
-0.359703 16.5226 32.9212 51 34 6
6.00507 -23.4245 -7.2355 64 76 64
-5.13201 -27.2409 7.96302 65 76 63
8.04766 2.53789 -1.06195 62 73 64
8.17099 11.944 4.45477 86 105 91
7.9261 -2.37619 15.0797 68 80 68
-2.33675 12.3085 27.2715 60 63 52
6.79747 12.2794 9.71469 71 84 74
-3.03528 -4.86299 27.9391 81 95 83
4.43359 -22.2177 -11.6418 179 186 148
9.1643 -6.80042 -8.61556 72 83 69
8.47294 8.72089 -4.36539 86 102 88
-2.56691 10.2538 31.1921 60 68 55
6.25414 3.38548 14.6444 72 87 76
9.00502 2.05127 -6.47553 119 132 111
-3.63743 -0.577469 20.9566 67 70 58
-4.40236 13.4995 4.32591 54 42 19
8.43281 2.91385 2.40256 65 77 67
-3.34257 -5.15955 4.40342 61 75 65
-0.338182 15.406 11.8883 60 55 31
-2.20422 -5.2468 -27.4166 112 104 57
4.55347 15.1889 -2.46529 72 63 41
3.53571 10.958 18.583 89 53 4
-8.19329 -7.28123 -48.838 77 86 74
-8.35765 -23.3344 3.52807 69 83 73
6.09948 -18.2411 -10.6099 68 76 66
-5.19435 -7.7734 -35.3031 67 69 53
6.12276 14.1816 8.02752 72 76 61
-0.103699 15.8752 25.9878 94 60 0
9.78017 -1.4059 13.1623 65 74 63
-6.82383 1.40713 2.9535 69 81 69
4.49046 -0.118286 -14.0178 114 135 121
8.77561 -24.4394 -9.00626 64 74 63
-8.40814 0.408855 -1.58923 61 75 64
-3.8862 -9.48283 -36.8747 77 93 79
0.48003 16.9974 -1.0244 108 88 65
6.52795 3.81516 14.5204 70 82 70
-10.8108 -27.1847 6.7307 63 77 65
-1.08315 -0.803864 23.0231 71 79 70
-10.458 -27.4144 5.03531 82 101 90
-1.13123 10.3484 15.544 56 49 33
8.76871 7.64265 0.902472 93 109 93
-1.01816 0.454376 -20.6971 126 97 40
6.15493 10.524 -7.76211 93 95 71
9.56351 -0.107151 10.7778 145 159 133
-7.64493 6.77462 -2.16753 74 87 70
0.979355 2.44022 -16.6625 152 118 68
8.69657 -3.59135 11.8375 148 166 144
2.62679 -22.3011 -6.03836 60 73 62
-7.50632 -20.4095 3.06219 77 92 81
-0.523438 18.1999 2.37589 56 37 15
6.94595 -2.26446 -9.63928 134 148 125
6.303 -5.02067 14.4029 48 57 46
-6.51846 8.9031 5.34784 62 73 62
1.4967 4.52514 -14.7492 148 120 71
2.56877 11.9768 -8.42141 92 52 9
6.14154 11.4379 15.7277 68 74 63
2.12851 7.52462 -13.0299 156 114 51
8.45218 -2.03492 11.0568 153 178 152
6.91528 1.69735 14.2639 69 81 71
-4.32267 -2.77222 25.439 93 89 70
-2.50121 -5.31458 -27.952 113 101 62
5.81635 1.79864 14.6379 76 87 78
6.34452 -1.87477 -10.2069 138 154 135
6.64783 -1.7786 -9.91784 140 162 141
7.80745 9.9801 -3.08343 55 62 54
-8.18113 -12.291 1.691 73 87 75
8.56905 -23.3467 -9.57793 65 75 66
-2.38028 2.68029 -18.4571 124 85 28
7.53032 -0.565813 14.7159 68 79 68
-2.94835 -5.35836 -28.5576 114 103 68
7.70452 -1.68722 14.9756 67 79 67
5.11384 14.6861 -4.43661 115 87 54
7.68384 -2.1349 15.0631 69 81 69
7.66683 9.77675 -5.57039 128 140 121
0.697672 -0.27256 -19.1129 134 97 30
7.89146 3.02747 9.13201 147 165 143
-2.21043 -7.64561 -30.1495 114 108 80
9.34315 -3.47253 -4.92273 60 72 62
9.60693 -0.953766 11.1206 133 148 126
6.91569 1.92546 14.2477 69 81 71
-8.32177 -24.5311 5.19652 63 75 65
-4.86516 -3.77573 25.9849 115 102 65
2.83389 1.20393 15.3193 71 82 72
-5.9047 -27.1356 8.62497 64 73 63
8.00855 -6.9052 -10.2067 141 114 64
-1.04401 0.63541 -20.5419 178 149 88
3.61454 7.94158 -12.3157 203 175 145
-4.87534 -25.4124 5.97451 60 67 55
6.84363 0.817862 14.5191 71 83 71
-7.27682 1.3876 2.71672 69 82 70
5.40798 0.187769 14.5429 77 86 74
-6.42919 9.3985 5.46824 64 70 60
-1.97112 -4.43239 25.8665 139 162 140
3.9577 2.42638 -14.2231 129 133 102
7.20445 5.42569 -11.032 84 86 66
1.15735 -4.44361 -21.1721 80 96 80
-7.92598 1.88217 -8.51741 66 77 63
4.12114 10.2819 23.0973 66 73 63
6.69288 11.6066 13.8175 64 72 64
-6.69222 -14.5691 3.05449 79 93 83
-0.344582 17.9235 6.92276 54 41 24
8.7263 -9.01345 14.3791 72 85 74
-3.10197 14.0292 -2.66503 72 49 6
-1.63147 -5.43106 27.4244 76 89 77
-6.67506 -25.404 7.56097 57 68 58
3.75334 3.19981 -14.3046 146 138 111
1.13096 16.2948 -2.36028 101 66 18
4.85288 -3.87498 -11.0767 161 181 149
-2.6499 14.9927 -0.250839 59 36 1
-1.60419 10.9283 -10.7789 118 81 18
3.09523 14.1402 27.308 77 87 72
-1.77659 -2.34138 -24.1734 118 96 60
-2.85045 11.4521 28.1568 62 63 46
2.76645 1.43165 -15.791 109 107 85
-0.198345 -1.00459 -20.6599 118 98 56
-8.89152 -7.75172 -46.584 56 66 56
0.416901 18.7187 4.5012 72 47 9
-2.96682 12.4191 -7.28263 101 79 46
-3.67158 -3.93498 4.5472 59 66 59
5.29687 7.46819 16.6701 62 75 64
5.77393 5.2875 15.1879 70 83 72
-0.925976 3.35666 -17.7588 127 88 49
-4.15925 -7.189 -32.7009 111 108 79
7.25969 2.55582 13.9269 70 84 73
3.09123 16.2344 10.5791 64 57 34
8.8912 6.11997 -5.9715 60 72 61
-1.21656 -4.12341 -25.1068 131 98 62
-1.70047 -1.55609 5.72968 64 73 65
-8.28397 1.49025 1.72652 63 77 65
-0.714695 14.3391 25.3164 81 70 52
-8.09894 5.29334 -4.02312 78 89 77
7.89127 1.15466 9.57364 151 171 148
-2.88585 -28.1426 7.09023 59 64 50
8.76718 4.07524 12.4272 69 75 64
6.8265 3.5566 14.3778 70 83 72
-4.67797 2.27771 6.12379 55 66 57
-5.47591 9.51696 9.26399 65 76 62
-5.09303 -28.9081 8.38422 71 83 73
-4.08862 10.795 9.75147 66 75 64
7.24654 2.10427 13.9932 71 84 73
7.26621 -5.1858 15.11 72 85 73
6.67689 11.2219 14.5739 65 77 66
-7.49259 2.90303 2.3566 69 82 70
-1.28102 5.93121 -15.4042 150 117 72
8.16676 3.699 -7.54911 63 77 66
1.63854 17.3937 28.4005 80 51 17
-1.09979 9.49778 -12.2475 145 116 81
-7.1576 -24.5029 5.97226 58 66 58
-11.0904 -7.32087 -51.0262 61 72 64
0.600084 0.894249 -18.2836 138 114 70
-2.13197 -0.297235 25.1125 67 75 60
8.67081 6.86286 -5.08465 79 95 83
3.45093 12.0736 24.7064 67 77 68
0.924412 9.36688 -12.1897 136 96 50
-0.147835 2.30153 -17.923 117 94 53
-3.854 -0.0618019 21.4351 78 75 54
5.01323 1.41505 14.9088 74 90 76
-5.74681 -9.05405 -42.8259 88 104 86
4.07722 10.4076 17.4691 69 54 37
0.690481 14.1934 37.1354 67 71 57
3.36924 -24.6743 -5.7412 62 75 67
-1.6041 1.07076 -20.3922 175 140 82
8.47584 -0.598324 -8.07257 130 150 132
6.90032 -1.75519 -9.62545 137 158 137
5.28341 1.61656 14.8053 75 88 77
-6.84268 8.64201 4.47073 64 74 63
-3.72554 -26.2196 3.89275 120 140 119
-2.17559 4.66596 -16.4455 129 93 33
-1.41994 14.0738 11.2672 56 48 26
-0.967335 13.6926 32.0638 64 76 66
-7.54459 -24.2367 5.28384 61 71 62
7.44781 -1.66804 15.014 69 81 69
5.29037 -13.1435 -11.9899 160 164 127
0.0906506 1.09255 -18.7065 108 100 66
6.82765 0.59742 14.5774 72 85 72
-8.10847 -0.03405 -5.80388 64 76 65
7.43156 8.11811 9.43957 63 74 64
6.23639 12.6039 -3.0978 61 72 63
-9.30611 -25.9762 6.82475 62 74 64
-8.13527 -12.7236 1.61041 68 82 71
-1.57 13.5948 30.8268 65 76 64
8.22662 8.84279 7.99126 67 78 69
-1.3395 9.42483 35.1275 67 74 63
-3.0476 -8.21216 27.078 79 90 80
0.0697708 16.0587 -3.5548 76 41 2
-7.45531 -27.6822 8.81028 69 82 71
-1.49308 8.66958 18.2299 56 49 31
-2.09023 1.56102 7.79 57 67 57
7.03813 -4.91585 15.0418 64 76 65
1.73874 14.9915 -4.72227 100 57 0
-5.27518 -10.2545 -40.5286 75 92 75
-3.84588 -0.184601 23.3654 59 54 43
6.59666 1.05889 14.5199 73 86 74
7.56448 9.66036 9.05254 62 71 63
8.83467 7.60821 1.4806 64 74 65
-2.64093 -0.858246 -22.6714 109 94 59
6.5702 0.615376 14.6216 73 87 74
1.45795 -3.5281 -20.7153 98 112 94
4.52807 12.7946 -6.16942 119 113 80
6.53615 0.176115 14.7447 71 86 73
-10.1449 -7.99247 -49.1678 58 72 62
7.2728 5.6834 -9.85535 83 96 82
8.44945 5.24743 12.639 68 75 63
-6.70218 8.57388 6.45006 68 80 66
8.9307 7.06215 -4.19541 101 116 101
6.93063 -1.99818 -9.63312 135 152 131
-1.40665 14.8153 35.3304 63 63 48
7.55547 8.30076 9.20956 62 71 63
-8.41319 -1.89253 -5.18235 60 72 63
-9.01017 -24.4879 2.59476 87 99 89
9.96649 0.751556 12.0871 65 76 66
-4.74763 8.40276 10.1058 70 83 73
-8.40671 -24.4266 4.89773 64 78 68
-3.44904 -26.2877 4.29258 99 116 95
-2.54824 4.59054 -16.2651 130 108 60
-2.03076 9.43021 15.5261 54 42 19
8.66545 8.26179 -3.85176 87 98 87
4.85853 -18.8677 -8.83987 65 78 67
-2.77096 0.010355 5.99007 58 69 59
-1.20158 14.2919 26.2657 91 68 34
-9.75933 -25.5371 5.20342 63 77 67
-1.31695 3.91023 20.8864 76 90 78
-6.80117 6.94773 4.87388 58 72 61
-2.59499 3.65657 -17.0165 134 115 59
2.38194 1.54032 -16.2325 119 93 55
-5.28292 9.26301 9.39013 66 79 67
-1.876 1.49661 21.8242 71 80 70
-5.45642 -13.7888 2.44985 69 84 76
0.122807 -1.59874 -20.9002 116 87 32
6.47051 -21.6454 -11.5717 174 172 133
-4.19124 9.91291 10.2532 63 72 59
8.3553 11.9017 4.83858 91 108 93
7.50894 -4.0061 15.0171 67 81 69
-6.73441 9.28757 -3.13462 73 84 69
3.08605 14.6641 24.5543 86 84 62
-3.07941 14.6848 -0.277233 62 39 4
8.00188 9.08228 -5.4909 110 129 114
7.8428 11.6224 1.41473 115 133 115
8.38797 11.6994 6.828 61 74 64
3.25385 13.588 25.2381 62 72 63
-5.95791 -8.36966 -41.9738 67 77 65
-0.388931 -8.38936 -20.0662 86 101 87
7.20124 -1.65425 15.0261 68 81 68
-2.7478 11.5992 28.5758 58 53 34
-7.32576 -23.3566 4.51435 62 76 65
2.61374 -2.25077 -17.6078 80 99 84
-6.8942 -16.585 2.96394 76 90 79
1.22875 14.9971 -5.05204 102 60 28
-8.21999 4.46815 -4.06919 59 75 62
3.11261 -25.282 -5.85207 68 81 70
9.79158 -2.23109 12.274 96 109 94
8.23327 3.61326 -8.01748 62 72 61
0.399809 12.5978 38.4247 65 71 57
-8.29837 3.47878 -4.38633 87 100 85
1.54368 -4.37434 -18.7946 61 73 65
7.58435 2.06596 9.12861 146 169 147
3.92788 1.74041 -14.612 128 119 91
-0.382915 13.028 14.2292 64 67 49
5.22355 -3.95241 -10.9544 159 176 142
-9.49868 -25.1952 4.86676 68 83 73
-4.17762 -1.90898 4.56229 64 76 66
7.55193 6.79201 10.0054 71 82 71
4.86428 -23.6076 -6.62201 64 78 67
-4.68258 6.03778 9.66827 63 75 65
-7.43832 7.03561 -3.07302 82 88 73
-5.49218 -8.53201 -39.4664 67 75 60
5.67969 14.4086 8.35497 70 76 61
1.00977 18.0499 2.2158 96 84 53
-5.614 4.60366 7.51981 61 72 62
8.44519 -1.54079 -7.90362 137 157 136
7.16146 10.8188 -2.30744 74 86 74
7.44826 7.67382 9.64126 68 79 67
-1.60835 9.48433 -12.1944 123 90 62
-6.84952 8.54834 1.03012 63 72 63
0.500715 -3.20342 -22.2624 123 113 65
-2.60698 -27.8276 5.8492 67 78 64
-2.32069 11.5062 30.6593 59 66 54
1.17952 15.4644 25.0223 100 67 15
-2.96343 -6.62444 -29.8903 113 105 65
6.07449 12.356 -4.46358 81 87 72
6.63522 1.72462 14.3685 72 84 72
3.87778 10.7599 16.5109 68 60 41
2.62231 16.9597 2.4997 71 51 24
-6.98714 9.05547 -1.2799 58 62 47
-2.76421 10.9705 28.9876 62 74 63
-0.924931 16.7342 28.834 90 79 61
-0.482018 -5.74719 -26.01 111 114 63
5.97071 13.4846 -4.20926 93 112 97
8.35841 4.62267 -7.03368 121 142 123
3.72161 12.1043 -7.37274 120 99 55
6.91305 11.9045 -1.25409 90 101 86
-7.68966 6.14047 -3.51841 65 73 60
-1.84793 7.75623 19.5985 56 50 29
-2.64811 10.4744 29.5991 52 54 42
-4.65071 -2.41094 4.43165 65 76 66
-1.69729 9.84842 -11.8629 123 83 26
6.90927 9.49188 10.1891 67 79 70
6.34569 1.30142 14.5321 74 84 72
0.369755 17.1377 10.9446 52 37 15
0.334965 15.868 12.4617 59 51 27
-2.37591 -6.15597 -28.6929 113 99 62
-5.87455 -11.6069 2.91978 78 90 82
1.27241 17.2713 28.0235 81 55 35
-6.44969 -17.8365 3.04684 77 95 82
-7.45285 -8.89936 2.35836 71 86 74
-3.45038 7.13001 11.8977 62 74 64
-2.60977 11.8541 32.4904 56 58 44
-5.06598 9.49344 9.46751 66 77 64
8.47811 7.67753 -1.89071 60 66 58
6.36611 1.74725 14.4459 71 86 72
5.98727 12.8581 13.7585 66 71 59
-5.05448 9.94536 9.42014 67 79 66
-0.349987 18.438 4.60415 55 32 11
0.790718 2.7101 -16.65 108 75 32
6.62941 -20.1486 -10.0694 61 66 58
-8.60061 -24.7078 5.19831 61 75 65
-3.33155 1.10322 21.6315 63 59 41
-3.73085 13.631 5.83926 50 41 8
5.49524 5.08758 15.319 70 83 72
-0.550018 2.6234 -18.1861 95 71 42
6.28806 -0.0381508 14.7802 80 83 75
-8.52541 -7.196 -46.7374 58 67 56
-2.5543 11.1158 31.1595 59 60 45
-0.425035 18.2775 1.94519 63 47 24
-4.65625 -25.6783 6.07931 63 70 58
-4.41464 2.90067 18.8797 63 72 59
7.07808 -4.01547 14.872 69 82 71
4.52108 15.2861 -2.94625 75 60 42
4.50322 16.0927 3.5349 75 46 13
8.99485 -1.14623 -7.19167 109 127 108
9.4152 2.06126 12.4148 65 72 62
-1.65936 13.0746 31.0005 63 72 60
0.721424 12.2445 19.9093 63 32 7
6.32191 0.85708 14.6275 73 86 74
6.18495 -1.19106 -10.4951 139 159 136
5.18461 9.50365 -10.8109 127 94 58
6.5344 3.35993 14.5339 75 84 75
-0.911835 1.86383 -19.2349 174 144 92
9.05493 3.61531 -6.06972 110 128 114
-4.55304 12.7558 -3.61834 95 70 24
3.85722 -0.145103 -15.3692 133 141 115
6.04801 0.427919 14.749 73 89 76
-4.4673 13.2627 1.83506 59 54 37
-7.33973 8.32902 -5.937 80 90 75
6.29922 0.41246 14.7199 70 88 75
6.06073 0.877136 14.6839 72 89 75
-2.4506 12.7512 -8.1032 136 109 62
-1.51547 -3.53157 -24.9686 96 84 45
-5.96099 2.52183 4.37309 59 70 60
-6.6693 -8.14595 3.13892 80 92 82
-5.41346 7.26274 -9.90864 120 110 81
-0.178312 5.99555 22.6572 65 77 67
-7.97148 0.916809 -5.5495 60 74 65
3.05144 14.5104 27.0627 66 75 64
5.8878 11.5726 -6.47983 110 109 92
-2.72618 -27.1025 5.57353 61 65 55
-2.20152 13.9798 9.14724 48 31 2
-5.7238 11.7215 4.08466 58 61 41
-8.34762 -18.3363 0.982796 98 121 110
9.59133 -2.39193 13.8099 67 77 66
-2.69996 -5.58794 -28.543 117 105 69
9.12257 4.42333 -5.80653 90 105 89
3.18566 -18.7463 -8.44463 61 75 65
-8.08415 0.488739 -0.540108 60 73 62
-8.0696 -19.0029 2.25483 75 91 80
9.62287 -2.19114 -5.98871 74 87 75
8.51772 7.60783 -6.38975 66 79 68
0.62471 -4.26745 -22.8326 91 96 67
5.79677 0.671387 14.7658 76 88 76
-3.66167 -4.19519 4.50513 61 68 60
8.36072 9.68518 0.849143 82 99 86
-4.95035 12.8339 4.53634 59 53 32
-4.2294 -26.5541 6.76117 65 70 58
7.64084 5.60178 9.31654 78 87 74
-8.5419 2.69243 -2.67326 63 74 62
6.15238 -7.5 14.6927 57 64 54
-6.4575 5.82291 7.16557 66 78 66
-5.21393 -24.0604 4.01488 56 67 57
8.18449 12.1574 3.8557 67 79 70
7.19001 7.1327 -9.23477 127 141 125
-6.52484 10.6472 -2.84317 56 57 41
-6.76163 -8.70091 -39.4118 59 67 61
8.57895 8.06532 0.529408 114 134 118
-2.86866 -2.33932 -24.8285 127 113 71
8.75471 -0.841465 -7.63601 119 137 119
-6.6289 0.444353 3.19556 68 80 69
-6.56927 -6.18727 3.93362 73 86 72
-0.675682 17.999 3.7771 84 56 6
-0.72332 -0.550941 20.6157 69 80 69
-3.45826 14.0788 -1.8649 80 46 7
-7.91588 -24.2016 4.97966 66 78 67
3.2738 2.92429 -14.7543 125 117 80
-2.65733 11.1353 11.3089 63 68 53
5.80734 1.12129 14.7075 75 88 77
8.22953 8.77953 -5.18832 98 114 97
1.33008 8.51587 -12.7236 141 104 51
-7.03642 -13.6277 2.76325 70 82 72
-2.6998 14.716 -2.05332 76 54 9
9.2762 -1.10973 10.9289 145 165 143
2.7436 12.1509 16.812 68 69 55
0.965359 11.2496 -10.1972 108 74 38
-1.08053 16.9111 -0.448753 79 50 7
1.0769 -5.17623 -19.5541 58 69 60
4.28633 -9.92976 -11.9322 170 189 156
-5.5226 8.04914 -8.9256 117 93 46
-8.42195 -24.6639 5.35167 60 73 63
6.0716 1.09962 14.639 75 87 75
7.71225 13.0286 1.88127 113 130 107
-4.18186 -27.9453 7.76798 64 73 62
-5.11345 -6.84979 26.279 66 77 67
5.84905 -20.155 -11.4444 178 170 132
2.87566 11.7311 17.2036 67 62 45
-7.90332 -8.90793 1.71487 69 84 73
-1.4442 8.44649 20.0341 65 51 28
6.08756 1.54703 14.5658 75 86 75
6.73389 -20.8777 -11.2751 162 157 120
-1.21083 13.799 11.9477 59 54 33
-2.59388 8.72081 15.776 51 36 7
-0.498005 2.46416 -18.3689 96 71 39
-6.11734 10.7705 2.34393 70 77 63
5.81452 1.34512 14.672 74 88 77
-1.91619 12.6672 31.2015 60 61 47
-0.988052 17.5342 4.26793 55 36 3
-4.62678 -8.27662 -36.6406 93 95 73
-5.20942 -8.72047 -31.2655 62 69 61
3.32201 12.1656 26.9439 60 66 55
-7.50774 5.94433 1.52412 70 84 71
10.0153 0.288532 12.0079 66 75 68
4.05465 15.1665 -4.15742 101 54 6
5.91451 5.86934 -12.5102 155 133 89
9.78498 -1.69946 13.2342 66 74 64
-9.39336 -8.68982 -46.886 60 72 62
7.64503 -1.69765 -8.75443 143 162 136
5.32281 0.460712 14.767 79 90 77
6.70966 6.57153 -10.9281 74 83 71
-7.57935 -7.80849 -43.852 57 66 54
-7.38428 -8.8909 -41.195 57 68 61
5.5384 0.918106 14.8034 78 89 77
7.56699 12.3613 8.54576 67 67 54
-7.16255 -7.88821 -46.4201 85 97 81
-5.18363 -3.88711 -16.7177 68 80 68
-3.46057 14.4542 2.40061 63 47 11
-3.14545 -0.233055 24.9235 54 44 29
2.04375 13.8823 15.2044 65 63 46
8.43017 6.57655 -7.61983 131 149 131
5.37803 -12.3265 -11.7855 151 157 118
0.519148 9.6795 34.6373 74 86 73
-1.54857 13.4853 30.3526 68 77 61
-6.21557 5.33685 7.06574 62 75 64
1.06309 17.5313 31.1032 64 52 33
-7.76385 -21.204 3.02345 74 88 77
-2.38679 0.801666 23.2831 58 56 44
0.439762 2.17481 -17.4868 105 79 48
2.27644 16.2108 12.2563 62 61 43
-3.71293 -2.398 4.72353 62 74 64
-4.13576 -5.20006 -25.2321 65 72 58
-5.59844 11.8037 2.55075 56 54 32
8.5435 1.49905 13.3351 68 76 67
7.17054 14.2642 4.25786 73 78 63
-5.66661 -26.4065 7.98895 64 72 59
9.2182 4.81258 -1.95405 61 71 63
4.16807 11.0026 21.2463 60 69 58
4.89632 4.97629 -13.3627 155 141 98
-0.630684 13.601 38.247 65 67 58
-4.08892 13.3383 6.83235 47 31 2
5.25601 6.48211 -12.5593 202 175 126
6.62896 12.3548 -1.34089 93 104 88
0.289799 16.2266 -3.15277 81 51 37
-6.40517 -10.4362 -34.7296 60 70 61
3.15171 14.1757 27.5571 81 89 73
-1.91475 7.7445 -13.6579 129 109 82
-5.51466 -26.0611 7.45469 63 70 57
-1.72365 11.2239 -10.4585 131 82 9
5.55333 1.36518 14.7333 75 88 77
-0.500553 15.2227 25.5602 92 58 32
-6.8333 5.7642 2.42292 61 75 64
-4.12752 -4.93741 -24.3755 74 77 59
-1.42727 -5.12259 -26.3617 122 102 66
8.65756 7.29339 -4.95564 83 96 84
-1.35279 -4.32034 -25.4901 121 111 71
5.96954 -19.0526 -11.1321 150 154 133
4.75859 -10.213 -11.8165 169 181 143
8.14626 4.2869 9.71077 127 134 110
3.00924 2.24728 -15.2715 131 113 78
8.03928 -9.59014 14.6586 69 75 69
9.70551 -2.16944 13.5467 68 75 63
6.56393 9.74479 -7.84208 91 87 62
5.92692 10.9467 -7.45217 100 86 64
-8.1433 -23.9334 4.48993 69 84 73
5.32681 -2.95207 -10.769 158 179 152
8.83775 4.98944 0.974685 85 99 86
-0.23188 14.3953 37.6241 74 87 74
-4.37778 -6.38888 -31.0318 86 82 58
-5.89889 12.6216 -1.23027 65 67 55
-4.77429 6.40595 9.76624 63 76 65
7.37011 13.8991 5.51422 101 85 43
8.46581 11.7457 5.04089 85 100 88
-3.99056 -7.7909 -33.9661 95 93 69
-0.575386 -1.76559 -21.9077 119 98 43
8.89763 7.58214 -3.56542 66 76 66
3.81882 13.6477 13.7585 67 67 47
-1.52546 10.7959 -10.9558 130 97 51
6.03038 8.55623 -10.337 120 126 104
-1.72152 9.1569 22.951 62 69 54
-4.14396 -4.94793 4.4007 57 66 59
5.97376 -0.593063 -10.7755 142 162 141
-4.32705 -25.4222 3.49827 121 134 119
-8.19465 -8.73356 1.37104 72 87 76
-4.96388 8.75985 9.53344 66 79 68
-6.00822 12.2435 -1.86347 89 86 65
-8.0462 -7.70402 -48.8052 93 103 94
-1.11823 -1.30859 -22.3343 117 103 53
4.58254 0.730183 14.8212 74 87 75
9.15438 -0.0941467 10.5755 151 165 141
5.28089 1.16425 14.8406 75 89 77
8.58556 6.94411 0.360667 108 127 110
8.7997 7.76514 1.90455 106 124 109
3.20794 11.55 19.1068 76 54 9
-8.00396 -17.2405 0.890682 86 106 90
3.26863 15.5306 -3.0686 64 46 17
-7.74526 -24.5031 5.59313 60 71 62
-3.77292 4.91564 9.77773 59 70 60
-1.16472 10.1322 15.8164 52 41 19
-3.78951 -2.76039 -22.603 65 66 56
-7.83784 -25.2082 6.59128 66 78 68
7.74315 4.26814 -10.8405 95 107 93
-2.91573 -27.9291 6.93801 58 63 50
-6.68292 -18.3757 3.06605 77 92 81
9.00917 -9.50617 12.1651 125 136 101
3.74562 15.0966 12.0154 67 65 50
4.84195 15.6405 5.14788 74 67 45
-7.06744 -7.71697 -45.1002 61 71 60
5.61728 11.9656 -6.44912 110 94 61
-2.72211 -7.02814 -29.9777 125 114 69
5.52151 -10.5752 -11.6285 167 183 152
-5.91279 -24.1881 5.36398 61 70 59
-8.19351 -7.43602 1.08772 59 75 66
8.39784 11.2911 3.83174 66 78 68
-3.37803 1.18711 -18.1161 69 67 48
0.471319 10.1737 34.2343 78 92 81
-1.10242 -6.3466 -27.3575 108 103 73
6.48186 -0.790955 -10.3601 138 158 135
-1.52643 7.73571 20.5441 60 72 59
4.89521 0.453728 14.624 71 86 73
-7.86855 -22.8117 3.63318 72 86 76
-1.62836 7.39924 -14.0019 131 91 40
-0.343258 -6.43934 -26.3018 126 129 99
5.46777 14.683 -4.04398 89 82 57
2.69664 14.1659 -5.65813 94 61 6
-5.20721 10.312 -6.92018 201 198 164
-9.69026 -6.28124 -51.6963 99 107 93
7.06297 8.78963 10.1911 64 74 63
8.92717 7.99946 2.06189 134 156 137
8.28864 -6.72728 -9.89041 147 129 79
-5.23078 -22.0136 1.64172 68 80 71
3.66647 15.8475 9.30759 70 68 50
-5.27791 -23.4669 2.63996 68 79 68
6.80397 10.4231 -6.32799 125 132 109
-7.67507 -5.75154 -0.69989 69 85 72
-3.55612 -9.07577 -35.8743 101 116 99
-6.61922 -25.8741 8.13363 59 71 59
6.13094 -16.3852 -11.0766 116 131 108
9.67487 -2.47892 -5.66623 72 85 73
1.42028 15.7991 34.7369 60 54 32
9.53483 -1.90908 13.8741 72 80 69
-3.01539 0.597549 -19.9451 114 109 86
4.43332 3.70811 -13.7089 146 148 111
7.31889 9.72931 12.357 71 82 71
-1.6736 14.5587 9.13572 54 40 7
-7.08538 8.6385 -4.58566 64 76 66
5.86988 15.0237 7.12375 71 61 36
-1.28231 -1.56116 -22.7092 120 103 60
4.4566 9.02227 20.9067 62 74 63
-1.79234 13.7757 26.5367 103 63 5
5.11403 7.18245 -12.2123 200 187 143
-1.06816 16.3774 -2.70947 77 42 6
8.06632 10.3993 8.00249 74 85 77
-0.891434 10.2346 21.377 62 47 29
9.25666 -7.26151 13.0264 141 137 101
-7.55997 -3.49688 -2.94017 61 75 65
-1.56327 13.8956 34.4819 58 48 20
2.50723 15.881 32.3189 68 69 56
-8.16335 5.79193 0.52079 65 78 64
-5.67178 11.0306 -5.6547 92 75 36
-0.941639 6.88082 22.9987 62 74 64
9.60056 -2.93398 -6.3511 98 114 100
1.78359 -23.069 -6.46188 53 67 58
9.14816 6.94094 -3.42685 76 90 77
5.89246 -9.36077 13.4635 79 88 69
-3.4851 3.2626 -15.7022 87 90 72
-8.41551 3.37748 -3.33924 62 72 61
7.75869 -2.70395 -8.918 151 163 138
-7.21907 4.73063 -8.63873 65 78 67
-2.32428 10.2122 33.4396 65 78 64
-6.71727 9.41521 2.07647 75 70 54
7.45414 10.8081 9.12151 64 73 64
-3.6147 -2.77323 27.3613 64 65 52
-2.80892 -1.82892 5.26242 61 71 63
5.05812 14.1206 10.5253 69 68 51
-3.03803 -26.8205 5.84002 55 59 45
9.25718 0.757881 -6.32851 104 119 100
-6.69133 10.2586 -5.10289 60 59 41
7.87419 -22.4364 -9.07752 57 63 52
-8.24018 3.71017 1.31638 64 80 67
3.74528 1.40228 -14.9439 129 123 83
8.05251 9.49402 -4.94761 102 118 100
8.44895 7.87146 -0.588729 62 73 61
-5.45279 6.24772 9.0855 64 77 66
7.55118 8.52744 9.16057 61 71 62
8.32867 8.15453 -0.391258 62 74 62
5.28201 11.6374 -7.52386 120 101 67
1.99486 16.5782 26.7879 75 50 5
-3.56685 -5.11906 27.9361 82 97 83
8.33331 -5.92449 15.1869 68 80 69
9.6398 -1.70372 13.6185 71 78 68
-6.79715 2.63103 2.86049 71 85 74
-1.76535 9.57181 34.7545 62 68 56
-1.00873 9.79246 20.4824 81 59 14
-8.15327 1.3211 2.06628 71 84 72
-3.88708 0.454865 20.5611 59 70 60
5.52945 9.29931 17.8804 61 74 62
9.87326 -1.78648 12.8925 66 74 63
-2.0291 -6.03695 27.7059 73 87 76
3.30089 16.6819 4.46006 72 59 32
0.0858688 11.9249 16.8501 56 46 18
-3.27 -2.72491 -25.0656 110 94 60
8.04321 7.3011 -8.04564 135 146 123
-3.96733 -25.7732 3.90432 98 107 90
2.00109 15.7234 -3.18744 79 49 8
-5.83153 -25.7306 7.48957 61 68 55
3.33147 13.2768 -6.5455 196 155 121
-4.35813 -2.51982 25.673 63 61 42
-1.83247 12.9944 29.876 71 66 48
8.5097 -3.36008 15.1099 65 74 62
-7.9514 -16.6136 1.51221 63 77 68
8.88743 7.30538 -4.05738 87 100 87
-8.28769 4.82031 0.452261 63 79 66
5.07508 0.429913 -12.5557 103 121 105
-4.2312 -2.12137 25.1026 61 67 50
-7.83202 -16.2958 1.86473 68 84 73
9.47432 0.403015 10.6736 155 168 141
-1.91672 10.0148 -11.68 111 81 26
9.20645 -2.49708 11.5986 135 155 134
1.09525 12.7926 21.3435 72 43 0
2.0995 12.6563 20.6794 71 41 5
-1.51978 12.8588 28.433 66 81 71
6.63626 1.42255 8.72348 141 161 141
-2.12274 -1.38379 26.2259 69 77 63
-1.72361 16.2464 -0.139605 95 63 11
8.65393 10.0244 4.15406 63 75 65
6.34217 -5.1374 -10.6447 152 147 105
8.90302 6.77456 2.23364 78 92 80
-1.96733 12.6512 31.6788 69 66 48
9.47544 -3.99146 13.5683 68 79 67
-5.15551 -3.28735 -16.7004 64 77 65
3.42437 12.9975 -6.69645 149 107 62
5.87174 -0.154873 -10.9103 140 160 139
-3.98534 -9.407 -37.2585 90 107 90
1.81188 12.3534 18.8665 72 55 38
-0.57752 5.70289 21.9073 65 75 66
-1.3755 14.0239 34.1787 68 63 40
5.14271 6.15905 -12.8636 145 112 59
-5.07126 -0.96114 4.08424 67 79 68
0.690527 18.3884 2.75636 78 58 33
-3.1322 -26.4437 5.36934 56 61 49
7.35979 8.32129 -8.23859 103 104 78
6.79524 9.74433 15.4404 64 74 65
0.876255 -2.77828 -21.2614 102 100 75
0.926197 17.1981 27.945 81 53 16
-5.14955 -11.3842 1.95965 63 76 67
5.82435 0.201302 14.7185 78 91 79
-1.95625 16.0473 30.6479 59 50 26
-3.21987 7.9641 15.8419 49 36 8
9.08714 7.16724 -3.35126 73 86 74
-5.71032 -22.4137 3.13904 59 71 65
6.37988 -20.6795 -11.4234 166 159 121
-6.74102 -25.6777 7.89163 58 70 59
-2.87937 8.7343 13.505 64 65 45
6.19081 12.6257 11.2767 63 72 61
-0.670887 6.15503 22.1803 61 70 59
-1.64979 14.2097 9.91522 54 44 19
9.03113 7.84143 4.99664 88 103 90
7.54363 7.17003 9.59592 70 81 71
-5.46182 -23.1618 1.76537 95 116 99
-2.75845 -6.72855 -29.7199 106 96 59
-0.679005 9.81281 -11.9356 121 67 6
0.0844288 9.70601 34.7889 74 88 77
-1.53946 3.5017 20.9201 76 89 78
-0.435745 15.5305 36.678 57 44 19
7.8082 13.4025 6.70701 66 75 67
3.41609 16.6175 3.9373 75 48 5
2.32923 2.62947 -15.4928 192 140 86
4.47122 14.9602 9.61509 80 73 46
-10.0701 -26.1976 6.61888 58 70 59
4.54727 10.3387 17.7868 68 46 22
-3.11822 -9.30358 -34.8302 93 110 91
-2.44059 12.1787 28.057 57 57 43
7.68572 -9.02181 14.9032 71 84 74
3.52704 15.4898 11.7753 65 64 47
4.11757 0.883411 -14.6676 122 127 115
-2.10759 10.3228 26.2579 91 73 33
7.72887 13.4415 2.76244 79 87 72
8.40108 7.65324 -0.995784 102 119 103
9.35236 -4.55524 13.9212 67 77 67
6.87023 0.0521431 -10.3872 132 152 129
-3.9525 -7.1881 27.1191 72 85 75
0.760071 17.0269 32.2573 62 47 21
-6.67514 -23.1566 4.46496 64 75 65
-1.94197 -5.68397 -27.5604 113 98 61
-0.512054 17.6136 7.75251 55 41 12
9.29319 3.69453 -2.18216 60 70 62
7.91633 -3.03918 -8.79797 142 151 125
8.76205 -7.1348 -9.61145 145 143 111
-10.3488 -26.3688 6.62331 57 71 60
0.276857 14.0311 14.4635 64 52 26
9.07442 -8.18437 12.5802 148 132 79
-7.99929 -2.52135 -4.47463 57 71 61
-9.1974 -6.73113 -48.7367 60 67 58
-7.96065 -1.6884 -4.48862 60 74 64
-5.93285 7.97395 -8.61386 140 135 102
-0.260258 3.37049 -17.2417 105 80 54
8.36584 -1.05219 -8.05454 132 154 134
3.46511 -22.7566 -6.14161 61 73 63
-5.57194 8.94807 -8.1193 118 82 14
-4.17179 -25.4219 4.59198 58 63 51
6.34637 12.2824 13.3553 67 72 62
-2.33466 2.09438 -19.2157 170 145 84
9.01719 7.37638 5.75687 69 81 71
8.74981 6.34058 -1.68714 61 70 62
-1.30047 11.2433 33.8668 64 74 64
-2.19152 15.943 4.18037 50 30 2
-5.12147 -7.6171 -27.2839 89 97 76
-6.22347 8.13858 8.52686 68 81 69
9.20877 -8.57777 12.4425 132 124 79
-1.5369 8.49124 18.8397 56 45 23
-0.748741 17.0711 29.0638 138 115 76
0.964312 -0.177116 -18.7888 108 77 16
-8.42465 -7.82289 -45.3002 56 67 56
8.16011 9.63543 0.158075 120 133 112
9.84911 -2.13039 12.9854 67 75 63
-5.89073 8.09064 8.94882 70 84 72
5.99348 -14.6024 -11.5681 116 132 116
-7.01271 7.63144 1.4802 60 72 64
7.86757 1.76694 -10.468 127 145 124
-1.35745 7.56489 21.8793 85 100 83
-1.68678 13.8599 -7.24827 105 69 21
-3.93297 -4.86256 27.8253 81 93 82
-4.26114 -5.8557 -26.9683 60 68 57
-1.05114 15.9305 33.7363 56 42 16
3.04046 10.5585 -10.0457 128 87 34
-2.41716 14.8085 6.54753 51 40 12
5.47414 5.54129 15.3488 68 81 71
-6.87077 6.31242 4.92387 59 73 62
4.02409 14.5335 12.629 67 56 32
8.04723 4.23529 -9.83182 77 80 61
-7.77618 -9.43387 1.91115 69 83 72
-1.15583 -5.75529 -26.6897 111 98 62
-5.10899 -24.6791 5.10909 59 65 53
4.53975 14.9147 10.2971 67 67 52
7.11481 13.4039 1.67363 112 94 55
-7.28724 1.14611 2.75946 69 81 68
-5.88734 -8.70217 -35.3798 58 64 54
-1.45131 14.5164 35.6409 63 58 45
-3.26994 -7.41667 -31.3316 104 97 63
9.71175 2.70897 -3.41267 68 82 71
7.28674 8.19246 10.2938 72 83 69
-5.02069 -5.41021 -22.25 81 86 69
8.64548 -0.81073 10.5613 162 181 153
6.45693 -5.67142 14.6916 58 67 56
-7.45807 -5.03744 -1.34262 70 86 75
-6.65188 6.36945 6.88163 63 75 64
7.07376 -3.24443 -9.67095 150 154 118
-4.79394 -24.5691 3.74728 66 72 62
-0.37986 5.49798 21.9736 67 83 70
-3.67223 -9.50036 -36.1806 80 96 82
4.11806 -10.5449 -12.0153 166 184 150
-7.57945 -4.57225 -2.92299 56 70 61
-4.63206 -1.17987 4.3605 68 79 69
1.16559 17.6413 0.787741 68 51 19
-5.57172 -9.36701 -29.8232 58 69 58
-1.16942 14.6951 34.2506 73 76 53
-0.735447 14.2549 -6.65892 95 56 1
2.81481 11.4043 -8.99928 125 94 60
0.121386 2.10409 -17.9194 104 85 49
6.61145 9.33635 -8.53321 90 98 86
-9.09612 -6.55539 -50.0842 63 65 56
-0.907639 13.1679 -8.38158 102 62 18
0.294987 5.96148 -14.8917 147 114 68
8.82464 7.36703 0.994183 104 118 103
-1.13437 3.51126 -17.6311 117 77 27
-10.3638 -7.25271 -49.8024 54 64 55
1.78909 17.9484 7.22757 62 58 38
-6.82768 -27.1553 8.90236 66 76 65
3.83748 1.57357 -14.7775 140 130 91
1.95416 2.24598 -15.9766 166 133 90
2.40479 2.24813 -15.6907 146 116 61
4.03077 -0.0149536 -15.1024 95 103 87
-0.290329 17.3508 29.6554 69 35 2
-6.6132 -9.49189 3.29313 83 92 83
9.2484 -4.76844 14.1825 69 81 70
5.50595 4.73085 -13.1334 164 142 93
-0.284664 15.8495 35.9426 57 35 8
8.68495 4.41502 12.039 70 72 58
5.46373 3.3827 -12.9041 124 144 123
-3.60961 -2.25623 -23.4909 84 85 71
-5.39608 -1.9004 -15.6362 68 78 66
-8.58404 -0.161572 -1.72454 63 77 66
-5.18355 -23.8176 3.09391 63 73 61
-1.64164 12.9142 37.6817 63 61 45
8.29267 8.41717 -0.899648 87 102 86
-0.413795 16.7418 -2.23353 80 39 6
-1.89967 12.8412 32.0811 69 70 49
9.56311 1.43237 -3.45914 64 77 67
0.744053 3.00974 -16.4157 102 78 46
9.0904 0.614834 -2.84774 61 70 62
-2.50363 13.2813 -6.99122 88 58 18
8.96886 5.2916 -4.92091 74 86 82
0.356815 9.85287 34.5576 74 90 78
-5.19891 -25.2597 6.2005 62 69 58
7.02613 -12.6704 -10.5361 131 143 121
-2.78806 -1.05604 5.53625 57 67 59
-8.03868 -20.8201 2.61623 77 93 79
8.8673 7.53815 -2.25007 69 77 68
-8.25746 2.08226 -1.42331 63 75 64
3.61327 1.90744 -14.8845 128 131 98
4.93211 -4.35167 -11.1017 166 184 150
7.80306 4.48646 -10.2443 80 89 74
-6.99234 -10.0703 -37.8165 55 66 56
8.98168 5.45678 -1.80905 61 69 62
4.97286 -23.8325 -6.63575 64 78 67
-3.8892 13.4432 5.83653 49 39 13
3.54761 12.3275 23.0883 81 92 76
-3.21197 6.87641 18.4502 53 45 22
-2.16575 -5.53366 -27.6621 109 97 57
-4.69249 0.870598 4.99617 61 73 63
6.6644 -7.52512 14.9139 71 83 73
8.12104 3.0952 9.37791 140 154 132
9.05396 -6.4164 -8.94639 114 122 101
-4.81256 -24.5007 3.29722 70 78 66
-9.88412 -26.4421 7.18652 63 75 64
1.77997 9.72863 -11.4456 117 82 40
-8.08758 -2.36398 -0.236835 56 70 59
-0.023571 15.9937 -3.8344 83 40 4
9.18246 -1.6388 14.2601 68 78 66
-0.666359 15.8666 35.7263 51 36 1
-2.68186 10.944 29.6887 63 59 47
7.40379 0.0969772 -1.36093 60 70 62
4.64142 13.7115 13.4634 69 62 41
-1.85726 -3.04728 26.8073 67 79 70
4.89523 13.8229 13.1479 68 65 52
-8.28493 -12.8026 1.43027 67 81 70
-1.78056 -4.5806 -26.4015 117 96 56
-4.39212 11.0906 -6.88308 110 91 44
-1.25426 -2.07273 24.8001 69 80 70
0.329163 5.15238 -15.354 108 92 60
0.719265 17.1577 -0.668779 108 75 28
-6.8929 -14.8789 2.95455 72 86 76
-1.6063 16.5239 5.2187 52 35 4
-2.65681 12.1025 -8.56145 94 73 34
-5.31218 -9.8709 2.73347 73 83 77
-6.44969 -8.39439 -39.1577 60 68 55
-4.04871 -27.5498 7.51863 65 70 58
7.69848 10.4405 -4.05984 58 62 48
-1.18674 14.2043 33.3573 62 68 57
-2.33328 13.1667 -7.68426 97 76 51
-4.8115 -4.76333 -21.8087 77 84 67
6.55598 11.9411 -3.96577 60 67 55
-1.21325 15.3415 35.8791 59 51 33
-1.64051 12.6222 28.481 61 74 63
-5.01752 -4.05439 -18.6763 77 88 73
0.545464 18.0409 1.12131 91 68 31
-2.72565 1.11824 22.5441 55 49 34
0.521492 14.1168 23.637 102 54 7
-5.91154 11.4237 -2.9827 80 81 62
-3.79443 -6.61245 27.4281 69 80 68
-7.87066 7.16553 0.474224 60 72 59
-1.99057 -8.30216 -30.239 108 116 88
3.26836 11.0413 17.5789 70 64 42
-7.10802 6.43639 4.24816 62 73 62
9.45065 -2.06351 -6.44593 99 118 100
-4.33805 -10.1469 -37.6826 80 95 84
6.73261 -22.1048 -11.508 163 168 129
6.20044 -9.88055 12.7728 78 71 48
-3.25595 -26.4426 4.49183 95 109 90
-7.36864 5.32336 1.81492 71 86 73
-2.07643 15.9984 0.817305 77 53 10
1.43208 15.4373 24.8456 81 63 37
-7.85416 3.52756 1.91685 70 81 70
8.90271 4.98632 -6.38283 96 113 97
-0.079052 12.3798 38.8625 72 75 65
6.54742 10.9778 15.2905 63 73 61
-7.29929 5.13927 -8.04552 84 94 80
-6.1492 1.23779 -12.5826 87 97 80
-7.5685 -8.53802 -42.3184 60 71 63
-9.98362 -26.3029 6.91314 59 71 60
4.99838 -9.78677 -11.7168 163 167 136
-0.341675 -0.867718 6.64711 65 77 68
-2.81639 14.8182 -0.674282 66 41 4
1.93041 15.2349 13.8431 65 59 40
-0.113586 17.1622 28.7743 72 41 7
1.15816 13.494 22.6597 92 52 5
-7.99826 1.47324 -7.14372 64 76 64
-3.75662 14.198 2.73366 59 39 16
-4.6231 -9.15376 -38.7948 93 99 86
-2.56898 -0.726635 25.8045 65 72 57
7.33878 9.35564 12.6127 64 75 65
-1.22401 15.7088 34.3075 68 54 25
-1.34047 14.4179 26.4851 107 87 51
-5.98312 -3.92222 4.16469 66 78 68
-5.55602 -8.77764 -41.8852 74 81 67
0.188076 10.028 34.4933 76 91 81
7.6604 13.6765 3.80981 66 78 67
-5.11356 -7.42063 -22.511 63 74 64
-0.448338 15.5763 11.367 59 49 25
-1.4139 -5.79458 -27.0421 114 105 62
9.20104 6.78717 -2.60755 71 83 73
-8.06639 -22.1517 3.0802 74 86 76
6.24876 -21.7256 -11.6377 177 176 140
-8.09393 5.15046 -3.56628 63 72 61
-7.43455 -10.0737 -39.1647 57 66 57
-2.99763 -26.9191 4.70747 119 127 110
9.0892 7.63175 3.98357 66 79 68
6.42573 -1.71801 14.5127 54 65 55
-0.18996 -7.70096 -25.133 57 69 59
-1.93619 14.309 27.863 65 56 29
3.85241 1.11496 -14.9458 123 107 78
-7.99262 0.54924 -5.73437 61 75 65
3.82985 13.2851 -6.35262 167 134 102
6.65721 10.2867 -6.70433 113 125 109
2.9821 15.1686 -4.25183 98 50 1
1.08851 12.3605 -8.79778 87 51 3
7.23347 9.96108 11.6076 99 111 95
-4.83274 -1.91442 -17.1232 97 102 80
8.5854 7.19525 -7.06679 78 88 76
-8.18425 1.96381 -0.433731 86 99 88
8.11505 3.65595 -10.3018 108 107 87
-2.56121 -28.7475 6.39427 69 83 77
0.950737 -3.45516 -21.6994 84 92 70
-2.53614 15.0805 -0.422462 61 38 1
-8.88227 -26.0556 7.11449 61 72 61
-1.19404 -4.44234 -25.3492 126 112 68
2.17413 15.0333 24.2174 131 115 85
7.67199 -10.858 -10.3981 124 142 122
-0.705402 12.9875 -8.55656 104 64 8
0.131128 16.1359 11.9552 62 54 31
-7.61979 -5.13141 1.32375 63 78 66
-2.6358 12.3211 10.0335 61 68 58
6.72027 11.5493 -2.5762 97 114 97
-1.60728 15.1825 -4.71877 75 44 10
-5.17799 -23.9059 3.54671 60 67 58
-7.95731 -0.572395 0.175198 59 71 61
-1.7264 3.17112 -18.1127 115 68 7
3.45406 16.5475 4.88014 77 70 45
-4.83961 9.02021 9.69821 66 78 66
-1.97761 14.3052 8.76455 49 33 0
3.41583 9.1157 -11.3542 128 77 7
-6.26721 8.44325 8.255 64 76 64
-4.4954 -8.53646 26.3497 70 81 69
8.76346 3.71491 12.6925 63 70 61
7.92964 7.22096 13.4081 67 77 66
3.59972 2.58191 -14.5054 126 132 105
-3.86773 -2.0209 26.4833 62 56 38
3.96338 10.6842 19.123 67 65 40
3.26065 14.7789 25.6154 66 72 61
-1.94758 16.1409 2.28209 56 37 8
8.31931 8.0375 -5.7458 71 79 62
9.7121 -0.268791 12.9288 65 71 61
6.06882 9.04573 -9.78194 101 111 84
-3.99914 -25.6089 4.79805 58 62 50
-5.48878 -23.5863 3.58394 62 67 58
-1.97115 -3.79197 27.302 68 80 69
-3.90111 13.5161 5.43316 52 47 29
1.24282 0.6446 -17.8654 126 89 36
8.76595 7.21962 6.67034 63 73 65
1.83309 0.231232 -17.6526 116 90 49
-4.41747 3.48687 18.7598 60 69 59
-3.41022 -1.54381 -21.8849 81 81 60
4.14165 2.10322 -14.126 134 142 115
-3.62119 1.66523 20.5971 68 75 65
2.35775 11.9811 -8.53673 101 65 6
2.70685 13.6014 -6.31355 128 80 29
1.95016 -20.7236 -8.72092 63 71 61
4.51852 0.74424 -13.9169 114 129 111
8.85275 -3.93534 -8.23327 129 130 102
-7.0606 -19.2754 3.10745 72 86 76
2.60359 1.07868 15.0588 66 77 68
-2.5181 11.0933 30.9252 62 64 49
-6.17801 10.9092 -4.02004 71 64 44
-7.66365 -5.93957 2.62686 63 76 65
-8.00297 4.95734 -2.82234 69 82 68
-5.04336 8.06287 -9.45068 112 99 65
-0.551723 18.0686 1.35813 57 40 13
-2.52921 11.9783 -9.16287 129 101 65
9.28974 0.425213 -3.18855 62 72 64
-3.92046 4.17617 -13.9682 95 103 86
0.45018 -5.57218 -23.9103 107 121 100
-7.66545 -5.34626 1.39277 61 74 63
-7.95038 -1.42089 -0.0349197 58 71 62
2.19994 12.8104 21.2508 104 63 6
-2.34962 11.7978 30.3457 57 63 47
3.18716 -7.35495 -12.0587 172 193 165
-2.67034 11.856 27.2929 87 73 42
-6.55621 -9.275 -37.8884 61 68 57
-7.98222 -10.7005 2.0397 73 87 76
-1.25082 14.4981 34.4646 69 65 40
-3.89506 4.91771 19.2525 68 77 67
7.58795 6.48972 9.29417 72 84 72
-5.02957 -5.84451 -23.1438 83 91 74
7.54704 8.19813 12.1636 90 101 82
-3.92212 0.727409 5.61184 62 75 65
0.230518 -0.571732 -19.7672 116 89 36
9.3034 -1.09949 -3.89529 65 75 67
-5.06424 -6.01129 -23.4796 77 85 71
-2.40285 11.7281 30.1382 55 56 37
-8.09491 4.31583 -1.92299 65 77 65
-2.94787 14.9912 2.22634 62 39 6
9.39674 0.872627 -5.88815 89 106 88
5.72338 12.6429 -4.69735 135 142 127
6.15667 -19.948 -9.64342 56 67 57
6.61576 6.89295 -10.6282 83 94 79
-8.71879 -11.3897 0.911758 63 77 66
0.36363 -3.78886 -22.8748 102 98 71
-8.08577 4.27548 -1.32583 66 77 65
0.659809 18.6345 4.69615 66 46 17
0.684032 16.0831 35.3987 66 58 40
-3.45871 4.27988 20.0245 69 78 67
-5.55379 -13.5505 2.58662 69 87 78
1.91035 14.5221 14.6379 63 58 39
7.17712 -12.854 -10.1958 83 97 80
6.16581 13.8801 8.36835 72 72 58
-1.2955 -2.9231 5.16012 62 73 63
-1.05478 -3.55519 -24.3051 105 89 49
-7.41577 8.39122 -1.47574 64 71 57
1.99355 17.257 28.1361 81 57 25
3.20194 11.7726 28.9891 65 67 56
7.75328 7.87164 13.5549 63 72 62
3.46003 12.3073 22.5391 74 84 66
-1.99562 9.47847 25.5475 61 65 54
5.34941 15.1482 2.03677 75 71 52
5.69989 12.2539 -5.91668 100 79 52
-6.42676 10.5655 -4.76307 65 67 51
-3.14477 -1.19219 26.2951 64 65 50
7.5961 3.8997 -11.285 132 151 130
0.291199 15.5084 -4.48999 96 48 1
9.30921 6.1193 -2.27306 66 74 65
9.55202 -1.71184 -5.99149 91 107 95
-7.13444 4.69936 2.1694 70 84 73
2.03298 12.5702 -7.91416 106 74 45
-1.01247 15.9672 8.71451 49 33 8
-6.95348 -10.4902 -37.3713 56 65 52
2.98605 1.16866 -15.671 121 107 74
-4.32719 -25.3085 4.83997 60 60 50
8.88033 7.7487 4.46273 65 77 67
-3.07437 -26.9356 6.08712 55 60 48
-1.30273 -0.97776 24.2711 67 78 68
4.27699 6.9294 18.8205 118 139 126
8.12822 2.96111 -10.6227 114 127 104
0.423168 8.91308 -12.6961 123 81 38
-1.44183 14.2656 28.7663 67 79 68
-1.86819 -7.53999 -29.4098 77 69 42
6.52785 14.7008 6.84666 77 70 52
-4.93025 12.9007 4.32443 55 54 33
8.61065 2.44206 -6.97624 117 134 112
-1.43171 -6.39225 25.912 141 159 134
0.11441 12.8233 15.6139 56 41 17
0.0713234 -1.18674 -20.5075 130 103 49
3.6315 16.1244 8.70052 65 62 43
1.00266 -2.09745 -20.5807 117 94 50
-7.49851 -11.8416 2.26207 67 82 70
7.24038 4.4842 -11.6782 125 138 120
7.3524 8.66715 13.862 66 74 65
3.1234 13.2508 25.4435 61 73 63
-1.48367 13.3467 31.1138 66 81 69
-0.89258 2.92065 19.8558 71 83 72
-7.72781 -6.02465 -0.529072 76 92 80
-3.16886 -7.31406 -30.9409 101 91 58
8.96355 6.61428 -4.24868 87 96 85
-1.12086 17.0564 0.0786476 73 48 8
-2.2225 12.5328 27.0992 64 75 66
-2.36288 5.31116 -15.6692 126 114 81
7.03994 -9.9546 12.1254 83 81 57
7.53294 -22.1492 -9.02941 60 65 54
1.98412 16.6518 11.684 65 49 26
-0.201992 -3.96133 -23.7383 120 104 64
7.87857 -23.2436 -8.68433 64 74 64
-6.56792 5.30584 5.55603 57 70 60
1.17064 16.0338 25.7344 97 65 32
-4.89256 -24.2191 3.29051 66 72 61
-2.62135 -28.2961 5.90113 91 100 81
-7.87988 2.40006 -8.12072 63 72 61
-8.11974 1.65498 -0.798996 57 71 61
1.73294 14.7676 34.9675 64 73 62
7.50097 -21.9927 -11.0911 159 156 115
-7.0868 -15.53 2.80441 72 85 75
3.86908 15.6008 10.4155 67 55 26
5.31739 9.70376 17.9858 60 65 52
6.03579 -3.72796 -10.5436 157 163 133
-5.38368 -28.541 8.54596 73 90 78
8.24133 4.0784 -8.96062 60 69 58
-2.54435 5.39043 20.304 71 83 72
-2.1896 11.56 26.4734 101 82 31
3.19219 16.5119 1.90086 86 56 11
-1.27937 -1.53852 24.6328 70 79 72
-0.791752 9.8866 34.6159 73 89 77
-3.85565 5.93148 16.9112 69 76 65
-2.95974 -1.36807 26.4866 69 76 68
7.9454 3.27895 -10.8941 123 146 123
5.06293 8.16188 19.2221 91 105 89
4.55831 15.3315 -3.31752 74 59 35
8.03558 4.79043 9.83934 96 102 82
-1.54475 9.78897 34.5734 64 73 61
7.38411 9.17956 -6.53346 100 102 78
2.43271 15.8394 12.5197 66 65 51
-7.99614 0.105564 -5.14643 65 78 68
9.24582 -4.85922 13.164 101 116 98
-6.16266 10.1949 -6.49155 114 116 77
-0.196133 17.0188 28.2829 63 34 1
-2.3464 13.2714 9.84119 61 71 59
4.50518 1.51528 -13.8636 121 136 116
8.7923 6.44058 -5.7574 56 67 57
-1.55981 9.80869 15.712 52 39 14
5.87403 -9.65239 13.16 78 75 45
-3.39994 -9.2391 -35.5495 99 114 97
-1.6762 12.8072 28.1784 69 82 73
-2.32243 -2.28418 26.7608 73 85 74
3.71692 4.11385 -14.0793 133 131 89
7.91267 -7.0668 -10.3494 143 125 73
-4.6194 -25.0148 3.29968 111 122 107
-1.03903 11.1347 14.8264 55 47 26
-1.26861 14.4965 31.9773 61 71 60
9.15889 6.55853 -2.28546 68 77 68
-8.66516 -8.97227 0.415888 71 87 77
-6.54846 9.63341 -6.59338 124 118 90
1.77337 17.2736 1.44976 84 58 21
-0.98982 13.8256 31.7151 69 82 71
7.87808 7.44112 13.5048 66 76 65
-4.7326 -7.22477 -27.2105 74 75 58
6.81079 9.05132 14.4081 65 78 67
-4.12997 -9.22739 -37.5778 100 112 95
-6.97548 8.35496 4.14762 64 72 59
8.26654 3.39557 -7.90879 62 73 62
-4.02972 14.0107 -0.754006 52 34 4
6.06479 -14.8941 -11.3997 105 124 107
-8.32158 2.77147 -2.01368 63 75 63
0.537628 17.0611 27.8883 87 57 4
5.29091 6.72519 -12.3836 150 120 77
-4.51014 -0.201538 -16.3784 106 98 71
3.18676 13.6823 25.5347 61 73 63
4.86068 15.1706 0.290835 95 53 11
-0.00211334 -5.84694 -25.324 117 110 80
-8.76813 -7.7415 -46.301 53 64 57
5.33772 14.6377 -2.14407 75 76 56
-7.62765 -5.33832 1.98127 68 83 70
-3.62351 10.7276 -8.60407 85 67 34
-4.55223 9.13238 -8.96212 123 114 80
7.02979 10.763 -5.5113 104 110 93
-4.40784 4.33385 18.7062 60 65 50
7.72293 9.25468 -5.87743 133 134 110
9.06115 2.87159 12.4893 64 75 65
5.76325 14.43 -2.85493 65 77 64
-3.96176 -1.0072 24.2366 56 58 47
3.19256 11.2548 18.4657 68 49 7
-2.66131 8.56675 -12.5875 119 83 12
8.29074 4.34379 10.0158 111 114 88
9.63033 -1.11839 13.4726 66 74 62
-2.21812 -4.90825 -27.161 115 109 63
7.60624 8.6017 -6.95108 98 100 82
0.203182 11.9436 17.3587 52 41 12
8.00836 1.76445 9.54861 151 173 151
9.38387 0.924309 12.9548 65 70 57
-1.50916 -6.77189 25.8705 149 163 141
4.36401 15.0472 10.7183 67 68 55
-6.57094 9.76215 3.04745 61 66 51
-3.33392 -26.4074 5.63617 55 60 48
-1.20924 -0.772358 23.6137 68 78 69
8.69536 8.55534 -3.38748 77 84 76
-5.44058 -24.1076 4.51522 58 62 59
-1.52786 16.1607 -1.51968 84 54 12
-1.21816 16.5299 -1.41018 58 38 3
-6.91225 8.12282 2.54176 86 89 77
-4.95308 13.1353 0.540508 53 47 24
-4.65522 -25.0081 4.88172 59 64 52
-1.33429 7.7615 21.5634 63 72 59
9.13305 -0.855957 -3.5578 62 71 63
0.2598 1.69321 -18.1477 120 97 64
-4.86124 -4.22043 26.8589 73 74 61
-1.21632 6.94847 22.0949 57 69 58
-6.13675 -9.07212 3.29605 78 92 81
-1.91894 14.8302 -5.11942 114 91 54
2.7713 -19.206 -9.09335 56 68 57
-3.08461 -26.6354 4.69939 96 104 87
8.96088 1.06845 10.2157 154 165 139
-5.11997 -24.4171 4.47567 61 62 54
-1.34644 15.2055 35.5754 60 63 43
-0.670929 9.80681 19.8561 73 53 10
5.97729 12.1423 -5.5414 93 87 63
3.77021 -9.05713 -12.0183 164 184 150
8.44819 6.63296 -1.50179 60 74 64
-7.74372 2.79682 -6.63288 69 81 70
-10.7866 -6.12281 -51.5826 54 64 55
9.79134 -0.790844 13.0044 66 73 62
8.17285 10.5205 1.33595 108 126 109
-2.47191 12.8583 33.4043 53 41 13
7.15232 9.30609 9.70823 63 74 65
-2.60374 -2.23075 -24.646 171 164 118
4.03475 11.8674 15.565 62 52 21
3.25136 15.9397 -0.261514 100 89 60
3.35985 11.3454 18.9864 87 56 4
-1.53241 16.4574 30.9319 52 34 9
1.64613 16.2277 -1.67962 77 59 37
-5.24708 12.5581 1.67699 55 48 26
-7.82494 -22.1724 3.29705 71 85 74
4.17661 15.1654 -1.76922 81 75 56
-6.57026 -9.46165 -37.4692 61 68 56
7.49157 -11.8397 -9.13899 59 71 61
-1.98325 -6.63892 -28.6447 112 98 60
7.79893 12.9556 7.09034 66 77 69
-1.48293 -6.38637 27.3187 78 89 79
8.89282 5.89906 -4.78731 76 92 79
-2.56549 -1.13681 -23.1015 121 110 75
7.81263 8.41471 -6.8712 82 77 47
8.87659 1.73814 -6.8446 112 126 107
-0.587368 17.8543 0.569297 77 47 5
5.12276 -18.7301 -9.07003 67 79 68
6.34817 12.9587 -1.26129 88 98 83
5.70122 13.4465 10.3672 72 68 50
-2.24282 14.498 7.80901 55 39 12
-0.0487328 18.6136 3.44019 67 46 20
0.00843048 -0.352432 -19.9035 116 92 57
2.99769 11.5836 17.6643 66 67 51
-4.63116 12.7427 5.67645 57 44 17
8.46936 8.41526 -2.23923 58 66 56
-3.7216 -5.48872 25.3328 152 167 145
-5.95265 -25.4566 7.25743 61 68 56
9.70544 4.21359 -3.2065 86 98 85
-8.01953 2.1515 -5.3792 74 84 69
7.43914 -9.83521 11.7124 110 98 64
-4.01645 -5.68179 -29.2425 91 90 64
-3.64147 -25.913 4.97591 57 63 50
6.08637 -15.2769 -11.2273 100 116 99
6.37708 -6.13173 14.6687 59 69 59
3.52781 13.4014 24.1211 71 74 61
-1.38224 13.8437 33.076 85 90 78
-7.88044 5.83924 -1.82196 74 83 68
-7.9638 -6.45536 0.24567 79 91 79
-5.56468 1.53362 4.09285 60 73 62
