ply
format ascii 1.0
comment Created by Open3D
element vertex 1373
property double x
property double y
property double z
property uchar red
property uchar green
property uchar blue
end_header
-3.93499 10.5704 -8.01726 103 90 57
-2.53888 7.6211 18.3239 56 44 24
3.1887 -20.4694 -7.32471 58 72 62
-6.88201 -18.007 2.95098 80 93 83
-7.59568 5.42846 -6.21259 81 93 79
9.30832 -3.66011 -7.03763 93 107 92
2.9787 16.1952 27.8224 58 56 41
-6.70354 9.71719 -3.78858 62 75 64
-1.74571 11.7859 13.2023 60 59 41
2.4868 8.56361 -12.0821 153 125 74
2.49811 16.6286 11.0023 70 54 47
-8.43032 -11.8244 -0.65139 102 134 118
5.16632 14.1508 10.0722 73 67 42
-4.06204 13.7518 1.902 70 42 3
8.70992 3.80448 2.3745 65 76 66
-6.50128 -10.3956 -35.2815 57 66 60
-1.54971 -4.85263 26.2252 110 127 109
8.75338 8.72774 1.86092 141 165 144
-1.30635 -5.44256 26.3262 103 118 102
6.41618 4.58517 -12.6292 166 166 136
2.43881 15.8429 -0.978765 94 77 53
-6.9002 6.5754 -8.47456 119 128 110
3.18663 12.5242 26.808 62 69 58
0.250219 11.834 20.1874 50 43 19
-5.14478 7.45429 -10.0694 120 102 73
6.17759 9.88464 -8.78369 98 107 93
-1.66511 -1.14597 -22.7784 116 94 47
1.07566 18.3249 3.69673 65 46 17
-7.89514 6.29446 0.968296 71 84 71
3.07892 14.398 26.6435 65 74 65
-5.10262 12.2605 -3.5493 90 76 43
1.06301 13.6943 23.0157 101 59 0
-0.453773 16.382 10.3665 52 38 13
-6.11336 10.7095 2.8492 64 69 55
3.52606 -24.9558 -5.8771 60 74 66
-0.809631 -1.65061 -22.169 112 93 50
-4.1888 13.1252 5.58261 52 47 28
-1.12565 14.3823 26.1652 85 54 19
-2.64274 -1.31255 5.48454 59 70 62
9.20318 -4.8896 -7.82803 99 110 96
3.4063 11.0191 16.728 74 67 47
-3.5157 -0.792721 25.4523 53 42 16
6.62896 12.3548 -1.34089 93 104 88
-0.0187302 11.0996 19.9188 81 69 53
-1.12558 9.01059 35.5314 68 76 64
8.22662 8.84279 7.99126 67 78 69
-6.13856 -9.22965 -35.4537 59 66 54
-1.68113 4.38982 20.985 78 92 81
-5.92371 9.84125 7.74733 57 60 47
3.0774 -0.651043 -16.8156 125 129 110
-0.102859 -2.9125 -22.566 122 96 42
2.86501 16.8353 5.62189 69 53 19
8.37461 -4.15398 -8.93766 135 127 91
5.68774 9.17466 -10.5933 115 127 109
-1.21751 12.7037 -9.04223 128 99 63
-2.2332 10.8062 12.5135 61 63 51
6.96683 10.8013 12.516 65 73 61
-0.557236 16.813 9.60602 54 38 10
-0.500395 8.15272 -13.3462 128 96 21
-1.7937 13.5706 26.4421 98 59 0
4.28184 -5.24871 -11.399 170 191 163
8.00911 12.8245 2.74383 78 94 82
6.21504 -7.53596 -11.2414 171 163 119
2.79539 15.5911 -2.21748 65 41 10
7.26584 10.7343 -2.60281 60 69 58
-8.18425 1.96381 -0.433731 86 99 88
-4.07562 2.62662 18.2236 78 86 68
-6.03419 -8.20239 -40.1348 65 72 57
-1.04104 13.7364 12.2975 62 57 38
7.71286 -24.1697 -11.3785 156 163 130
-1.69655 -5.18836 -26.7174 126 111 66
4.10692 14.5396 -4.87699 119 75 26
7.65473 -8.52896 14.9504 72 86 74
-6.76399 5.15056 4.08984 74 88 74
0.886868 17.2451 28.1278 76 45 9
8.64417 6.0047 -7.10187 96 113 98
8.91871 3.81743 11.0243 95 86 61
0.378895 15.5857 12.7204 62 52 30
-1.34986 15.3473 -4.63573 91 55 14
-6.03252 12.2297 -1.81367 87 87 67
5.00199 7.90719 -11.8712 203 184 143
2.42285 11.4325 -9.07308 120 86 50
1.0954 18.1632 8.76284 58 39 13
-5.31118 -8.99772 -41.1428 76 85 69
7.90842 7.38497 -8.1712 136 146 123
5.39392 15.1113 5.8505 68 48 18
0.810221 17.6154 0.199928 114 81 41
-7.4851 6.81778 -4.54968 66 76 65
-3.76018 11.5564 -6.96793 107 79 30
1.63824 11.7618 -9.43085 98 54 4
-2.85904 8.35332 16.4923 49 32 5
2.46287 9.11945 -11.818 127 96 50
-1.15116 9.75645 22.4835 88 74 41
-2.35465 11.4136 11.6816 59 64 51
-0.216839 15.0195 12.4574 66 64 51
8.65592 3.55311 10.0787 125 128 103
-3.28584 3.16874 -16.4928 111 110 86
-0.567225 -2.52753 -22.5899 113 90 41
-0.556793 12.246 14.3926 63 65 49
-5.51043 -10.2082 2.89243 78 89 84
-5.94287 -8.38094 -36.9874 78 85 69
0.50766 16.7387 11.5793 49 34 2
-9.42252 -25.2269 3.17493 102 123 107
-6.60185 10.1965 -2.4165 66 71 60
-6.27136 -26.3396 8.42645 62 73 64
-7.87576 4.2305 -5.50206 90 103 85
-4.32678 9.54717 10.2985 66 76 63
-1.57195 9.51373 23.1942 62 65 50
0.448086 13.5249 23.0078 90 52 5
-2.28601 5.21957 20.5595 73 84 72
3.78469 15.9156 0.953018 91 50 12
-2.01053 12.5811 29.5325 61 54 36
5.61948 -12.9792 -11.8371 156 151 111
1.75767 12.2936 -8.3978 99 66 27
-0.19051 16.3274 11.1453 63 58 39
-1.76513 13.7223 36.344 54 40 13
-4.67962 12.8179 6.35882 50 34 7
1.39504 16.4977 32.8666 61 55 33
-3.45711 -26.4308 5.81989 57 62 50
-5.11892 -7.54992 -33.388 78 82 67
8.97115 8.98029 5.83583 69 82 71
8.30978 10.0465 1.36359 108 121 107
3.25146 16.3332 8.67197 74 62 44
-6.67358 -7.85323 3.23798 77 91 80
-0.725061 17.9588 3.8231 85 56 5
-6.73315 -9.52681 -37.9436 61 70 58
4.91048 14.7303 -1.60767 75 73 59
-8.35999 -22.8945 1.74031 82 102 90
-2.10658 12.6963 10.7231 55 53 34
-3.2479 12.206 9.70831 61 72 62
0.364651 -6.76343 -24.2734 66 79 68
-6.11177 -0.548561 -12.4612 83 102 89
4.26868 12.7221 14.5209 64 44 10
-7.29786 -21.1486 3.29002 72 84 74
6.76058 13.1105 9.24394 73 75 59
4.64409 8.36074 -11.811 152 132 80
-2.51608 10.0864 32.2102 62 70 57
7.72339 8.08833 -7.96927 98 88 68
8.86863 8.4115 4.50276 74 87 75
-6.88893 -8.25945 -46.2032 82 94 81
-8.20551 0.207649 1.42827 65 78 66
8.17483 8.54685 -1.1768 111 127 110
-2.43817 14.8512 6.17734 51 33 6
0.583103 17.8468 9.96458 60 52 36
6.79227 14.3331 4.70004 70 78 68
-3.55481 -0.27877 24.6159 54 41 21
-5.2042 3.74898 -12.5983 149 137 99
7.59061 13.61 2.45704 77 90 76
-8.75331 -6.88491 -50.0127 69 71 62
-3.56389 10.8188 -8.53283 84 65 36
-3.72259 -2.18874 -21.128 73 74 57
-7.69606 -7.60933 -47.6132 79 87 74
-3.84372 2.82898 -14.8843 110 107 84
-4.99566 -5.03699 -21.278 70 81 65
-3.46487 13.3747 -3.84863 86 53 6
-5.07872 -7.78164 -27.611 89 94 75
3.20398 11.4891 30.4243 65 66 54
8.89395 10.1387 2.34999 86 102 89
7.94755 2.29037 0.865148 73 86 75
-2.01113 15.3591 31.4685 60 67 50
-2.83825 10.5053 28.6575 62 70 59
-6.60015 1.57721 -11.2389 105 120 97
-1.40946 -3.46053 -24.7152 111 97 55
4.8222 15.9932 3.4985 66 45 10
9.58002 3.18029 -4.21974 86 100 88
0.0716553 16.4593 26.9534 81 46 5
0.251186 15.3332 12.9151 54 41 9
3.3475 15.7848 11.4598 62 52 19
-6.75754 7.02818 6.23132 67 79 66
-2.69976 -4.74166 27.8079 81 95 84
5.5032 8.1114 16.8674 62 74 64
-0.821754 15.783 -4.10662 89 54 10
1.96936 12.9924 16.4503 68 52 29
3.40807 16.4684 6.79044 68 58 35
0.97053 -1.09528 -19.6574 116 87 19
-3.75848 5.70496 19.0276 63 65 49
-5.07576 -5.68298 -22.7118 70 79 65
-0.588497 15.3314 37.0276 53 44 20
-3.32269 11.0272 -8.81094 88 64 34
-9.03958 -27.5863 8.09541 69 81 70
-8.4212 -11.828 1.48871 70 83 72
-5.31682 -8.47264 -27.8683 80 90 73
-5.32298 -5.3073 25.9077 100 95 69
-4.88987 -8.22046 -23.1666 62 74 64
-5.89979 6.46974 -10.0002 122 116 91
-0.77269 11.6739 24.6632 76 66 47
-4.41645 -6.52978 -26.354 83 86 71
3.18759 13.9155 -5.8513 109 63 14
-4.34108 6.59219 10.372 65 79 67
-1.78857 14.2131 9.49952 55 43 8
-0.746593 15.049 -5.44745 99 58 21
0.989929 14.2407 14.8988 58 48 30
2.77378 16.923 4.07738 74 62 35
-4.78943 4.81464 -12.3775 153 145 105
9.11229 -1.87138 -7.03821 118 133 113
-2.35642 10.2528 26.6704 87 83 52
-2.96867 6.711 18.989 63 68 54
-8.62506 -7.95667 -45.8642 59 70 59
7.75352 5.1295 -8.73848 73 84 72
-7.63061 -20.5594 2.97737 75 90 79
-8.03709 -17.6023 0.689537 89 110 96
7.39877 14.0674 5.89038 97 87 56
-1.89424 12.53 11.5881 60 52 32
-5.04974 -7.6386 -26.5277 59 66 52
4.35904 14.5979 11.9052 69 64 42
3.33733 15.5506 -1.05343 86 61 9
8.72183 -5.98455 -9.25773 142 145 119
-3.66458 -0.976551 5.04838 63 76 66
8.54879 10.7638 3.91069 62 73 63
-1.09794 14.5111 11.4316 55 47 28
6.96214 -9.03703 -11.1507 161 168 140
5.93682 9.52314 -9.61253 105 113 104
-8.35672 -10.8444 -0.867271 132 158 139
-1.59637 -1.60222 25.6929 66 77 67
6.64222 7.58191 -10.0847 114 129 113
-2.58159 7.69665 18.095 51 38 17
-7.46228 -16.4266 0.0287476 118 150 133
-0.0406628 12.5568 22.1384 67 34 5
-2.45204 -2.30759 -24.6689 158 151 107
8.34288 12.2169 6.39793 62 75 63
-2.41297 11.5828 31.1876 68 65 42
-1.67494 12.0555 13.1668 50 38 9
3.1074 15.6481 26.3527 61 62 50
4.89508 1.59976 -12.9496 88 105 91
-7.60491 -3.38919 0.822571 61 73 63
-3.4559 -0.869919 -20.1699 73 75 62
5.68635 13.4641 11.2854 75 68 45
-3.07486 4.84573 15.4417 81 92 71
-6.67051 8.66534 6.29768 73 85 69
-0.18289 4.42809 20.7166 61 72 62
-7.89236 -6.43176 1.73558 66 73 62
6.88834 6.2738 -10.5319 78 85 73
3.09316 12.613 26.9444 64 72 61
-1.11904 -6.21353 -27.2548 108 99 69
4.60868 -10.5864 -11.902 169 182 147
-4.8681 -27.6713 8.03032 62 72 59
-7.10376 -13.4622 -1.02525 172 210 185
2.85676 12.9328 27.5663 64 75 65
-7.89655 -16.5871 1.06548 82 102 89
9.09457 -5.59074 -8.30633 100 116 98
-2.00101 13.6584 9.86079 56 49 29
-1.47242 8.43719 20.5785 61 62 47
-3.09781 8.5878 12.4553 60 65 48
-1.39057 4.57497 21.0997 79 91 80
4.74694 10.1863 18.0487 68 59 36
9.29632 1.18095 12.9109 65 74 61
8.72733 10.8135 5.53954 66 77 68
-4.57304 12.6252 -3.88123 95 63 1
0.919374 14.467 14.6093 56 48 27
-8.06468 -0.18013 -5.07388 64 74 66
-4.80802 -2.2329 -17.5284 100 102 80
8.62567 10.8525 3.58194 64 76 66
5.79476 9.25389 -10.3168 97 104 90
5.46038 12.7117 14.669 68 68 56
3.22348 16.3949 1.63149 87 48 10
1.3682 9.15433 -12.163 125 94 49
9.26744 -4.23338 -7.51446 104 122 99
6.22339 -5.73185 -10.851 158 154 109
6.55931 -13.7097 -11.0381 146 163 134
9.75019 1.57232 10.7912 133 128 94
7.19554 9.63754 -6.34374 112 132 118
4.09931 -0.41724 -15.0884 103 106 86
-3.35852 -0.356182 24.9294 59 50 36
-1.48678 5.16927 -16.1303 128 103 45
3.26766 13.1201 -6.67018 157 113 68
8.33984 11.2733 1.90377 121 135 115
-6.91109 -8.49287 -46.4366 93 107 92
1.19735 0.590828 -17.9536 129 95 41
-3.9785 -1.62162 25.4479 62 70 62
3.89563 12.074 15.3317 66 55 28
1.63252 17.9468 4.99826 83 68 34
-7.73814 2.88714 -6.99898 64 75 65
6.12603 15.2631 3.99332 70 73 56
1.72705 15.5123 -3.9355 92 48 3
9.25501 -5.82152 13.3912 112 121 95
7.89029 -6.30078 -10.0257 141 145 113
7.77439 -2.92796 -8.94128 146 155 130
-7.50108 -5.28068 -1.59454 64 78 67
9.25916 0.0403442 10.5929 154 162 139
7.98335 -0.284782 14.4837 67 77 65
-9.45256 -25.8041 2.8313 127 154 135
-2.43629 12.9962 34.2919 44 34 11
7.94123 5.88674 11.1719 92 98 80
-3.53655 12.0517 9.60633 60 65 49
-0.218378 13.0035 -8.4061 106 68 29
-8.09338 1.27285 -8.10318 73 86 73
-0.611637 15.8735 26.5442 64 45 12
-1.45903 -5.03601 26.2507 115 130 112
-9.54309 -25.1746 3.77432 71 90 77
7.61193 5.67538 8.68995 70 80 70
-2.76266 6.15243 19.9005 67 71 58
-6.15322 -10.1187 -33.6043 58 65 54
4.16163 15.9427 6.94968 85 57 12
-3.14607 0.224594 24.0521 47 39 16
8.94771 -6.89651 -9.29578 129 138 101
-1.94058 10.4718 -11.062 124 79 21
2.96276 13.6223 22.9162 105 78 16
3.72659 16.2678 6.29786 71 65 46
-1.9099 13.7495 26.6585 85 52 6
2.29951 17.294 3.92453 71 60 36
-3.19025 1.73649 -18.1112 102 93 71
-0.879864 17.7507 2.38323 57 34 9
6.02616 13.6557 -3.85185 66 75 68
-9.61072 -6.31847 -50.1888 60 65 57
-4.05024 -2.94298 -21.1761 84 80 60
-8.08868 5.29349 -4.18852 70 83 70
-0.876638 17.5625 0.87281 76 49 5
-9.23682 -24.9728 4.89291 67 81 71
-4.76105 -3.60742 -19.5902 70 80 68
4.94502 15.3044 0.616306 99 60 13
-0.0364513 13.47 -7.75044 104 59 11
1.14138 -4.82722 -21.0269 71 85 72
-0.437248 -4.41039 -24.443 116 98 52
-1.49599 -3.0454 25.7867 76 88 79
-3.66327 -2.17788 -21.8166 62 65 53
-5.11639 -5.55653 -21.5734 70 74 66
7.87512 9.79986 -0.226299 115 131 116
2.97256 15.3963 25.3451 97 97 69
3.0238 16.0656 27.7117 56 58 45
-4.20592 -6.07938 -30.2746 105 104 73
0.912935 -4.97734 -22.2551 66 79 68
-1.29458 5.67766 21.2429 68 84 72
3.82893 2.06131 -14.5534 120 114 85
-3.33175 5.19267 15.6577 86 95 74
-5.9823 -4.2766 4.21128 66 77 68
-0.388252 0.31625 -20.1167 105 96 59
-1.50909 8.15906 23.3987 67 79 68
-2.55095 6.70091 19.8196 59 56 39
-3.42146 -2.47247 -24.2794 106 103 80
8.15031 3.5146 9.45334 143 157 132
9.27492 -5.07816 -6.50983 62 74 64
3.25425 -20.9901 -7.01931 60 72 63
0.662338 15.7841 12.8797 51 34 1
-7.96527 3.28777 -5.41734 82 95 82
7.09359 11.7831 -0.965535 99 114 96
-4.49397 -2.60001 -19.0879 82 90 69
7.25487 5.65111 -10.1343 77 85 71
-0.322136 18.4229 3.46625 51 33 7
-4.53203 -2.75165 -19.1596 78 86 66
-7.21218 5.05102 -9.23719 62 70 59
-2.21915 13.1076 35.2882 50 43 17
1.7781 0.786629 -17.2145 168 145 106
-2.3195 -8.0272 -30.8634 74 71 47
7.31844 -23.6311 -8.20377 64 76 65
8.13367 5.97641 12.0155 98 99 79
9.30474 -4.79678 -7.51338 95 113 101
0.557459 -1.14337 -20.0645 160 133 69
-1.54622 -4.582 26.3257 97 115 98
-3.81403 10.1359 -9.1793 106 89 55
4.55296 -9.24456 -11.7812 167 181 150
-5.81102 10.8772 5.22536 63 65 50
9.09028 7.05006 3.33428 64 78 67
-0.532515 10.8941 21.2167 74 38 3
-6.25072 0.232803 -12.3491 58 70 59
9.26937 0.00692749 -3.33322 63 72 64
1.32738 0.721973 -17.6993 119 83 31
1.91646 11.5579 -9.49223 80 57 22
-8.6369 -10.666 0.0213089 62 76 64
-2.89383 -2.23983 5.05141 59 70 61
-7.84311 -0.717823 2.51879 65 80 69
-2.40778 -0.241077 25.1315 65 68 56
2.65125 12.2632 -7.63223 98 70 30
8.2058 12.8394 5.3351 67 78 70
-1.4795 9.39766 16.7614 53 41 19
2.61761 7.96256 -12.563 137 84 28
-8.29115 1.30817 1.02262 80 96 81
2.93274 14.1936 -5.48628 98 62 12
6.19463 -20.3198 -9.42637 65 74 64
-8.31684 1.50863 1.61124 63 74 64
3.02254 15.4074 27.1196 73 86 71
-1.75448 14.4829 27.3588 75 51 21
0.623549 14.5213 37.0162 69 75 62
-4.72625 -8.90296 -38.6107 107 109 93
0.088768 15.1578 12.872 53 45 19
-3.2778 9.60327 -11.0784 129 116 71
4.42984 12.199 -6.9735 108 85 52
3.92705 16.2363 2.75399 79 62 38
-0.265255 10.2999 17.8129 55 44 20
-1.24291 14.3036 30.0346 90 101 87
6.0805 13.2543 10.0841 64 61 44
0.504951 3.5603 -16.3198 104 84 49
9.66166 4.7996 -2.64079 66 79 68
-0.513878 16.587 -2.59553 88 47 3
3.98701 12.5593 14.7049 65 51 21
-1.77694 15.7004 -2.76405 88 57 6
-5.91548 10.98 -5.54104 90 60 9
6.80489 2.23021 8.35435 95 116 104
2.95146 12.4216 29.1779 64 73 61
-5.22104 9.36419 -7.77846 143 127 96
-0.530689 12.0144 23.397 80 72 57
-7.86963 2.00426 -8.7515 76 84 68
2.37432 -1.40885 -18.0965 121 113 77
-0.99699 16.9553 30.5037 49 33 15
-1.59935 -0.906105 25.1059 63 73 65
-5.51972 -7.0491 3.73563 74 88 78
-8.21488 5.26754 -0.749428 79 86 61
-1.70383 16.3222 5.60248 62 47 23
0.559536 -8.87043 -4.02025 69 84 75
-6.73248 5.1187 -10.0648 145 132 91
-9.78849 -26.3034 7.03836 60 72 61
-3.83943 -3.7188 27.6937 71 86 69
-5.03452 12.2323 5.37021 56 55 39
5.00873 15.4553 2.72907 86 58 3
-4.05246 -1.78444 25.7337 59 58 41
7.75488 13.3106 6.91265 66 76 68
-6.50912 -8.54257 -44.967 65 74 65
-4.11392 -3.75061 27.4898 68 74 59
1.47961 15.9587 -2.83965 78 43 9
-2.57301 -2.72764 27.1155 75 84 74
1.57805 17.9562 4.8093 74 57 24
-1.65324 8.18448 19.2902 55 50 32
4.12767 10.5868 18.9015 64 56 30
-5.37538 -3.4054 -15.2144 65 80 71
-8.09629 -23.2686 3.82109 71 85 74
-1.52229 16.7236 3.22207 57 37 6
-6.341 -10.3374 -34.4797 60 70 59
7.61072 11.7418 0.329406 95 115 99
2.46099 16.9138 9.346 65 55 29
7.61782 5.79133 9.4375 79 90 75
8.78638 10.5935 2.73769 63 75 63
-3.90265 -4.79588 4.43285 57 66 58
-7.09262 -10.085 -38.0836 56 64 60
-1.25513 16.3628 29.2941 105 92 56
-4.8275 8.46974 9.94934 66 80 69
8.79832 10.5531 2.47069 68 78 67
-0.94685 10.1373 22.1323 74 79 56
-0.824162 9.64019 34.8915 71 85 73
-9.36272 -6.35955 -50.557 61 67 58
-0.480721 10.1797 18.7533 61 39 7
-6.21342 0.872059 3.31687 67 80 69
-6.65188 6.36945 6.88163 63 75 64
7.76697 7.85968 -8.11897 126 131 106
2.3685 -2.39448 -18.6048 84 102 83
-7.11193 -16.0859 2.78675 74 87 76
-1.81466 16.2234 5.21103 55 39 8
6.73184 -22.2347 -8.50566 60 69 59
0.809803 17.1954 31.8898 61 52 30
-2.51958 15.2792 0.51836 87 58 6
3.84697 15.4277 11.2018 66 61 40
-4.16414 -3.79262 -22.3295 84 88 70
0.956245 16.2545 34.406 69 58 34
-3.47231 13.9381 5.5739 50 40 13
-8.5999 -6.95757 -48.08 59 69 58
8.53657 10.9904 3.73495 63 75 65
8.76275 10.4788 5.74414 66 78 68
0.00564575 10.9862 17.3728 61 62 47
3.07737 15.5634 -2.94853 66 48 22
0.371811 13.2882 15.4915 53 44 24
-0.174175 12.2411 22.4791 78 74 53
8.24033 9.11545 7.78225 70 81 71
-7.99771 6.30087 -0.977184 81 84 68
7.83629 9.10313 -1.58935 114 134 117
0.725586 16.8545 11.5638 54 43 18
-2.42718 14.178 -5.04705 83 60 10
-1.04987 4.20424 -16.9122 128 104 62
-5.95311 -25.3089 1.60668 143 164 139
4.81649 -10.4558 -11.8325 166 179 142
-3.26279 -0.680984 -21.2758 87 83 62
-2.19227 -1.09491 -22.991 121 100 46
-3.37807 -0.553001 25.2497 56 45 27
8.51754 1.59485 -7.8896 92 110 95
5.01829 0.382347 -12.7119 99 118 102
9.35946 -1.68213 14.0931 68 77 66
-3.71294 -2.39548 -22.3425 66 73 60
-7.51799 6.79615 -5.40886 65 76 64
-7.19665 -18.6319 2.87499 76 90 80
-1.55195 -0.37677 -21.8045 150 118 59
-1.32905 8.80473 18.8009 63 56 34
-8.60547 -1.50134 -1.52654 57 69 59
-1.31837 7.20589 -14.2069 118 91 36
-1.74919 -2.28727 26.3322 72 82 72
-4.28172 13.5858 2.87467 84 77 50
-3.21307 -26.982 6.30829 59 65 52
2.2448 4.7079 -14.3088 172 161 117
-4.66656 -6.69855 -30.388 63 66 55
0.000415802 18.345 7.43486 51 34 10
-6.94034 -17.5735 2.92343 76 89 80
5.59477 5.29596 -12.9573 153 123 79
1.75746 11.4951 -9.72701 119 85 24
-1.34552 4.20586 -16.9491 140 116 79
-7.54689 1.02743 -9.39259 116 135 115
-2.09408 15.6469 31.2765 59 63 50
-6.93043 -8.02319 -42.5082 62 69 56
7.68105 11.7567 0.732907 82 96 86
-0.537109 -4.78035 -25.1012 111 95 52
-5.58955 11.979 -2.9639 93 85 59
-1.22358 15.6634 35.1103 48 44 25
3.86759 11.2323 21.9082 63 66 58
8.74198 0.638298 13.653 67 73 61
3.10115 13.1633 25.7765 67 77 67
0.697456 -5.91068 -23.0965 69 79 67
-2.77888 -0.576263 25.6143 62 61 47
2.95018 4.83747 -14.1117 203 180 121
8.46585 10.7761 1.82381 138 154 130
4.14165 2.10322 -14.126 134 142 115
6.30739 11.0758 -6.27316 91 82 61
5.30838 13.8614 12.3729 65 61 35
1.37066 1.35875 -17.0864 137 107 60
-1.05483 9.25756 18.6596 59 46 28
-5.33291 -8.72593 -29.1625 67 72 59
9.18922 -6.35646 -8.48578 78 88 77
-2.97443 9.14991 -11.8264 120 85 22
-0.2794 12.3404 22.9542 79 83 71
0.197403 16.8048 11.1398 60 48 26
0.952139 17.1455 31.9712 64 54 35
-4.47671 12.9452 6.7625 50 40 14
-3.00269 -5.85281 25.5651 151 171 145
0.199745 12.389 16.6334 48 28 6
4.9477 8.30795 18.9036 78 89 79
-4.19231 -2.17603 -19.3113 102 97 71
8.08141 10.1545 0.403677 106 123 105
-7.3146 -6.91615 -1.22237 100 123 106
-6.33776 -9.71294 -35.2402 61 68 57
4.35477 14.9929 10.8743 70 69 56
-1.26551 15.4628 27.9293 77 69 47
-2.54294 12.8122 -7.8288 101 76 36
1.60814 -4.02253 -20.1127 84 95 83
-2.55399 10.356 31.7684 68 80 70
-10.7694 -6.01038 -53.058 122 136 115
-8.14164 0.33358 0.982002 74 89 76
-3.91386 -0.713963 4.93555 63 75 66
-3.97126 -3.5081 27.5402 61 63 47
3.70285 11.0662 19.8864 94 66 27
-1.14239 14.1236 11.8172 57 48 23
9.72102 -2.11713 12.0186 93 105 91
-4.74039 8.81402 -8.96477 122 110 83
7.77376 13.4112 5.34623 100 91 56
0.353127 10.9214 -10.7609 111 63 7
8.60405 9.47297 1.65395 122 143 122
-9.15351 -26.7442 2.54658 114 138 120
-4.7676 0.185871 4.42397 64 75 65
-3.96106 13.3697 5.58296 50 46 28
-7.54962 7.57127 -2.13277 92 99 81
-8.25424 2.05366 1.66866 63 82 69
-1.89801 12.4466 28.2956 65 73 61
8.12975 8.71821 -1.18307 111 127 109
6.06106 -12.6612 -11.5109 145 143 110
-2.44179 14.8029 6.48806 51 39 10
-3.38534 13.3022 -4.11472 93 62 9
2.84426 11.8222 17.8009 67 63 47
4.15218 14.8175 11.8353 69 61 36
8.12432 -23.7419 -11.0088 152 160 129
-0.81146 14.7456 11.6416 62 48 23
-6.26508 10.0626 5.93757 74 74 52
6.14845 12.6917 13.2074 60 60 44
-7.95595 5.31572 -1.52073 68 81 68
-2.92953 1.03891 22.5931 50 44 27
8.86056 10.0393 3.39452 66 78 67
-4.86258 5.69019 -11.7994 139 133 110
-3.06443 8.15792 13.2366 65 69 54
-1.96393 9.2737 16.2875 48 31 5
0.994104 -0.867294 -19.4212 121 90 39
-2.68047 0.0145721 24.6453 59 55 38
-7.34416 -11.3428 2.58419 71 83 73
4.65646 -22.6599 -6.80608 60 70 61
-1.28369 14.5221 34.6615 70 66 38
1.24948 13.0058 37.1966 63 71 56
0.821625 -5.5454 -22.5244 71 84 72
-5.45556 -8.5323 -33.181 63 69 59
3.09917 12.1593 15.6151 67 63 43
-2.9358 9.35954 -11.6651 136 105 58
-2.26723 12.2985 35.9883 61 64 50
6.43336 -22.028 -8.38495 60 69 60
3.62794 16.2126 1.55 98 55 9
6.39555 -12.5682 -11.2314 144 149 121
5.26626 0.0314598 -11.9558 87 104 89
7.09774 12.3415 -0.42979 110 126 107
4.18964 -21.2764 -7.35666 61 72 61
-2.47979 9.93827 32.1092 63 71 59
-1.47058 16.8407 2.21989 55 37 4
-1.76278 8.96632 24.6122 85 84 57
3.31579 11.3984 28.9985 64 69 56
-9.73398 -25.6026 5.35848 66 80 70
2.79849 15.4908 -3.56777 69 40 9
4.99046 14.7526 -4.4474 117 81 42
-4.40624 -3.952 27.3162 69 73 58
8.75083 8.95399 1.83135 132 155 137
8.73198 7.70327 -4.12037 88 98 87
7.86998 2.05769 0.723763 65 77 67
3.25275 11.4368 29.6312 61 65 53
7.30894 0.351551 -10.1189 111 128 111
-0.0438194 12.1828 -9.46938 103 64 23
-1.93072 15.9013 31.552 49 35 14
-1.69729 9.84842 -11.8629 123 83 26
-4.66497 -7.75621 -35.2161 103 107 82
1.69519 -1.69807 -19.3936 96 85 54
-1.63594 8.48656 18.4151 56 40 18
8.43369 5.26517 12.7184 69 76 66
-10.9068 -6.80007 -50.98 53 65 51
-5.13928 12.0664 5.70754 63 56 28
-4.88879 -5.10259 -22.2708 82 84 64
5.5813 14.106 8.96207 89 80 62
8.86058 6.75982 -1.89278 61 68 61
-1.71226 13.443 -7.99479 108 71 19
8.88338 0.664314 -7.20259 114 132 115
1.4012 17.2955 10.8542 67 53 24
9.62391 -0.929607 -5.0756 70 82 73
-8.25978 0.188824 -1.05081 61 75 64
5.10078 15.4158 1.3771 81 67 34
1.26041 14.1544 23.463 118 74 18
6.58897 5.71383 -11.9841 131 121 87
-0.776899 13.1311 38.6557 68 72 51
-2.98048 14.9306 1.64103 63 46 9
8.96334 2.35778 10.4099 137 152 127
-1.06279 11.9219 38.985 72 83 69
-10.9885 -7.75582 -52.3997 117 137 134
0.805824 8.42843 -13.0393 122 87 40
-0.827778 17.0283 7.5911 55 43 17
-0.331898 14.541 24.6962 86 49 7
6.58342 10.7275 -6.42264 109 108 84
-3.61542 -1.39329 -19.6592 76 76 61
4.81243 0.756874 -13.3073 93 111 94
-3.24353 8.24551 -12.4311 110 91 65
-4.44228 1.0686 -15.4388 126 118 81
-0.766232 6.31767 22.2222 59 70 60
-1.59098 -4.34167 26.2624 102 118 101
-0.65836 15.4004 -4.82459 91 51 6
-1.3212 17.0451 3.46286 56 35 4
6.37874 -20.3256 -9.64744 63 72 62
-1.44915 14.8746 9.10183 54 39 10
3.09022 12.1017 27.9564 65 71 59
-8.22957 4.40427 -4.25694 61 75 62
-3.27328 -1.62258 26.6353 66 72 57
-1.60824 -7.67142 -29.027 106 106 82
-4.21648 13.5331 2.02435 65 50 22
5.04984 5.58907 -13.1575 147 140 96
-3.68343 14.189 4.16289 58 39 7
-2.24101 6.01669 20.3645 73 82 72
-6.47709 9.9583 1.69473 79 92 74
-2.17689 12.513 36.3671 59 62 47
6.3039 10.9345 -6.64476 99 85 59
4.42814 2.10806 -13.8238 124 137 117
6.56341 11.2369 15.057 61 70 57
8.2201 12.7673 5.90398 63 75 65
-1.42945 14.4031 37.0745 57 56 41
-8.45417 3.97699 0.409439 61 73 62
-1.53143 8.50101 -13.1167 181 162 107
-3.64437 -25.9696 5.20787 56 58 47
-5.68384 12.9401 -1.36162 61 60 46
3.63702 15.4679 -2.90312 67 52 21
-5.21223 2.44515 -13.6661 136 125 77
-5.52769 -1.06322 -15.2014 122 117 98
-2.19231 12.8645 -8.33598 96 72 21
-3.41688 2.74681 -16.4098 93 93 73
-3.55593 11.6029 -7.30303 102 76 30
-6.1437 10.8846 -5.07829 64 54 32
-8.41343 3.14828 -3.42647 60 71 60
0.151926 14.0548 37.588 67 78 64
-2.3374 -4.79982 -27.2119 116 108 66
7.35414 8.64632 13.8724 66 74 65
-3.83828 -5.67075 -29.4218 118 111 77
-4.87815 2.12742 -14.0985 121 128 97
-0.968296 9.73715 20.3541 91 56 7
2.66338 17.0265 5.43208 68 55 31
-2.22255 15.3582 -2.22394 62 39 4
3.97086 0.215626 -15.0274 99 113 94
-4.77288 -24.8438 4.76912 58 68 55
0.143547 13.6898 14.6418 58 51 27
-8.25231 0.371414 -1.11809 60 74 63
2.53596 17.0985 7.28577 66 56 31
7.58971 4.34813 -11.1199 118 131 115
-3.28528 7.99221 12.1803 61 71 59
-7.64678 -13.5168 1.91997 71 85 74
-4.51773 -5.25396 27.4582 72 80 72
-6.12994 0.911133 -12.9065 96 110 89
8.43661 -6.12173 -9.5396 140 142 114
3.10094 15.5619 27.9115 67 66 52
0.351082 15.1454 13.3579 59 48 29
-7.77364 0.150923 2.64592 69 82 70
-3.27497 9.56112 11.4031 64 75 63
-4.90175 5.90305 9.34981 65 77 66
7.81069 0.155342 -9.38567 132 153 135
9.60543 -0.738838 -4.76337 67 80 71
4.89043 -8.38861 -11.5843 171 185 152
4.11512 12.1622 -7.07334 95 80 48
-3.51399 -1.24879 26.0577 59 53 39
8.23695 12.489 6.40328 61 76 67
-2.92147 7.09334 -13.7119 154 165 140
5.77218 13.8079 9.68339 72 67 49
1.15662 14.0731 15.2151 64 51 31
8.70726 6.64335 -6.92708 77 91 78
3.81313 15.5755 10.7524 65 59 32
-5.34133 4.6567 8.24635 58 70 59
-4.94926 0.978104 4.70919 60 72 62
-1.39758 8.56384 20.2359 77 62 39
8.31623 3.20744 -7.91487 62 71 61
2.71012 12.3382 20.014 82 47 3
-3.08485 5.3329 19.8903 73 84 73
9.00529 7.19451 5.86012 69 81 71
-0.803349 9.75977 18.515 48 30 4
0.238682 12.3059 21.1732 56 28 4
3.35823 10.7784 27.6597 64 73 62
-5.87614 12.5709 -1.77642 85 75 51
-1.10129 8.89712 -12.7929 128 74 10
-7.56682 -21.8026 3.29262 70 86 75
-7.44125 -3.99625 3.13416 64 77 66
-5.38365 -8.63266 -27.5225 68 78 67
-5.41247 -8.83259 -41.0803 63 71 58
-5.51159 -8.3509 -34.6141 67 74 66
3.57809 11.9008 22.3977 67 75 63
-4.53705 -2.44427 -18.7414 90 100 80
-5.2132 -3.49152 -16.138 70 78 71
7.33203 5.32177 -10.7612 72 74 58
-0.880743 12.4045 13.8208 65 62 44
7.06884 10.0674 -6.22017 111 112 86
-3.66214 14.3137 3.05774 52 31 0
-1.88455 14.5679 -5.60754 80 54 17
-9.62146 -7.29718 -48.4409 54 64 55
-2.78804 -6.2042 -29.2635 124 112 71
-3.21694 4.10342 -15.7888 112 107 89
-7.98542 7.30478 -0.0905724 63 75 63
8.89716 10.2331 3.0688 67 80 69
8.04474 3.26274 -0.814801 63 75 65
9.50223 -2.84311 -6.5968 100 117 95
0.901413 14.9367 14.0567 57 46 21
2.35102 3.02358 -15.224 151 121 54
3.72741 15.4143 11.4828 68 62 43
0.150658 18.6683 6.22255 57 35 14
-7.9341 -18.4398 2.31607 75 89 78
3.23459 12.3055 15.2458 66 60 36
9.23019 -2.27504 -7.04952 119 129 114
-2.32297 14.198 8.16422 50 38 6
7.69831 1.4235 0.856552 68 81 67
0.337122 12.1121 38.6183 65 72 63
-1.89246 -1.84892 -23.7039 110 94 54
-3.02527 12.2826 -7.29057 96 77 45
7.01784 14.4721 5.83501 83 69 41
-3.82991 -0.221966 5.21131 62 73 63
2.19298 0.96328 -16.8419 136 114 63
-7.86247 -1.52902 0.603283 59 71 61
-3.85342 13.9397 4.77537 46 28 0
-5.01169 -4.6044 25.7893 133 114 69
-6.5444 8.89224 7.02834 63 78 67
0.4308 9.07898 -12.5474 154 112 62
0.621185 16.2668 -2.82208 90 52 16
-0.402817 11.8229 22.6116 72 58 34
0.435551 16.8304 11.3872 53 35 4
-1.39837 14.5694 36.7923 56 59 49
-0.866919 17.732 3.94258 72 45 6
-3.22324 8.6816 11.8257 59 72 60
-3.00188 2.89883 8.31139 60 72 63
-6.4632 2.04112 -11.4078 101 112 92
-6.98697 6.8651 -7.91822 110 117 99
-6.95104 6.43849 4.69981 57 70 59
0.782051 12.4079 20.4651 63 34 3
5.69939 14.3903 -0.364916 110 91 51
9.43811 1.90057 10.6837 144 133 96
7.28727 14.1639 5.76529 74 61 33
-6.82415 8.80139 -6.93611 103 111 85
-2.30357 8.91438 16.2129 50 36 7
-8.37998 -8.89558 -43.9602 56 68 60
4.55256 14.6831 10.9256 67 65 48
3.18473 -2.12943 -15.6485 65 79 66
8.90139 7.06841 1.89839 64 76 66
9.41162 -4.69391 -7.20083 82 98 83
9.05956 -4.73872 -8.1385 107 122 105
-4.10826 -5.87975 -29.9067 98 94 70
-4.30116 13.1464 6.7852 48 35 7
-3.65167 0.980751 -16.3049 113 114 92
3.05502 12.1064 29.2572 63 69 57
-6.49037 2.4807 3.17432 68 82 71
5.93128 13.1321 11.6995 67 70 52
4.41372 14.6325 11.6569 67 60 39
-2.60563 14.0419 7.98229 54 42 17
-2.54679 10.0674 31.0135 60 68 56
-6.1252 3.4997 -11.5934 108 115 98
-2.59425 9.11164 -12.173 120 81 19
1.03252 18.3848 7.56932 61 42 17
8.36345 8.46146 -2.16947 57 66 56
-10.1716 -26.9755 7.37227 66 78 68
-3.96624 10.3993 10.1597 62 70 59
-3.44821 -1.34975 26.2619 58 52 38
6.63479 13.4877 0.0274429 103 104 79
-2.62595 13.527 9.10185 45 30 3
6.94405 13.8649 7.49137 69 77 66
-0.679859 14.6661 25.2784 84 65 39
7.704 12.2543 7.70041 72 82 72
9.41235 -4.31554 -7.12877 81 91 77
-5.96813 8.60097 -8.12225 133 140 98
0.749874 -0.297771 -19.0956 156 119 52
-8.01555 -7.28724 -46.1085 62 69 58
-1.82261 -8.20304 -30.0152 138 144 110
2.73946 0.965656 -16.312 103 85 60
-2.05121 15.4638 31.0928 66 77 61
-7.0934 3.45718 2.52848 70 83 70
4.89771 -0.568066 -12.9118 76 91 78
-4.71627 -3.10625 -18.752 87 94 78
-7.95926 -1.11601 -0.0111122 57 70 60
8.64047 -23.6464 -9.59057 63 73 62
-1.84602 6.70412 20.5627 69 78 65
-4.92836 1.99475 5.69344 61 72 63
-7.52574 -10.5365 2.45989 73 86 75
3.62359 11.7592 22.2778 68 75 62
-4.86299 -0.939194 -16.4341 95 98 72
-1.28403 -2.01628 24.2326 96 108 94
6.25958 12.1693 -4.80674 73 78 62
8.01923 12.9371 3.33454 65 78 70
-7.77995 2.61452 -8.36655 83 95 79
-7.74393 -25.5008 6.9405 67 79 69
-4.61326 -8.42723 -37.025 89 91 71
-1.34916 5.25076 -16.0187 122 101 56
-7.15339 7.52757 -7.13475 104 117 95
-0.887838 9.61131 20.1155 89 46 0
-1.40917 14.6374 -5.96411 92 54 6
-5.07552 12.4348 2.96967 67 71 50
-7.54757 -24.2633 5.33621 60 70 60
2.898 8.97078 -11.6192 126 90 48
-7.717 -7.66161 -0.688574 120 149 129
5.1111 0.983192 -12.3726 102 119 103
-1.60741 15.8188 -2.98231 89 59 8
-5.17313 -8.3276 -28.4435 72 77 64
7.89983 12.9045 4.73828 98 99 81
-3.39973 1.07839 -17.919 78 80 62
-4.62089 13.1599 4.88044 54 46 23
3.76576 10.5002 17.5596 71 51 21
-7.50008 -4.13955 1.57702 57 71 60
9.40124 -6.56894 13.5226 71 81 65
0.262136 15.9765 25.9663 96 62 7
-0.234909 10.3139 -11.4244 127 84 22
-4.84036 -6.1152 26.7561 69 81 68
-1.70984 -2.86374 26.5693 69 81 72
3.69145 15.2966 -1.82509 80 69 46
3.73175 10.5856 17.2339 77 59 41
4.77824 14.4615 10.5016 73 72 56
4.87464 14.3925 10.3575 73 70 51
-2.18002 15.7522 0.432751 68 46 8
-0.893042 16.2621 8.358 59 44 19
7.42813 7.12733 -8.82998 122 134 114
7.37403 4.09524 7.67076 66 78 67
-2.30903 2.86138 8.96783 57 69 61
2.09169 15.592 33.1858 68 60 43
-2.38088 3.16253 21.0377 77 89 75
-0.370678 17.641 8.35003 65 47 19
-7.56176 -5.55219 -1.3095 81 102 91
0.524822 12.1023 18.609 47 29 0
-3.23839 6.39215 -13.827 125 107 79
-7.80792 -7.63406 -44.5285 60 68 57
-4.39211 -8.26486 -36.0653 92 93 70
0.759359 14.2257 -6.33458 83 48 3
6.40735 12.8047 -1.39329 87 100 91
4.34215 10.3842 17.3452 104 93 83
9.90373 0.512466 11.0271 120 132 110
-8.23318 2.99394 -1.40113 61 73 62
1.00227 -5.23753 -21.2799 71 85 72
-5.61481 -24.136 4.91871 59 67 56
0.188751 16.3415 11.7608 57 48 24
-1.68794 4.96043 -16.2893 117 75 20
9.00687 3.60791 10.9008 110 103 76
2.05957 15.8514 -2.54386 95 73 50
-2.40456 12.5058 10.2284 61 65 54
5.4146 6.60875 -12.3767 145 116 65
2.06063 17.0453 27.7169 100 64 11
1.76729 0.00627136 -17.8916 110 93 56
7.09151 9.92004 13.6076 64 75 66
-1.83488 10.5444 14.0159 60 58 43
-6.20628 11.2347 -1.98506 67 76 62
1.17308 17.6633 10.1635 57 42 19
2.85988 1.62475 15.6753 77 89 78
-2.59716 14.4159 7.32771 49 33 2
-5.22786 -24.9168 2.28996 125 141 124
-2.06717 -6.57632 -28.7034 120 105 64
-5.97154 -19.6604 -0.47295 150 186 163
6.38268 -10.2289 -11.3286 166 183 151
-8.91437 -7.06505 -47.4258 57 69 58
8.88618 6.96297 -1.97897 61 68 61
-3.00535 -6.03819 -29.3583 107 96 62
-3.06421 4.02864 -16.1055 121 110 80
3.1013 -22.0545 -6.28946 61 72 62
-4.61023 1.87539 5.76792 59 71 62
0.729418 13.998 -6.74255 115 73 31
-2.38351 -1.41973 26.3755 72 80 67
1.55091 18.0662 6.06322 63 53 32
-5.53766 8.48265 9.11055 68 82 68
-1.74807 -0.50164 -22.0185 122 92 39
-3.92511 5.97582 18.3743 58 62 47
-2.76314 15.1643 3.46574 57 39 18
-2.61253 0.757912 -20.5137 93 78 40
8.28233 7.09228 -7.78973 123 136 116
8.84073 9.34721 4.06438 63 74 64
-2.1918 15.8577 3.20414 51 33 3
3.14225 12.9802 26.1679 67 76 65
-1.27408 9.86604 -11.9225 125 73 21
6.32742 14.0029 0.0881128 104 115 96
3.22517 11.6897 29.0518 66 68 57
-3.38913 8.29956 -12.1049 117 95 61
3.24196 14.3794 27.9429 68 75 63
7.40827 8.97078 12.6514 81 95 81
-6.1934 -27.5517 9.00118 60 72 62
-1.49715 9.49871 24.0057 62 61 42
0.984737 -5.19482 -21.6167 73 86 73
-3.47688 5.15301 15.9242 85 98 84
-2.88705 14.5918 -1.43189 71 48 7
6.99177 -2.7792 -9.65311 152 160 134
2.65332 9.21082 -11.597 127 88 37
-6.28885 9.1983 7.28831 63 76 65
-4.02976 -1.23975 23.1933 64 65 45
1.34662 4.74526 -14.6986 143 116 68
2.42535 17.2958 5.86869 74 58 26
8.16676 3.699 -7.54911 63 77 66
3.92888 0.425747 -15.0071 105 127 104
-2.00559 12.061 26.2695 111 95 55
-0.536518 5.42988 -15.7155 139 108 54
-7.29438 -24.0353 5.15448 60 75 67
9.34645 3.89256 -4.92099 77 89 73
6.12607 12.8243 10.8956 64 73 62
0.539581 -0.0690994 -19.0735 128 94 32
-3.34501 11.0208 10.4565 61 68 55
2.32453 11.2858 -9.38995 104 70 20
7.41098 9.02448 13.2929 61 69 59
-1.02888 -7.66893 -28.13 85 89 72
-4.7337 -7.70008 -29.7538 63 70 61
-3.07349 9.47224 11.7363 67 79 66
7.09301 11.1193 -2.03443 100 118 107
0.343334 14.255 14.3089 55 39 13
0.909397 -5.19806 -22.1298 69 82 70
-7.38417 -7.56698 -46.1113 77 87 74
-7.92503 -11.5817 2.05103 72 86 75
9.25877 8.25283 2.96457 70 79 71
-9.94868 -25.9638 4.25248 84 111 95
5.14738 15.3227 7.33263 63 46 15
4.09753 0.0414886 -14.7785 104 119 99
8.83678 -3.02655 -7.78897 122 134 111
-4.51093 -6.79647 -27.6419 63 68 56
5.56723 10.5067 -8.97983 89 59 9
0.8974 16.5558 26.7963 82 50 8
-1.02455 14.1841 29.0626 62 71 61
-2.94753 9.60058 -11.4496 141 116 87
-8.11213 -6.83112 0.767143 62 76 66
-4.19888 -1.58771 -18.5797 105 94 62
-5.09192 -7.83488 -35.9796 88 90 71
-7.73346 3.67255 1.98219 70 79 68
2.97589 3.882 -14.5569 175 156 82
8.02714 12.825 3.76453 61 74 63
-7.78999 -0.337107 2.70958 69 84 72
2.24195 11.7451 -8.87757 121 86 38
7.70083 13.6063 3.25765 77 89 75
-0.688229 18.015 2.32528 54 34 10
-4.62225 12.0112 -5.14562 103 72 32
-1.60367 -4.06071 26.1725 97 117 100
-0.0271339 12.389 15.856 57 50 29
-3.34912 13.7474 7.3871 48 33 4
3.92012 10.3145 -10.5866 119 79 24
8.69247 10.9383 2.56902 66 80 70
5.2195 12.6764 -5.43111 125 128 107
-7.53143 -24.7437 6.15935 57 69 60
-0.506161 -2.75414 -22.7781 105 80 37
-5.29397 -7.895 -24.4075 58 72 63
-2.49981 6.4019 20.0744 68 68 52
-2.8307 3.23167 -17.2372 129 104 54
-1.38878 7.38017 22.202 66 79 66
-5.31952 7.06912 -10.1913 118 115 87
6.91252 10.666 13.0163 65 77 66
0.229109 14.8076 24.6943 88 51 12
-0.511311 12.76 24.8141 82 80 60
-2.87203 11.8427 10.6247 52 41 17
-6.84517 -25.1545 7.19663 54 67 56
-4.04012 5.50897 17.7521 70 78 65
3.37471 11.0514 28.7981 67 71 59
-7.7541 2.7338 -6.70191 67 79 68
6.53426 5.174 -12.3119 143 149 117
0.681644 12.4346 20.7843 68 35 5
-0.749588 11.6349 23.5307 71 55 32
7.78888 -5.91738 15.1797 71 83 72
0.441158 16.6146 11.6792 49 34 3
-2.38716 14.0361 -5.70516 97 68 38
-4.65742 -8.25323 -36.6201 93 94 73
7.95259 -21.8059 -10.071 61 59 48
-2.40774 -0.074501 -21.7185 155 126 74
-4.77689 -6.78602 -25.7615 97 101 79
-8.4253 1.83544 -1.88853 61 73 62
9.58596 -3.26794 -5.46202 63 77 66
-6.11167 10.6162 3.10525 59 66 53
-4.46369 -1.22554 -17.3126 107 105 77
-6.18974 -8.44083 -37.97 65 69 54
5.03373 8.14734 19.1136 89 102 88
1.30425 -1.15622 -19.3938 116 90 49
-7.42793 -5.40948 -2.33974 72 86 76
-2.02093 9.68085 25.7595 59 65 53
6.39566 15.0895 3.64051 73 68 47
-6.44338 2.83611 3.27818 65 78 68
-3.73806 -7.20671 25.0825 131 138 118
0.417892 15.5034 12.9534 55 38 4
-3.015 13.7849 -3.96777 91 66 21
-0.58144 17.4852 7.34937 49 30 5
-3.39815 6.3597 -13.6133 135 118 87
-8.45827 -7.74168 -45.5247 57 70 56
-6.25656 -6.04427 4.12122 77 90 75
-2.55522 4.13136 20.663 77 90 79
-2.6663 8.60287 15.8828 50 32 2
0.761854 15.9302 -3.62634 68 36 11
-3.19355 12.6395 -6.61 86 64 26
8.02611 13.095 6.31603 65 75 66
6.1765 -15.7432 -10.944 113 132 115
0.514042 11.3852 -10.209 139 108 55
3.25173 11.3909 29.9708 63 68 56
-0.811699 14.2032 -6.7919 79 46 2
-1.41673 11.8082 -10.0318 108 80 32
4.51454 15.0427 -4.31335 111 58 10
3.37365 -21.236 -6.912 60 72 62
-1.67237 -0.876877 -22.4135 125 98 43
9.17004 8.26806 2.40746 111 130 113
2.05505 -1.11524 -18.5059 95 85 57
7.98304 -7.63857 12.8975 125 120 85
8.40498 3.19441 -8.53432 59 70 59
-3.92576 12.4913 -5.04424 101 61 13
5.58527 14.2406 -0.764633 89 83 57
-0.00062561 14.3932 13.6366 63 56 39
-4.53029 5.30914 -12.3951 139 137 97
-6.93699 -7.5995 3.22353 73 85 74
-0.960215 -0.0938568 -21.1246 116 94 44
7.25357 8.39766 10.5447 89 101 84
8.08838 4.32376 -8.60785 65 73 64
-1.22247 -4.76124 -25.702 121 109 73
-3.37107 -0.774796 -20.531 74 77 61
-5.04268 -7.52805 -32.0425 90 98 82
0.354082 17.995 9.38756 52 35 9
8.04321 7.3011 -8.04564 135 146 123
0.0780239 14.5013 37.4814 71 85 74
-4.01923 -8.06818 -34.7774 86 84 62
-4.43692 -2.84622 25.8913 61 68 55
-7.18908 -9.56513 -39.1523 55 68 56
-4.20847 2.74806 18.3797 90 101 80
-2.77554 11.2442 11.1466 63 72 58
0.325909 3.62823 -16.5261 113 90 54
-4.28491 2.61413 18.5679 93 104 83
3.57042 3.57253 -14.3646 144 119 93
-5.68064 6.71244 9.05052 65 78 67
0.20166 13.5036 -7.64914 99 56 9
7.65119 8.40146 13.416 66 73 63
-1.61333 15.4987 29.2178 89 55 4
8.4886 11.921 5.469 72 84 74
7.16622 10.994 -4.40804 69 67 51
-0.696167 5.63589 21.7745 68 76 69
-4.43995 -27.5803 3.01379 148 173 150
-2.93537 -3.9009 27.8674 76 88 76
8.98311 5.24989 -5.74097 61 73 60
8.77676 10.265 2.09858 120 137 118
-4.0991 -5.72798 -29.1024 97 98 72
-5.12737 5.44625 -11.7373 146 141 110
9.62279 -0.205341 -4.47507 70 84 73
-7.20914 -23.541 4.76409 62 78 67
7.60421 6.93947 10.8744 72 81 67
5.72306 11.3885 -7.21572 100 92 67
-2.66608 -7.79547 27.1731 76 88 77
-5.07555 12.2136 -3.75869 76 62 33
-5.11461 11.1034 8.76901 61 73 64
-7.31293 3.85569 -10.0195 94 106 89
2.55243 16.1215 12.1229 64 61 44
-8.02475 6.85773 0.329033 64 73 61
-1.43658 15.9663 7.24152 57 47 26
5.8048 13.3179 11.4252 64 57 40
-2.97783 11.7968 10.4938 51 43 21
-3.82683 -3.5913 -25.0497 85 89 67
-1.41745 5.00951 21.1656 73 84 73
7.91904 2.00044 2.16915 67 79 70
9.22713 -3.45013 -7.19176 102 110 96
-7.42583 -7.71953 -46.9072 71 76 65
-8.28256 -0.100624 -6.55752 64 76 65
-7.9725 4.76733 -4.93782 90 108 91
-4.46499 13.6892 -2.15973 77 45 5
0.5201 14.6483 14.0318 55 52 38
-2.69712 11.5581 28.8799 52 52 34
3.43401 13.1944 -6.57281 186 144 111
-0.797741 0.687881 -20.2958 124 95 40
-0.334536 10.339 18.9512 63 41 14
-1.56785 9.42599 22.6827 82 65 34
1.50682 12.3881 19.2207 61 36 11
-6.96225 -9.16788 -39.2704 60 67 52
-1.08205 5.09101 -16.129 135 108 65
7.31654 10.9972 -1.10266 122 139 118
6.85954 10.9869 11.913 71 78 64
-9.80769 -6.66185 -52.0587 118 139 123
-0.955767 16.0151 -3.66082 90 60 4
-7.81549 -7.55112 -44.8576 58 66 55
-0.058567 -2.22237 -21.8229 139 122 83
1.667 0.68647 -17.3853 125 98 70
-1.89833 -5.15026 -26.9303 121 110 66
-1.52453 14.5821 26.9753 82 66 40
-7.85369 -9.03015 -1.06689 142 171 147
7.41273 1.23207 -0.17791 89 106 87
-5.81532 11.5141 -3.141 87 84 64
-0.107544 -0.879311 -20.4582 152 131 89
-6.3557 8.41812 -7.96461 126 114 81
-5.54131 -1.81892 -15.1699 87 95 76
-4.17587 -2.40932 4.55261 62 74 64
-2.22324 15.8531 2.88066 54 33 2
-0.872066 14.6481 -6.10499 90 50 11
-1.57174 0.800308 -20.6662 135 109 65
-6.99036 8.52381 -3.40759 75 89 76
-0.215233 18.4273 6.40833 50 31 2
5.633 9.26755 17.387 61 68 59
-7.50614 -3.90565 1.87004 57 69 60
-1.4093 16.9168 3.0725 57 37 6
-1.27163 6.08721 -15.2703 125 93 40
0.403786 12.7498 16.3306 50 30 6
9.08413 1.98852 10.4553 146 149 116
-1.61909 14.2381 28.6336 69 81 71
0.202408 -2.43275 -21.8616 129 111 67
9.31064 4.84274 -3.93724 97 116 98
-3.92885 -0.97049 22.4986 65 67 54
8.58678 8.92124 0.862667 76 89 76
3.65311 6.04488 -13.5654 155 122 78
-4.57248 -1.67686 -17.4964 102 101 76
0.477837 11.002 -10.66 117 69 17
-2.41304 8.12798 17.5535 54 48 32
-7.67048 -5.50567 1.97773 63 78 66
9.43435 -7.70154 13.0686 80 89 72
-6.66484 9.90629 2.67422 61 68 47
-6.38077 4.34721 -10.759 125 137 115
-4.17463 1.53018 19.6631 59 71 59
-4.00591 0.84646 19.7303 58 68 58
-0.495892 0.750519 -19.8998 112 95 64
7.62378 5.27726 8.30308 69 80 71
4.51451 -9.4633 -11.8283 160 175 143
9.49984 -3.15063 -6.58945 96 116 97
8.71156 3.36823 10.1027 139 144 115
-1.77592 0.275433 23.9371 62 69 56
9.03214 9.49187 3.26975 66 80 69
-2.10529 6.02851 20.4659 73 82 71
-7.48556 -9.26263 -41.0079 56 67 57
6.21832 -4.34804 -10.582 150 152 118
-8.77544 -8.93657 -45.1407 54 67 58
6.64171 10.9167 14.9754 66 78 68
6.96574 6.50481 -9.94754 108 122 103
-5.59005 7.8715 -9.03636 125 103 56
-1.97992 12.438 -9.07832 112 72 12
8.48805 11.5862 6.19697 69 82 72
4.03649 10.3739 21.8464 60 69 58
-4.93102 12.9517 3.95105 53 46 20
5.94811 11.3893 -6.64743 99 100 79
-2.89318 -0.435547 -21.8102 109 97 64
-1.93658 15.8609 -0.145134 104 69 11
-3.03872 3.76891 -16.5006 109 98 60
-4.12757 2.28961 19.7832 64 76 64
-10.1359 -7.54305 -49.1347 55 66 56
-2.6138 11.7525 32.1619 57 58 44
0.910088 -5.16415 -22.2962 68 81 69
-5.02159 5.33907 -11.8762 141 131 103
5.05583 0.671459 -12.5414 101 119 103
-7.13339 -8.01878 -42.6448 60 67 54
-4.86851 -0.608047 4.24019 65 78 67
-7.03705 -9.34123 3.02678 69 84 72
3.224 -7.61355 -12.0741 167 187 160
2.55926 16.0359 32.14 69 69 55
-4.06124 12.3441 8.91611 56 58 43
-5.79088 2.51464 4.9458 58 70 60
-5.31415 -9.18694 -26.8662 62 75 66
-1.94929 10.2679 14.198 54 47 25
5.10672 1.2419 -12.3592 92 110 95
-4.91771 -7.12988 -31.5908 66 67 55
-3.35014 2.42034 7.32027 55 66 57
8.65922 10.0596 1.87195 140 162 135
-5.10823 12.6218 4.4845 60 54 33
0.702011 10.191 -11.4824 126 77 20
-6.4193 -1.79903 3.66917 67 79 68
1.29897 11.5964 -9.76033 121 68 23
-7.08679 -7.77934 -43.8279 60 70 56
-4.08175 12.7322 7.82364 55 55 42
2.47959 15.7218 -1.45444 80 59 30
-4.3777 3.79298 -13.4733 139 138 108
-2.54697 8.59667 16.5592 54 39 14
-0.141285 3.63825 -16.9335 135 102 70
-3.60372 -2.52682 4.73482 62 74 65
-4.40453 10.9883 -7.01038 129 106 66
8.56593 2.37289 -7.12411 99 113 95
3.74911 15.1863 -4.13182 93 47 3
3.35366 16.454 1.89343 83 51 9
4.1126 8.353 -11.9699 158 124 74
6.99358 9.03621 10.2708 64 75 64
-7.29581 -10.6948 -1.42746 173 208 182
7.72458 0.189739 14.4479 64 72 61
-3.01451 -2.35237 -24.7787 123 106 66
-1.60826 -3.77182 26.0769 102 115 101
-1.71413 -4.48725 -26.2087 107 94 53
-1.53946 3.5017 20.9201 76 89 78
-5.09174 12.799 1.10767 60 57 39
0.604866 -2.38143 -21.2766 116 94 44
6.34452 -1.87477 -10.2069 138 154 135
3.15579 11.7201 29.8625 59 62 51
3.65104 11.4583 20.2168 96 66 18
-6.87275 8.06161 2.28346 68 82 68
-6.48658 -23.8086 5.16012 60 70 61
-4.17248 -5.53174 -26.9211 61 69 58
-0.564991 14.6158 12.3144 63 58 37
8.22965 -0.0803757 14.2632 66 77 66
6.60903 14.564 4.69498 71 77 63
-0.575258 17.5758 -0.0397453 87 51 5
5.78617 -11.2993 -11.5214 156 162 126
-1.98525 6.27419 20.5426 68 83 72
3.22961 11.6125 28.1388 63 69 57
-1.27702 17.1256 3.6449 61 38 4
0.633633 4.09896 -15.7099 155 125 82
-3.81393 5.83054 18.903 60 58 39
8.07345 4.75766 -7.54801 102 122 105
-6.4585 1.54154 -11.5653 77 91 76
-2.5815 10.4534 31.1548 62 70 57
-1.55523 8.2214 19.6887 54 46 25
-2.42351 11.55 30.2713 60 66 50
1.73458 13.8872 22.8859 123 100 68
-1.19849 5.53328 21.3341 68 85 72
-2.4557 0.156204 -21.4319 125 95 48
9.38024 0.474411 -6.0957 92 106 89
-8.04921 2.868 -5.13338 81 95 81
-3.75846 0.388214 -16.6101 132 130 103
-0.789145 17.1802 29.9206 84 71 32
-2.54855 12.1318 33.6456 62 66 54
-7.42894 -11.1178 2.50732 71 84 73
0.671978 18.3084 8.42611 60 43 21
-3.00795 14.5116 4.95125 54 37 16
3.59253 9.88364 -10.7961 117 71 10
-6.06873 10.9004 2.44075 70 75 62
8.67476 9.73898 4.47735 81 97 84
-7.62782 -18.908 -0.125984 124 152 133
5.24229 13.2597 -5.17717 135 137 116
5.13222 6.44541 -12.6809 136 108 62
-1.86465 -6.48224 -28.2533 122 106 78
-0.439014 2.50169 -18.1434 100 78 49
-0.165876 -2.55776 -22.2281 152 124 73
8.35841 4.62267 -7.03368 121 142 123
9.0187 2.16647 10.4357 143 153 124
-2.32683 15.1417 5.47163 55 46 20
0.760031 13.2008 37.4894 67 77 63
-1.60078 13.1721 11.4317 61 61 46
-4.22599 5.61491 9.90321 59 71 61
-7.9638 -6.45536 0.24567 79 91 79
-2.84216 -6.52977 25.5222 148 161 132
9.65384 2.2409 11.8113 58 60 46
6.86039 9.56355 -7.42962 79 90 78
-4.32798 13.0366 -3.32906 94 66 18
8.01965 6.50917 12.2272 99 103 82
0.832735 2.82763 -16.4446 100 72 33
4.0744 15.2411 -4.02795 90 48 4
1.72808 10.3715 -10.8144 109 75 28
-3.49201 -7.5984 -32.1224 107 103 72
-4.15109 5.2003 18.7678 64 75 62
-1.46356 12.2097 -9.50955 127 79 16
1.78539 17.543 2.39886 79 44 5
-5.83448 -9.38528 -33.3354 58 65 53
6.33941 12.265 12.0475 74 77 64
8.58065 -23.9345 -10.4426 102 120 104
7.90473 8.78641 -1.86531 65 78 67
2.45429 13.8048 14.7246 65 70 56
7.03106 2.81072 8.17649 94 109 99
-1.76408 10.3385 25.1072 67 57 28
-0.52504 10.9936 -10.8912 109 73 8
-2.57072 12.5331 33.7511 49 42 20
0.114197 -2.51597 -22.0399 175 157 111
-2.93064 14.0601 -3.26418 83 58 14
-5.06596 -4.62029 26.6392 66 79 68
-6.68602 9.7238 2.18968 74 70 51
9.20029 -4.71698 -7.77019 105 118 101
-8.21239 2.34234 -0.496441 67 79 68
-4.62363 -5.85288 -24.4694 103 103 77
-6.30025 9.19287 -7.26898 126 131 98
-1.74843 15.9064 -1.21755 77 51 13
-1.41943 -7.93554 -28.9457 110 120 88
-1.35862 8.34785 -13.255 161 147 83
9.97632 -0.998352 11.733 92 107 91
-5.29455 12.1508 -3.35748 81 70 40
3.21157 14.7882 25.9502 64 71 61
0.258329 14.7085 37.2703 74 82 72
0.653137 17.6566 30.4016 55 38 5
-0.219845 15.8702 -4.06143 98 47 4
2.15434 15.9651 -1.14283 106 105 78
0.765411 14.9288 13.9568 54 46 21
2.23132 12.2931 18.9638 75 56 32
-4.56973 -7.06555 -28.0105 77 84 69
-8.0475 -23.8106 4.42449 70 84 73
-8.59919 -11.1323 -0.600174 108 132 115
-2.08226 6.63467 20.3296 67 71 59
-0.455269 11.6664 22.5316 70 49 23
-2.68302 10.9054 29.5242 57 58 47
9.8472 -2.36588 12.7081 69 80 68
5.85917 13.4078 -4.46499 121 133 115
-0.367249 12.8644 14.3939 65 66 47
1.42315 12.7992 16.9625 63 43 8
6.60046 10.8467 11.0034 102 122 105
-2.7655 0.780609 23.2476 53 47 30
1.88773 16.0432 -2.2107 79 61 32
-1.63835 16.3321 30.0044 63 41 4
0.651497 15.5603 13.1945 52 37 14
2.62912 2.25731 -15.5679 141 109 48
-7.42516 -18.4454 -0.295662 145 171 151
0.712942 2.6641 -16.7729 119 87 46
0.464233 15.413 13.1784 57 40 19
-3.75751 10.6334 -8.45343 80 65 31
5.27292 3.68892 -13.1741 132 142 103
-3.52388 -0.956352 -19.2208 68 71 59
5.56879 -22.1521 -11.7715 179 181 147
-3.35117 1.45277 -17.8638 93 92 68
5.9945 -22.5364 -11.7916 179 182 148
-7.16417 4.39795 -10.0279 110 126 106
8.01056 9.281 -2.47809 59 65 54
-6.17231 3.87163 5.63742 56 67 57
-1.65551 16.5575 2.70432 58 39 7
2.77248 16.3988 28.3023 62 57 39
-4.36559 -5.67956 -24.7842 87 93 74
-1.77866 13.4523 33.1008 64 64 45
-7.28484 -27.3746 8.75418 63 77 66
-4.89456 -24.5327 4.15642 64 66 56
-2.54045 10.4972 31.9208 64 77 69
-3.94548 -7.651 -33.2752 81 79 57
8.99136 7.22974 -2.25061 63 73 64
5.46095 12.8551 -4.92081 132 149 132
-2.04081 13.0286 32.5882 68 66 41
-7.79783 -7.41481 -47.3231 72 78 67
-0.38554 -6.96241 -26.5688 106 115 95
5.48227 8.16327 -11.4769 137 125 93
2.81953 -2.09655 -16.9428 75 89 76
6.50776 13.0985 -0.671822 108 108 79
-4.94964 -7.18233 -31.9026 86 92 76
-2.44153 -1.60394 -23.723 123 108 59
-2.27207 3.53796 -17.4785 115 84 24
-6.9915 7.21255 -7.66234 113 123 107
-6.80144 6.45059 5.15897 62 76 65
-1.38051 11.0617 -10.7505 124 91 28
-0.989775 12.8114 38.7727 72 79 65
-6.35534 -27.1354 8.86486 63 73 63
-2.96648 14.8864 1.25837 69 48 9
-8.08859 4.00466 -1.41838 72 86 72
-5.74619 11.2246 6.90284 56 56 37
-4.40815 -9.29269 -38.2885 75 84 71
-6.211 2.47439 3.64042 64 76 66
8.78377 6.61901 0.945315 78 93 80
-2.62923 -1.18713 -23.193 123 101 70
-3.45978 1.80654 -17.2462 79 85 62
6.00676 12.8411 13.0618 68 53 28
-6.06215 5.63607 -10.4223 112 117 90
-1.59606 -3.10747 25.4682 84 98 82
6.66509 6.38144 -11.3848 111 115 94
-8.40524 0.0544434 -1.40025 60 74 63
7.70487 7.17985 8.80342 64 74 65
2.57574 -2.64652 -17.3148 74 94 81
-7.76426 3.68085 -5.90606 82 99 83
-4.97971 -3.80432 26.388 58 59 37
-6.56823 8.41402 -7.74649 120 120 91
7.13756 14.2709 6.62103 75 72 48
9.20333 -6.2275 -8.27489 67 77 65
0.552588 16.4183 -2.58066 86 56 14
-1.68626 13.078 -8.41571 120 66 10
-5.18213 -6.21476 -23.1219 70 80 67
-0.630636 10.437 16.3772 52 36 7
9.63052 -1.21101 -5.06518 72 85 75
-4.70207 4.89196 9.14777 62 74 63
-7.16621 2.98142 -10.4322 134 145 115
0.86974 15.7199 -3.96274 104 52 11
-1.40429 15.0381 27.5062 78 56 29
0.111961 -2.06368 -21.4688 118 99 56
7.71049 12.11 7.887 69 75 61
-2.25583 4.21089 -16.8074 143 118 93
3.21223 15.5327 -2.65394 77 64 37
-5.7165 -0.552128 -14.2085 92 107 89
9.57673 5.40984 -3.00536 82 94 81
-3.85795 5.50134 10.1557 59 71 61
-7.68617 -7.40626 -45.8768 63 70 60
1.30979 10.9666 -10.315 141 109 72
-0.980515 17.5428 2.64722 57 34 6
7.66902 5.59393 9.50421 82 94 80
4.88844 9.80851 18.5841 70 74 63
2.34632 17.3425 29.8259 60 42 10
8.71553 7.79219 -2.17122 60 70 60
-6.68361 4.4648 4.82902 64 77 66
-0.79818 10.2872 20.7092 67 40 3
-8.18248 6.33239 -0.174438 68 78 68
0.672264 -0.631241 -19.4951 129 92 44
-1.84158 14.3222 -6.2319 148 128 91
-3.12078 11.5177 -8.37732 84 74 47
7.54041 5.41637 -9.15312 105 118 102
0.277306 0.0617943 -19.1643 127 97 30
-8.43238 2.9899 1.14178 64 78 66
0.620975 14.7782 36.8928 66 71 57
-3.24198 5.72176 11.165 58 71 60
6.80383 11.5293 -3.00695 60 70 61
