ply
format ascii 1.0
comment Created by Open3D
element vertex 1375
property double x
property double y
property double z
property uchar red
property uchar green
property uchar blue
end_header
-5.06456 -4.53476 -19.484 81 91 75
6.79747 12.2794 9.71469 71 84 74
-4.28734 1.61387 -15.0457 147 137 98
-8.53677 -10.2395 -0.181641 63 77 67
6.1373 -7.32919 14.2279 96 105 80
3.93744 3.37621 15.6892 76 90 78
-6.96714 -2.22432 3.54047 67 79 67
8.77831 -5.49236 14.9946 71 82 71
7.80228 11.0271 0.354523 103 125 111
0.459946 14.2847 14.4288 51 38 21
8.46909 5.02581 -7.05773 127 149 131
0.2173 17.6397 30.1799 58 33 1
-1.39926 -0.542591 24.1656 66 80 68
-7.11939 -13.4213 2.67059 70 82 73
0.207287 11.0538 -10.6304 116 64 1
-4.03387 -8.90056 -36.9365 82 87 68
-0.0764542 15.5173 25.6039 132 89 45
-3.81764 -26.3213 3.69462 137 160 138
1.25821 12.8354 37.1891 64 73 59
-5.24374 -5.2931 25.7874 124 108 72
8.06429 -5.9671 -9.84153 147 148 117
2.88706 15.5631 -1.80892 68 51 33
-7.73128 -14.1408 1.78151 70 87 75
-3.51921 3.84527 8.97688 51 62 53
-1.10004 -4.97887 -25.8175 106 99 62
-0.58955 13.882 37.894 76 86 78
-2.2803 13.9456 8.92245 49 31 1
7.95157 12.5663 7.15963 65 77 68
-8.6048 0.00572968 -1.89665 59 73 62
-5.20725 -7.65619 -33.2294 82 88 72
0.498156 -2.52032 -21.6322 104 86 44
-7.58913 -4.95681 0.48457 60 74 63
3.38135 -3.74906 -11.9199 145 170 147
2.66968 13.1233 29.9343 66 75 66
-1.52045 12.7658 -8.91592 128 86 40
-9.85247 -25.5702 4.98359 59 74 65
-3.52183 -5.67431 -29.3421 125 114 71
3.21671 6.47504 -13.392 135 101 58
3.73627 10.8735 16.5078 69 65 46
-4.56481 -6.8855 -32.2482 106 102 71
-4.78877 -5.79993 -24.0327 104 107 84
9.16397 2.17018 12.6502 67 76 66
4.19955 8.0941 20.6267 63 75 64
0.25593 14.2278 -6.53891 93 52 15
-6.33492 4.48275 5.54039 56 67 58
5.39481 -3.9004 -10.8759 151 167 134
-2.69043 1.45173 -19.6182 126 98 67
7.27477 5.45032 -10.591 88 93 75
0.180143 0.220032 -19.1678 130 99 35
-0.695766 -7.34826 -27.3562 115 117 95
2.74952 12.0984 16.922 65 67 52
-4.15255 3.81745 8.62022 54 65 55
4.81385 -3.63768 -11.0642 157 178 148
1.04765 -1.63948 -20.1077 158 129 78
-4.08583 5.32191 17.9015 72 79 66
6.23569 12.4457 11.4531 63 72 60
8.13359 -8.04842 -10.2261 139 157 131
7.4942 8.50348 -7.70344 100 106 88
-8.1494 -0.530758 -5.34987 65 77 67
-8.36796 -28.0444 8.3653 70 85 73
8.76009 -24.5213 -10.4185 114 127 115
-0.242264 18.5004 3.52801 56 36 14
-1.9389 0.0425835 24.4492 65 71 58
7.13417 3.52087 14.1983 69 83 72
-0.0366592 11.9342 16.4708 57 46 27
-7.68725 3.6096 -7.3009 68 78 66
-6.32243 0.731323 -12.1126 86 101 85
-3.6134 -26.459 3.8903 137 158 138
-0.482821 15.5354 25.8749 85 53 4
-2.01847 12.7999 29.9688 63 57 36
-5.68513 -28.1511 8.75967 70 77 67
3.82682 10.7897 23.3417 59 68 57
8.36252 8.04825 -5.46399 97 110 94
4.47911 14.4994 12.0292 69 69 49
-10.8413 -27.4385 6.08288 82 98 83
0.447044 16.3728 11.9785 56 37 8
-7.02906 -5.44667 3.74335 69 82 71
7.06523 12.88 8.91499 67 74 59
4.25173 15.3746 -3.53525 74 53 13
-8.31388 4.86861 -0.205559 59 67 58
-6.85375 6.79502 3.15823 72 87 73
6.9449 -4.14938 -10.0102 145 142 109
8.71729 -2.40485 -7.72324 139 154 128
8.11093 4.36772 13.5784 71 83 74
9.71976 -1.44117 11.5277 111 129 109
-0.507439 12.127 23.6133 81 73 54
-0.416195 18.3664 4.62112 55 32 11
3.76707 0.534302 -15.3054 121 132 107
5.01663 9.2835 19.5883 92 101 88
4.88062 8.84533 19.0444 103 118 97
-5.77449 5.2514 -11.1292 133 124 90
3.22575 -1.05562 -16.5395 104 122 110
-2.59879 -6.85509 27.582 79 91 80
4.86298 12.5198 -6.06023 111 107 87
8.84457 5.69922 -5.36035 62 74 64
7.27831 8.59837 11.2257 81 93 77
6.55859 14.6489 2.56676 92 64 12
-1.63419 8.94652 -12.6794 132 78 13
-1.13225 15.7704 33.1033 53 42 20
8.9307 7.06215 -4.19541 101 116 101
7.82923 -7.49311 -10.5187 141 132 91
-5.83051 -8.47015 -42.1718 72 77 66
-4.64359 -6.78828 -31.6783 73 75 55
6.17656 10.8974 16.0951 67 76 63
-8.11848 0.609097 0.681087 68 82 70
-4.33618 -27.0497 7.33808 65 73 60
-8.15307 4.02487 -4.74056 74 84 72
9.11178 -6.40963 -8.81062 100 113 97
1.31416 9.45786 34.1632 65 76 66
-4.5659 7.27947 10.3274 67 80 68
9.07389 2.12176 -6.33494 122 135 115
-4.62112 11.5017 9.05821 63 71 62
-7.83592 -21.8609 3.15401 72 88 76
8.39453 6.26386 -1.16092 121 144 127
-4.20756 4.12287 -13.4669 120 123 90
-5.36907 4.22534 -12.2404 164 157 130
-8.15139 3.00775 -4.89092 85 102 86
-8.37111 0.628525 -1.64076 61 75 64
9.2971 -8.77066 12.458 125 127 92
5.02611 -12.175 -11.9227 158 169 140
6.37964 -1.00276 14.592 63 75 65
-5.8687 12.6192 -1.66404 79 72 50
8.4211 -1.73349 14.7237 67 77 66
9.05752 -2.7799 -7.33807 139 154 129
5.75953 12.8461 14.1857 65 68 49
7.84792 -7.79054 -10.5278 140 147 115
-0.787197 15.1227 -5.29789 104 56 15
-3.16913 -0.581139 25.4483 49 44 21
2.84425 14.7068 29.2823 61 69 59
5.27159 0.609394 -12.0898 113 130 113
-2.46785 7.02966 19.4013 60 59 49
1.62633 1.89863 -16.6214 160 117 69
-6.89776 -26.7966 8.56823 68 85 73
-5.02174 -7.77247 26.0767 67 79 67
0.906261 11.0058 -10.5605 109 76 21
2.63783 16.9352 29.6336 71 57 21
-8.0083 0.0488968 0.180326 61 72 62
-5.96571 11.2611 2.10732 64 69 55
0.411135 16.9144 11.23 57 41 14
4.5199 14.3295 12.4157 78 66 52
-8.25012 2.52161 1.69397 65 78 67
7.49646 -0.929974 10.1037 161 182 160
6.03599 -16.5108 -11.2582 121 138 117
5.36189 10.5062 -9.09472 82 51 12
3.87684 10.4463 17.5642 70 50 20
8.55771 8.98085 -3.39554 66 71 62
8.52754 7.47081 -0.349293 57 69 57
1.24473 4.07828 -15.0817 150 119 71
-7.81724 -7.52095 -47.9258 82 88 77
-7.58338 -26.8649 8.24542 68 81 70
-0.233406 15.245 -5.0324 94 53 8
1.62151 14.934 -4.852 95 55 5
8.76388 5.42407 4.7262 64 76 66
2.916 9.7342 24.9584 68 80 69
-5.42263 2.75598 -13.2446 98 92 62
3.06868 -6.90823 -12.0262 161 182 156
2.64859 14.1101 -5.78598 99 62 3
-1.64988 16.5253 4.78417 55 36 3
9.29067 4.95833 -2.03307 61 71 63
-2.26799 12.2112 36.135 60 67 54
-4.21788 3.72879 19.3466 66 77 67
-8.71559 -23.7098 3.53734 67 81 70
2.83724 15.1865 24.5989 86 75 55
-4.55019 -2.41304 -18.6623 87 95 77
-6.78685 -6.72306 3.75104 76 89 78
-2.37531 6.76163 19.9503 57 58 41
-0.741161 16.8439 7.99499 61 59 44
-2.18023 1.20312 22.4561 65 67 56
8.79132 -4.14918 14.9474 67 81 70
-4.85861 1.56047 -14.5689 126 120 86
8.79234 10.5767 2.88065 66 78 67
-8.4007 3.02018 1.19778 64 78 66
3.79478 1.0254 15.026 73 85 76
7.20598 2.99291 8.41058 112 129 114
-5.95628 -26.2578 8.19795 60 69 57
-6.65131 10.2637 -4.28824 62 64 48
2.39525 2.64401 16.3224 75 89 78
-0.825516 17.819 4.59446 57 38 7
0.31971 17.8906 9.61981 51 38 17
3.12694 14.0992 -5.54868 106 67 24
-2.67286 -27.4479 5.59698 64 72 60
-3.3204 -26.4989 4.28468 113 132 111
3.74509 3.17917 15.7381 76 91 79
-1.42681 1.20959 21.1642 70 83 70
0.015789 11.7677 16.6827 60 53 36
8.53942 -2.53764 11.3098 161 183 156
-4.4903 -6.41817 -25.826 105 108 88
9.37946 6.0011 -2.35329 65 72 64
8.48912 -0.0231247 14.0721 65 75 64
1.88862 12.2852 -8.32723 99 74 41
-0.55315 3.05696 -17.8132 122 93 58
8.3641 -1.23433 14.6132 64 76 63
-1.95081 0.00670242 -21.5278 132 103 48
-3.71801 10.0178 10.67 65 74 61
8.47159 5.85167 -0.990316 93 110 97
-6.64209 -26.568 8.55122 72 82 76
-6.55576 -3.66961 3.9354 68 80 70
-7.28279 7.44683 -6.43948 63 74 63
2.6268 12.0302 18.3207 61 58 43
4.68521 1.43624 -13.5697 100 115 100
-1.74376 0.653587 23.1155 62 70 57
-1.33245 -1.66611 25.0691 69 80 69
-2.57395 -7.38725 25.4928 136 145 119
7.94136 -1.33019 -8.44187 137 160 138
8.26299 7.36875 -1.67405 65 75 66
3.05135 12.3678 25.3083 61 73 63
-10.0036 -28.6823 7.72565 71 85 74
-4.44492 12.3765 -4.64886 79 56 17
5.78472 13.8824 -2.06843 66 76 66
-4.21759 2.624 6.86497 53 64 56
1.19506 -2.12608 -20.4299 111 92 58
-4.28812 7.27499 10.5785 67 79 68
2.37433 10.7518 32.1547 70 78 70
6.46275 -2.89136 -10.0801 146 159 132
3.60616 15.4484 11.7132 66 65 49
4.91527 15.8903 4.24396 74 72 47
-4.69073 -3.68272 -20.1583 81 92 65
-1.34115 15.0176 9.21158 55 41 14
-4.71338 6.42943 -11.5497 128 119 92
8.20368 -6.92852 -10.0576 142 119 68
-1.97671 15.9616 5.22497 56 41 14
-3.20551 -9.38655 -35.0378 91 107 90
-5.72613 0.981844 3.67432 67 80 70
-8.54235 -6.99945 -47.8945 59 69 58
-3.91567 -26.8123 6.74052 61 65 53
-6.93591 -21.3999 3.4743 78 93 84
-1.6646 8.1046 22.8595 61 69 60
-1.84015 15.1068 7.58637 53 41 15
-4.54119 6.81047 10.2265 67 79 68
-2.96111 -2.61869 -25.2138 124 110 67
-1.20662 14.5557 29.1266 53 66 56
-6.07616 10.6255 3.89462 72 77 58
6.39678 -1.24183 14.561 62 74 64
8.93053 7.28489 4.82307 92 109 94
8.62351 7.38887 -6.20435 69 79 69
-4.94444 -24.4985 4.22142 62 65 55
1.16263 12.3061 19.1519 55 35 4
-1.60679 15.9078 -2.85549 98 73 23
-6.9875 -19.1035 3.10553 72 87 77
0.0725861 16.7842 11.0252 64 56 38
6.24113 -4.19504 13.8432 57 63 52
-8.0527 -8.00648 -44.3173 58 70 60
7.03813 -4.91585 15.0418 64 76 65
-6.57567 1.3066 -11.2788 103 118 97
-1.54248 14.7657 9.0608 52 37 7
0.441158 16.6146 11.6792 49 34 3
-3.13319 6.77684 14.1763 85 98 81
-7.31962 -19.3771 2.9326 76 90 79
3.45651 12.7388 24.6365 62 75 66
-6.29895 7.54501 -8.64474 134 121 81
-2.77151 1.81777 -19.1607 134 115 85
4.2769 14.4742 12.4613 71 56 39
0.600712 1.00175 -18.2376 131 120 81
-8.33988 2.11808 1.45418 62 75 64
-7.51236 3.51268 -8.41651 76 88 75
-3.34778 4.76223 -14.9084 106 104 78
-4.43604 -6.25263 -25.6611 98 101 82
-1.51658 6.41881 21.0117 69 81 68
-1.48262 -1.01092 24.909 66 77 66
-3.62893 -0.787134 -18.2446 95 92 69
2.66036 12.0928 17.4784 65 60 37
-1.39104 14.2291 -6.73088 87 47 10
2.10714 12.8207 16.6907 70 55 34
-3.20048 -9.75614 -34.7759 76 93 77
-2.39831 -4.82897 -27.3118 114 104 65
-3.90349 9.46368 -9.74941 106 96 63
7.44482 12.826 1.35445 127 138 117
-6.31768 10.2385 -0.0377369 64 72 60
6.57097 11.8058 12.2141 62 70 56
-0.219204 15.6445 36.3812 57 45 20
-7.95731 -0.572395 0.175198 59 71 61
8.43494 -2.09022 -8.01597 138 153 125
6.67588 11.0033 14.6391 65 77 67
-4.79198 -27.52 7.91049 62 74 61
7.43891 8.38892 11.9414 78 89 73
-7.62528 -7.60527 -0.786346 124 148 130
-4.34632 -3.4479 -21.2376 103 102 72
7.8529 8.94179 -1.69032 99 117 103
-9.26723 -7.39301 -47.6761 53 66 57
5.61201 -0.185966 -11.2016 118 136 118
7.4957 -4.83899 15.132 70 83 72
0.174049 16.5929 11.4709 52 30 0
8.2897 10.9642 7.38147 65 75 66
0.0638847 16.3213 11.6471 59 48 21
-6.63592 0.465294 -10.5606 61 74 66
2.4842 13.6527 33.6574 64 71 62
-5.26881 4.87039 -11.8987 133 129 94
8.19301 2.90172 13.3557 73 85 74
2.72902 7.67481 -12.7844 132 83 29
-0.0731831 16.4557 -2.74688 87 45 3
0.268204 12.5084 16.5321 49 28 6
-4.64601 -3.21694 -19.2745 77 85 70
3.25525 2.31487 15.8541 77 90 79
-2.82884 14.8081 -0.661674 67 42 4
-2.06253 12.4209 31.2861 59 57 42
6.90538 6.71204 -9.91521 111 127 109
1.20194 17.358 28.3179 82 51 15
8.93629 -3.6502 -4.50891 67 78 69
-7.51976 6.15203 -6.61189 77 86 73
-1.49267 14.9431 8.76256 58 46 22
7.72084 8.53564 8.95624 60 69 61
-7.54081 -9.92469 -40.2403 55 69 57
5.43975 -20.2172 -8.68909 63 75 65
-7.55208 -6.62809 2.77415 66 78 68
-1.06492 15.7963 -4.01664 92 47 3
-4.11041 -10.3593 -36.6341 69 82 70
-7.77501 -9.32401 1.89637 68 82 71
6.08307 -17.6004 -10.5911 63 78 69
8.59647 -8.04214 -9.77147 142 156 132
-0.0399895 13.7526 23.6365 125 91 56
3.06507 12.1172 15.7906 66 64 46
3.77566 15.4817 11.2171 66 58 38
8.49604 2.528 -7.17193 91 105 88
7.83734 -2.51365 -3.04168 67 81 70
-6.52716 9.52001 3.34549 62 69 54
6.65253 11.4442 -4.92425 94 105 92
-1.54921 -7.06456 27.1258 73 85 75
-2.62527 8.76184 15.5047 49 41 15
1.17952 13.1129 16.3989 61 45 17
-4.56022 -1.73322 -17.5908 100 99 75
-3.92046 4.17617 -13.9682 95 103 86
-6.91311 2.18526 -10.762 112 124 100
6.32854 14.2305 1.70814 73 73 56
3.43286 -3.06485 -12.0635 146 172 150
6.46741 -2.89547 14.4774 56 66 57
0.316299 10.5946 -11.1612 113 63 16
-2.56427 10.1931 29.9506 79 89 71
3.9596 5.87679 -13.4966 156 141 89
-2.312 14.7004 7.29593 48 32 0
-1.70097 10.9351 13.7913 59 62 56
3.14624 16.2345 10.2892 70 59 31
8.63144 4.53576 12.6293 67 75 64
6.50584 10.6866 15.5447 66 76 67
-2.27422 -8.48029 -31.359 106 110 88
6.97434 -13.3409 -10.6483 135 149 126
6.43645 12.0875 -3.1257 67 78 70
0.218555 17.0486 -1.09789 98 77 48
-0.158312 14.1326 13.6393 66 64 49
3.65364 15.1739 -4.1523 93 46 2
-1.21095 9.05126 20.92 65 73 63
-0.88002 17.2227 -0.277283 76 47 9
-0.947639 0.582432 19.9328 71 82 71
0.718559 16.2905 26.3009 91 57 7
8.59161 3.07682 13.048 71 83 74
8.53405 -6.64411 15.0777 68 80 70
5.19946 14.0664 10.1856 72 68 46
-6.94241 -10.9615 3.141 75 87 77
6.47209 8.44541 -9.98915 123 126 102
7.29636 10.8755 -4.31401 65 62 46
1.62953 16.824 32.062 67 66 42
0.468777 13.1066 15.9314 53 41 19
-7.80156 -2.19215 0.881596 61 72 62
-8.1454 -21.6832 2.77479 75 93 82
-1.06835 -1.06295 23.0997 69 78 68
-6.94667 -27.6223 9.09583 64 80 68
6.02158 2.61692 14.6739 75 88 77
-9.36174 -25.5868 5.94816 68 83 73
-3.24549 14.3186 -1.49035 72 45 3
8.79106 -4.44573 -8.59562 133 138 110
-1.53029 15.5551 7.57655 60 52 34
-0.965584 16.5182 28.1697 82 85 65
-1.43775 11.4425 38.1908 67 78 66
-4.55284 4.4956 -12.7463 133 127 92
6.80244 4.01945 14.4119 69 81 70
7.11122 9.11813 -7.60322 95 90 67
-7.59874 1.79341 -9.6372 118 135 117
-5.04336 8.06287 -9.45068 112 99 65
8.44601 3.81961 0.431868 65 78 67
7.69668 13.5742 3.15323 77 90 77
-1.91702 1.81542 8.41421 57 67 58
-4.69104 -24.7665 3.51844 76 89 75
8.5258 5.32792 5.65003 63 73 64
7.51038 8.31989 -7.94057 107 96 74
-1.3489 16.9328 0.455645 82 51 8
9.66309 0.178528 12.8042 70 79 68
-1.62673 0.851768 22.4832 59 66 54
-1.32277 10.8163 14.722 55 51 32
8.50944 -3.58273 -4.15331 64 77 67
-2.24372 5.68309 -15.3386 121 87 46
-0.405155 18.2243 1.55267 71 55 30
1.71844 -2.74143 -19.9486 115 130 107
8.80452 1.67101 10.1315 157 164 131
0.263603 11.5775 38.6402 64 81 67
-1.53575 16.4624 30.1349 57 38 14
5.46708 15.1801 7.12631 84 60 25
-5.25232 9.52709 -7.54924 129 109 71
3.52793 0.338133 -15.6028 128 133 110
-2.89949 -8.74671 -33.3467 87 95 77
-1.05466 -1.14121 22.0141 67 78 66
6.02542 14.1637 -0.249535 106 109 78
1.28307 -8.80045 -4.3821 71 84 76
-0.415066 -8.31887 -20.5951 62 74 63
-3.74081 -1.1257 25.5128 60 53 29
1.13194 12.4563 20.0838 68 40 2
7.36213 9.0898 12.5392 75 88 76
6.42895 -21.4409 -8.80317 59 68 58
3.3217 11.8581 24.907 67 77 68
-7.02431 -28.1971 9.23293 69 82 71
-7.40545 2.81886 -10.1308 102 114 97
-2.01826 15.8072 31.48 50 41 26
6.01223 10.676 16.3367 68 82 69
-0.80447 0.240105 19.7732 70 81 70
4.2956 11.0282 20.7521 57 57 44
6.36756 9.03224 -9.3617 108 97 67
-2.02479 7.2084 19.8988 64 70 54
4.61022 -8.79361 -11.7447 164 177 146
-0.618732 -2.6445 5.47314 66 76 68
-3.8084 6.00564 18.7711 58 55 37
-7.09568 -8.24326 -41.824 61 68 57
-0.678654 18.2361 4.24115 57 40 14
-1.7937 13.5706 26.4421 98 59 0
-3.1322 -26.4437 5.36934 56 61 49
1.41355 16.2678 -2.01455 92 81 51
-5.43483 1.04202 -14.0891 125 129 97
8.29893 -0.748817 14.4906 68 76 64
1.89516 17.1795 1.50242 92 61 17
-1.79871 11.7445 37.7054 62 69 58
1.62353 17.0806 31.7104 65 61 44
-4.96557 4.24667 -12.509 150 138 102
-8.09389 5.9433 0.782383 66 78 67
-4.25143 3.07539 -14.1429 142 141 101
8.37805 11.7887 6.75657 61 73 64
-9.50163 -25.0327 3.99939 78 95 83
6.28536 -15.816 -10.7033 106 125 109
1.81543 1.67799 -16.6608 182 144 100
-2.55315 0.0223751 6.11466 59 68 61
-3.059 13.9462 -3.21079 85 58 11
6.84623 -3.21026 -9.81709 150 157 125
4.33215 15.3159 -3.81149 79 51 4
-3.56456 -0.172096 24.4024 52 37 16
6.50866 3.27906 14.5478 72 86 75
-0.617855 12.0829 24.65 74 71 53
-4.31819 -1.65828 -18.2163 78 74 56
-1.00875 14.9902 -5.47447 105 56 16
-1.62931 15.6997 -3.0961 82 54 9
8.08874 10.4997 0.79108 94 109 93
-8.10435 -2.05454 -4.68803 58 71 62
-4.05 -7.5631 26.9305 78 91 82
0.837439 13.2444 22.2657 88 49 6
4.85516 5.21711 -13.3374 155 143 98
0.718628 15.6826 13.0939 52 35 4
2.80444 14.0576 29.0017 59 68 60
4.03791 -3.49345 -11.4747 156 179 157
-9.26036 -26.5474 7.5035 65 76 66
7.04381 -1.86138 -9.48359 147 166 143
7.63667 -4.38741 -9.59428 133 122 81
8.67516 -7.91123 14.8059 70 84 74
-5.78132 10.2547 7.77702 53 56 43
-8.31959 4.68311 0.188429 70 84 69
-1.14001 9.36498 20.7785 64 77 67
9.2719 6.16973 -3.54738 90 105 91
-4.47654 -6.67576 -26.4436 82 84 68
7.05061 9.55394 11.1951 100 115 98
-7.27776 2.60651 -10.3226 121 132 109
-2.21327 14.1004 8.61955 49 34 0
8.98917 6.09718 3.95422 66 79 68
2.7784 12.6153 29.8287 63 72 61
-8.38432 -13.1251 -0.162102 87 105 91
-3.34372 7.68114 -12.7483 135 123 93
-5.19933 1.49682 -14.1063 112 113 83
8.38936 12.084 6.26942 65 75 63
6.64022 -2.40423 14.6342 61 73 62
6.76536 13.3016 8.2276 68 71 59
-3.917 0.735733 20.5522 61 63 52
4.21059 9.45434 22.1148 85 98 84
2.83281 16.6855 8.81938 67 61 36
-7.36724 7.1214 -4.23614 66 77 66
-2.84127 7.67331 17.6045 53 48 31
-4.89442 6.19233 -11.4538 141 131 101
8.76485 6.08575 -6.68262 94 112 95
0.545944 12.3425 18.0347 44 27 3
-6.75316 4.70163 -10.2582 148 138 98
-2.59352 -10.1462 -31.7652 72 85 76
9.32833 -3.75604 14.2456 70 80 70
1.81655 -1.63023 -19.147 124 115 81
-6.43496 -14.4013 3.06872 80 96 85
-3.22604 0.202915 -19.7624 95 96 80
-1.29512 -1.27779 24.5526 68 79 69
-2.2243 -6.43911 27.6884 79 92 81
5.58983 -0.491962 -11.2099 126 146 126
-4.51276 2.90493 7.08421 52 63 54
-10.5321 -6.62214 -50.6057 53 64 55
3.00685 16.2847 31.1427 55 70 55
8.55271 9.23173 1.40967 86 101 87
8.154 -7.3532 -10.2153 139 133 90
5.76717 2.27085 14.7225 75 88 77
1.4146 -3.8714 -20.7614 107 122 104
-7.09101 2.3927 -10.5257 115 126 101
-4.17637 2.23683 -14.6805 145 129 94
-7.39207 -1.61316 2.9224 69 82 71
7.95435 9.79776 8.58517 61 72 63
-5.40346 5.29128 -11.5317 140 135 100
-4.73307 -7.05038 -26.5642 82 82 64
8.83228 9.41053 6.29065 66 79 69
4.68973 2.75036 15.1768 75 87 76
-3.55573 5.126 -14.2182 128 111 86
7.84386 3.18337 13.6171 72 85 74
-5.4594 4.85346 -11.7208 140 134 98
-6.19449 -17.5827 3.07242 76 95 83
3.27859 4.11053 -14.3509 144 134 89
-4.97474 -3.31085 -18.0026 85 93 76
-6.61596 4.04212 -10.6282 123 124 90
-0.825092 13.034 -8.54736 98 59 8
9.5822 2.65792 -2.77273 66 78 68
3.84115 8.05701 21.6487 68 79 69
6.88401 12.6186 9.48258 73 82 72
2.4703 -23.3969 -5.66339 61 74 65
-0.353947 -0.863617 -20.7795 106 94 57
-2.03181 16.0634 2.08712 57 37 9
3.42397 4.79016 16.9134 73 84 74
6.17004 -13.5986 -11.3711 135 158 137
-8.45026 -0.138336 -7.3559 64 75 64
8.47302 -1.20833 -7.90978 130 151 131
-2.14359 8.67687 -12.7816 126 97 54
-3.45229 3.57139 8.71014 49 61 52
-5.13636 4.45234 -12.2715 149 134 109
-2.50863 9.38127 33.999 61 67 55
-7.28713 7.12019 -6.72625 73 84 71
-3.04092 10.6247 -9.93833 110 83 35
8.30775 -3.73557 -8.83123 136 132 98
-5.56047 2.70363 -12.8851 93 90 68
-3.61341 -3.4782 -25.7779 87 81 58
-8.54195 -9.89692 0.0539474 64 78 69
-5.96469 -25.2932 1.59915 144 165 140
5.22017 0.170015 14.3972 69 79 67
8.29873 -2.48684 15.0034 65 75 64
8.78733 1.34543 -7.19843 111 130 109
0.364697 12.2258 17.7567 47 33 13
8.67073 3.67214 -6.46173 138 162 133
-3.89754 4.63198 9.53612 57 69 58
0.95653 13.9705 23.3634 108 61 3
-5.65394 -9.31592 -32.4463 61 69 57
-8.57376 -7.26595 -49.9612 90 103 90
4.47784 14.0774 12.9621 62 49 12
3.44398 -0.0731964 -15.8153 111 119 98
-1.51276 -6.02105 -27.4488 116 105 67
-0.566868 -1.30358 6.30728 67 78 70
4.16756 15.1738 11.0088 67 68 54
-4.4176 4.31009 -13.1029 118 116 90
3.06674 8.39343 23.5109 60 71 60
-10.614 -5.96114 -52.7812 108 129 106
3.28818 13.7703 13.9276 66 67 56
-0.346943 18.3864 3.10758 60 42 20
-2.19525 3.5281 20.9346 82 94 83
-1.50354 7.65419 20.7626 60 72 60
-5.90524 4.15018 -11.5725 108 108 82
7.60485 5.32059 14.0532 71 82 72
9.55474 -1.33438 11.2237 125 143 123
-4.18445 -1.82281 25.103 61 68 50
-7.03679 -28.8768 9.17163 70 85 74
-5.35303 -8.08043 -25.1137 69 80 68
5.97755 -2.07727 13.7634 51 60 53
0.278851 16.2088 12.0378 59 43 15
3.05676 12.1955 28.5156 66 71 61
-1.92203 -3.79016 27.2627 68 81 70
7.06728 2.93431 14.137 72 86 75
-4.32316 12.5061 7.79011 55 56 45
-2.13808 -1.84661 -23.9066 160 143 91
10.0007 -0.176743 11.4719 86 99 75
3.91413 10.5809 -10.3405 114 69 8
3.10255 11.3136 17.4021 68 66 47
-2.17846 6.78167 20.1544 59 61 46
0.471176 18.6682 5.3304 57 39 7
8.50987 -5.66216 -9.39358 156 148 111
-6.40668 4.28757 -10.759 124 137 114
9.0366 9.38285 3.32977 67 80 70
9.99181 1.41756 11.7366 63 73 59
0.0156326 11.2391 16.7943 58 67 55
-1.3642 -2.17609 25.5256 68 79 69
5.36708 5.27902 -13.087 158 134 87
8.9981 8.96788 2.20219 113 131 116
2.4173 12.645 21.0003 79 46 4
-2.95872 -4.64307 27.9043 80 94 82
-0.956352 11.4125 -10.4847 117 65 9
8.11989 -1.87975 -8.30233 144 159 134
-2.93282 13.7514 7.89813 52 41 17
-8.6022 -23.8749 3.90683 67 83 72
9.27818 1.7911 -5.89776 107 122 105
5.31472 5.99486 15.5437 70 84 73
-8.66516 -8.97227 0.415888 71 87 77
-6.54661 -3.4268 3.89783 69 81 70
-7.27151 -22.1784 3.56825 71 84 74
-1.55312 5.93174 -15.4109 128 88 43
2.8337 10.1728 26.8968 99 115 99
1.64198 -21.7882 -9.30329 80 93 80
8.24186 -22.4014 -9.54084 60 64 54
-4.16181 6.84094 10.5982 66 80 69
-4.77757 -7.47858 -27.9941 81 85 68
-5.20541 -7.78849 25.8877 68 76 67
0.560318 18.7106 4.21544 60 42 9
-7.89438 1.67752 -8.86258 69 80 65
7.43655 6.44531 14.1795 71 83 73
0.184885 1.58028 -18.3194 119 92 60
9.18084 1.70923 -6.18722 100 113 97
-11.4444 -6.35645 -52.3793 54 66 58
1.32116 17.5675 10.1849 63 50 27
3.37819 16.5729 2.75378 74 71 37
9.45063 -7.22789 13.7433 67 76 63
-4.77962 -26.7652 7.3929 72 83 69
5.78811 14.2023 -2.43188 66 71 64
-7.26848 6.19222 1.59286 70 84 72
5.79936 2.03365 14.6706 75 87 76
8.4639 7.47356 -0.845547 103 119 102
5.69859 13.3297 12.5651 68 68 55
9.03944 1.7118 12.9094 68 77 66
-0.525661 3.00871 19.443 69 80 69
-1.33244 13.5689 29.8208 64 78 59
-3.00834 -3.10963 27.5928 70 79 67
-8.55117 -7.05303 -47.3316 57 68 56
-0.380211 2.13425 -18.5764 101 78 40
1.3223 3.18806 -15.6856 154 129 76
-5.47999 7.8196 -9.24046 114 94 57
-0.712139 18.041 4.52895 56 37 8
-7.57346 -5.88714 2.88803 66 79 70
-4.73878 5.99195 -11.75 117 106 88
-6.70023 -14.9004 3.09232 78 92 81
9.5603 -2.47646 13.8703 69 78 68
8.7923 -24.5294 -9.02202 63 75 65
-1.64219 13.4834 -7.97511 107 65 19
5.88873 -1.92464 13.3183 52 63 54
-4.1359 1.42573 -15.3287 133 126 93
6.54794 8.42951 14.8226 64 76 66
5.42412 7.94524 -11.6359 146 130 91
-5.38745 -8.1686 -37.3715 84 86 70
-0.887787 13.2417 38.5285 67 68 48
0.404533 8.47958 35.0687 70 82 72
2.52014 13.9089 14.5638 66 70 58
2.03995 9.94117 -11.0225 120 90 46
-3.49224 -27.1083 6.7309 62 68 55
-6.627 7.6225 -8.17523 106 115 90
-0.744709 -1.8088 5.92793 67 79 70
5.8243 11.2153 16.1402 73 81 67
-7.22033 6.23919 -7.39834 86 98 83
-5.81616 -25.705 1.78154 137 151 130
5.19537 2.78826 14.9806 77 90 79
8.62981 -9.22038 14.3789 71 81 72
6.41213 -24.5207 -7.14291 67 81 70
-4.50837 6.45351 -11.7942 135 123 89
-4.94899 -7.94469 -28.5099 83 87 70
7.23299 -6.63555 15.0275 70 82 70
5.50567 4.11354 15.0881 73 87 75
8.29662 7.56925 -1.25866 112 132 115
7.57254 9.51263 -5.86072 131 130 109
-7.64096 -5.2868 2.53047 61 75 64
8.76595 7.21962 6.67034 63 73 65
-4.32049 0.626976 -15.9352 148 136 102
7.81571 5.12932 -8.3006 93 108 94
-6.73267 1.498 -10.9665 102 117 98
8.67512 -1.95422 14.6951 67 76 66
-3.08309 8.05928 14.1937 63 61 46
7.28299 -6.96145 15.0354 71 83 70
-2.53638 -8.42867 -31.8923 56 62 50
0.770199 -2.85553 -21.605 92 92 65
-3.96768 5.46255 -13.2125 112 108 92
-6.73497 2.21671 -11.0049 124 135 108
-5.39957 1.25132 -13.9699 127 131 100
-2.41635 0.536266 23.7482 63 60 45
3.13142 -0.218357 8.924 60 74 63
-3.65942 3.8012 -14.8982 103 102 84
9.38249 -2.30651 -4.49238 62 76 66
8.41936 6.78038 -1.213 80 95 82
4.89837 9.4905 20.3755 65 75 65
-3.74784 0.676704 -16.3756 126 125 100
-1.95322 10.3438 25.9586 74 61 31
9.95361 0.651688 11.1303 111 122 102
7.29943 8.23774 10.5116 89 103 86
3.34326 1.80228 -15.1664 131 130 105
-3.35045 6.82436 15.0218 78 80 63
8.24852 12.0565 2.47666 84 107 85
8.55273 -3.00507 14.9815 68 76 64
7.23344 -2.82102 15.0216 69 84 72
-6.73175 7.0647 6.05176 69 82 68
-2.21814 2.63076 8.84254 59 70 62
-4.22344 -8.34402 26.6363 76 86 76
1.62397 8.12315 -12.7835 144 105 67
-4.18473 1.22686 -15.489 135 128 93
-3.90033 12.0902 9.31803 60 57 38
-4.20514 -0.892673 4.68536 66 78 68
-5.73083 -13.3886 2.80879 73 89 85
5.34708 11.1081 16.266 74 74 57
1.84009 12.1646 -8.57664 87 56 19
1.13319 16.7846 32.7018 64 57 38
8.30729 3.1048 -7.45654 66 78 67
3.48876 -22.4953 -6.23389 60 71 61
8.04499 4.122 9.46342 132 143 121
1.54422 16.0447 12.8416 58 45 16
-8.5801 -24.208 4.30372 67 83 72
2.46864 10.4039 25.6884 62 72 63
8.57365 -4.54134 -8.87155 144 141 105
-1.18474 -0.712528 23.4008 69 79 70
-2.08 11.3163 -10.2052 129 85 25
-3.92093 -4.75711 -27.332 70 70 56
-5.05828 -25.0691 5.77045 62 68 56
7.62782 6.78562 9.06687 69 81 71
-8.33937 0.97773 1.45874 61 74 63
5.44172 9.68027 17.1936 80 91 81
-1.3595 16.7227 6.45455 60 52 30
-5.99269 5.01402 -11.0378 135 131 96
-1.68604 10.5008 33.415 76 87 77
0.68483 12.3139 20.1988 63 32 4
-4.04544 2.90112 7.16778 51 62 53
-1.25066 -7.87021 -28.706 127 133 104
-4.57084 3.18068 7.33316 51 62 53
-8.32916 0.290764 -1.32774 60 74 63
0.225176 -0.372589 -19.5901 115 88 32
-3.43595 -2.70472 -24.5982 96 87 71
1.72315 2.80181 -15.7432 143 112 58
-2.27036 10.5932 12.7406 57 55 38
3.06989 11.3597 18.325 70 62 34
6.15667 -19.948 -9.64342 56 67 57
-3.14684 3.21011 -16.7041 125 114 89
-7.79627 -9.75774 -41.2189 59 68 60
7.93437 9.51793 -0.618353 64 75 65
6.35915 1.97816 14.4502 71 85 73
6.2374 11.8857 14.8699 68 74 63
6.59576 11.6456 12.9724 64 61 47
-7.56147 -2.1851 2.80748 64 79 68
-5.82205 11.1809 6.67351 63 58 37
-4.58219 13.3507 3.82181 58 51 26
7.59858 -8.36962 14.9578 71 85 74
-5.34018 -23.7512 3.62451 60 68 58
6.42925 4.98127 14.7117 70 83 72
-8.56508 -25.7488 6.91338 64 76 66
-0.793419 -0.0455627 20.2218 69 80 68
-6.8216 4.63766 2.63534 57 70 59
3.43262 9.81661 -10.8075 121 72 7
-5.3217 -2.28114 -16.0993 88 99 85
7.69916 5.61934 9.64443 97 110 93
6.25465 -1.51701 14.3054 49 58 50
-5.53317 -1.76069 -15.2069 90 111 91
-1.44668 14.4846 35.9028 56 48 30
-1.96208 14.0652 27.2325 68 54 18
-1.61372 9.41615 22.778 74 63 38
-4.21384 4.55093 -13.2266 115 109 91
-1.02008 16.8116 7.33848 46 30 6
8.04825 -0.526314 14.5224 63 74 63
2.11028 14.5835 31.5136 57 67 56
9.03012 7.17274 -3.78045 82 96 83
9.15812 4.44411 -5.66378 84 98 83
-3.04617 4.1712 20.3077 76 87 74
-1.77036 11.5859 26.0987 99 78 37
-6.7026 -17.0244 3.0402 80 93 81
-4.48289 13.7624 -1.77292 65 40 6
-2.07771 -8.89057 -31.0907 88 100 81
-8.34083 3.86741 -3.10632 63 71 61
-3.20799 -0.121567 -20.5113 93 86 65
2.53725 11.2539 -9.29203 107 74 32
4.06182 5.36969 16.592 66 80 69
1.20197 2.85019 -16.0262 114 83 40
4.01293 10.148 -10.7501 132 101 56
-4.81382 0.750492 -15.2134 105 102 76
6.69369 10.2693 15.4515 64 73 64
9.47814 -0.826706 10.9673 139 155 131
7.82107 7.5533 12.7321 81 91 75
0.0237083 13.317 14.7528 61 48 22
-0.797794 7.78301 -13.7312 119 81 23
-2.09974 11.2382 12.4587 59 62 45
8.53104 -2.7423 14.9382 68 77 66
-4.38915 0.213781 -16.1587 133 124 92
-6.90364 -0.538498 3.2246 69 81 70
-4.07587 -3.33003 -21.8101 92 94 73
6.69892 14.8368 3.27712 87 77 47
-1.28984 0.867439 21.004 69 80 69
-5.1725 -4.54076 26.4257 58 60 48
2.57022 15.2826 12.983 68 66 50
-2.47578 -2.75655 -25.2667 137 125 83
3.62771 1.78858 15.4744 74 88 77
-4.86431 5.12436 -12.1717 139 128 91
7.23795 -21.0887 -9.85344 57 59 43
-2.09798 15.1417 6.38855 50 38 9
-5.08357 4.89022 -12.0943 144 138 107
3.23892 11.0865 18.1407 75 57 23
3.16988 2.82106 -14.911 128 115 72
-4.07135 -0.70108 -17.4189 135 136 102
8.54057 4.84683 -6.91686 130 152 135
7.21586 13.9061 7.14115 69 79 67
1.5429 0.426651 -17.7673 119 89 59
8.64141 7.6783 0.559498 113 132 115
-2.9582 14.2281 -2.73424 75 53 3
-1.9422 -2.72961 26.708 69 80 70
-8.06639 -22.1517 3.0802 74 86 76
5.84319 -19.698 -9.39493 63 75 65
1.62335 3.93147 -15.0115 146 128 81
6.11301 -1.56342 14.0286 51 59 51
2.39499 15.7379 12.7005 66 65 50
-2.78609 -7.06375 27.5273 79 91 80
2.95155 15.9948 28.5899 92 79 49
8.19771 12.6897 4.94547 80 93 83
-0.187149 -1.33083 -20.8821 111 85 38
-6.87077 6.31242 4.92387 59 73 62
-7.80299 2.87123 -7.36439 65 76 66
-3.47486 4.64684 9.75275 57 68 58
2.95347 12.9191 26.9843 64 74 65
2.89557 -7.75491 -12.2223 163 185 159
6.24748 5.17376 -12.5845 143 143 111
7.46066 10.4789 -1.48686 65 77 66
-4.55446 11.2931 9.29223 62 69 59
1.11615 12.1582 37.2564 68 76 63
-2.54294 10.7179 -10.4893 139 113 73
-4.55158 -3.67304 -21.169 90 83 57
3.63568 14.4294 -5.04459 115 63 4
0.886578 4.16556 -15.3269 121 95 51
3.34993 13.6882 25.0748 63 72 61
3.40284 12.1278 26.488 63 68 54
-3.57535 2.81431 -15.5852 86 87 70
5.9833 3.18143 14.746 74 88 76
-6.77263 5.92171 2.68458 60 74 63
-4.35653 6.82817 10.4343 66 79 68
-5.34012 1.67773 -13.7705 122 125 96
-8.08241 4.70884 -4.72122 86 95 81
3.44342 3.82666 -14.3863 140 122 90
4.22013 10.2175 -10.6294 184 160 125
-0.452808 18.4167 3.95819 92 66 33
-3.52133 7.24313 11.6789 65 71 66
9.05378 -1.71153 14.4001 67 77 65
-0.995827 6.77882 -14.6333 141 115 78
-6.84986 -10.2364 -36.886 53 62 53
7.82535 5.68258 10.3659 79 87 72
-2.07701 9.62295 15.1741 51 35 3
8.68442 3.99765 10.5983 91 88 64
-4.40732 -5.76538 27.3842 75 88 75
-6.03597 3.05407 -12.0173 118 130 106
-8.2007 4.17765 -0.79229 81 93 79
-1.22477 17.1871 3.08522 59 39 6
-1.05126 16.5076 28.8574 91 78 56
-3.25185 8.63152 11.7699 59 73 61
-1.20537 11.2995 38.5247 69 81 71
-7.28467 7.87044 -6.53716 78 89 76
-8.46907 -0.0561485 -1.51064 62 76 65
-4.5635 -4.37827 -21.9244 89 91 69
-6.33672 10.4016 1.99447 63 73 56
-1.20745 -1.10509 -22.2916 121 104 57
-4.20787 10.4144 9.80581 65 73 63
0.129585 17.3241 31.3368 56 37 1
-7.59164 -4.65063 0.49456 57 71 60
-8.41181 3.97449 -3.37855 66 74 63
6.9457 6.17303 -10.3786 90 97 83
-0.978912 9.46354 21.5715 62 73 62
-7.94933 1.87071 -7.09537 64 76 64
-4.87366 -24.9107 2.89352 100 119 100
3.4941 12.2338 22.3063 63 68 55
-5.49374 12.4778 0.329542 60 67 53
6.49235 -3.37337 14.4403 53 62 56
-5.43086 -3.39969 -13.1375 64 78 66
8.85463 -1.70077 14.5287 67 77 66
0.285042 11.8571 18.4253 51 42 16
-7.35987 -7.59826 -46.166 80 90 77
-1.69663 13.9154 28.5515 71 83 73
-2.48573 10.4446 -10.7325 123 98 53
-5.15479 12.0595 7.09343 56 56 37
6.05862 13.5647 -1.31137 70 77 64
-3.00486 0.324169 -20.5839 86 75 54
-6.03962 4.56988 -11.1966 139 137 108
1.60851 -2.16818 -19.9604 125 121 89
2.09557 17.2804 9.1915 63 58 41
-1.47699 7.94636 23.3065 66 78 67
3.91144 -0.692181 -15.2935 131 140 114
5.90781 -16.7472 -9.72752 62 80 69
3.71954 -3.30156 -11.7683 149 173 151
-2.63301 -8.03393 27.0772 74 87 76
-5.40519 -2.80754 -14.7427 60 71 62
-1.4837 2.20344 20.9583 70 82 71
4.97855 15.3542 6.62238 96 77 44
-6.97437 -12.0533 3.06911 71 85 74
-1.98918 -7.59833 -29.8605 112 106 69
4.15352 3.3924 15.5942 76 90 78
-1.01802 -0.150513 21.5067 64 79 66
8.27216 12.235 3.18422 64 76 67
3.26908 10.6727 29.3438 66 74 63
1.53265 -1.91999 -19.9173 118 109 65
-5.12669 -3.63739 4.36266 63 76 65
8.13913 5.85074 13.3144 65 76 66
9.65309 4.50273 -2.46732 65 76 67
-4.16463 0.437672 -16.1977 153 143 108
0.274731 2.28891 17.8399 70 80 70
-4.67169 5.13941 -12.3386 140 135 90
6.66436 8.36635 -9.70064 100 117 104
-1.59064 2.04703 21.2207 70 80 70
-2.01107 16.0798 1.7351 60 41 10
3.12392 5.47827 -13.8404 159 139 96
7.87611 6.04815 11.1541 87 93 76
8.6742 10.8688 6.02859 69 82 72
-3.18998 0.148224 24.2166 49 38 17
9.32076 0.296989 -6.32676 95 110 94
-3.83483 12.9752 -4.19776 92 56 8
8.36921 -0.443859 -8.21614 130 150 131
6.61587 -1.92959 14.6683 61 72 62
1.18554 16.2303 26.0524 97 65 15
2.63918 14.2229 14.246 66 68 55
6.51208 -15.1798 -10.5332 94 117 102
0.262283 0.399487 -18.9857 133 104 52
-5.08314 6.1759 -11.2691 143 140 98
8.49683 7.60117 -5.46596 71 84 72
-11.061 -6.68033 -53.3995 151 185 158
8.71611 -2.47996 14.7776 67 77 66
-5.68694 9.01786 9.09805 66 79 64
-5.424 3.78967 -12.426 147 138 101
-3.1168 7.24893 13.2246 59 70 58
7.63442 -3.37392 -9.25343 146 152 116
-0.54512 14.0924 12.8974 62 54 33
-4.15938 5.1167 9.63122 60 72 62
4.80171 -23.0232 -6.76153 62 73 63
-1.44006 10.3526 33.7912 73 85 74
3.93171 3.26846 -14.1654 147 144 107
5.69201 14.6068 -3.19038 66 76 62
8.79541 -5.96904 14.9857 73 85 74
-1.7264 3.17112 -18.1127 115 68 7
-6.43972 9.96307 4.89528 60 64 50
-3.38465 -0.996021 25.862 53 47 25
-4.62143 5.57892 -12.1714 137 131 100
-2.98197 12.6482 9.58267 62 64 47
1.42435 12.5429 18.2618 63 43 15
9.46349 -1.61838 -4.37827 64 76 67
3.30653 0.237877 -15.9853 94 88 71
6.24375 -5.49468 -10.7846 150 147 105
-2.48943 15.4815 3.09341 52 37 0
8.71988 -1.41399 -7.56957 124 142 122
4.01185 14.1235 13.232 67 59 34
-1.18254 13.5927 29.5346 76 94 76
3.00325 3.06925 -14.9202 133 114 65
4.68922 10.1349 18.4269 67 67 46
7.9086 11.5915 1.51146 138 159 135
-4.61219 -3.43899 26.6884 62 61 47
-4.35284 -5.03423 -23.7513 95 97 79
-7.69796 -20.7061 2.94365 77 91 81
8.22668 -22.1131 -10.1114 60 59 44
8.61102 4.22416 10.8605 89 85 63
2.0434 12.6779 20.7569 71 41 4
6.2723 2.95756 14.6218 73 87 75
-1.09531 9.25927 21.2478 65 71 64
1.67979 12.3145 36.4572 61 69 55
-10.3683 -6.35248 -52.7405 127 142 126
-4.89206 12.3543 -3.86452 80 59 24
-4.90292 -4.83325 26.9361 68 80 70
-10.8374 -7.69883 -50.3164 61 71 66
7.21281 10.7826 -2.03528 91 107 92
-4.7168 2.39713 -14.0967 136 123 86
8.41667 11.9613 5.09016 87 102 90
-0.0676289 9.53331 -12.2073 118 72 8
7.51222 1.39745 13.9792 70 82 71
8.78918 1.12424 10.0946 155 166 140
-3.83698 -3.39458 -24.6858 72 74 58
-6.66398 -18.0657 3.0341 77 92 82
0.526363 6.17181 -14.5822 134 105 59
0.498753 -1.89228 -20.8512 120 85 28
-0.469051 18.2888 6.1988 59 34 7
4.59281 3.43517 15.4167 75 89 77
-6.798 4.25401 -10.4094 143 136 95
-4.03794 -1.80244 25.9808 56 49 28
3.6464 11.5912 22.5055 79 86 71
-0.75503 -1.12112 -21.6496 99 87 56
-4.8487 2.80798 -13.7381 135 127 83
-3.77399 6.54343 16.7942 60 59 43
-2.83015 -9.84162 -33.332 77 91 76
-1.90115 16.2194 2.8468 62 40 11
0.859745 7.32775 -13.7516 192 155 111
-3.55602 6.18411 10.9979 60 74 63
3.83407 16.2547 1.91024 90 58 6
-8.36083 -18.2208 1.43874 63 80 68
8.51086 11.4634 6.29239 67 79 70
-1.43809 16.0982 29.3463 104 66 14
8.44942 2.23898 -1.58618 59 69 64
-4.77393 4.26304 -12.6774 134 121 83
5.54488 4.62161 15.2105 70 84 72
-3.33396 -27.8856 7.21996 60 66 53
-3.22882 -26.7744 4.29032 121 144 119
7.68712 6.4102 8.5983 66 76 68
-4.09839 -3.03453 -21.1738 84 80 60
3.05429 14.8924 24.7765 87 83 60
-8.78142 -24.7457 5.04847 63 77 67
-3.73148 -25.9084 4.31795 88 93 74
-1.88496 1.90613 21.6104 70 84 73
-7.82589 4.59155 -5.73296 76 86 75
-1.42881 11.3215 -10.473 135 102 41
-0.870474 -1.2713 -22.0052 108 91 55
0.396976 12.121 18.2471 47 31 9
6.21007 12.7831 -3.18694 61 73 65
8.74791 -23.871 -9.60716 62 72 59
-1.36576 -5.45817 27.1249 75 86 74
0.780289 16.0467 12.695 53 34 2
-4.66235 -6.30324 26.8611 69 82 70
-0.947208 -0.426277 21.5721 68 82 67
-6.74086 1.74329 -11.0089 115 131 108
-1.32947 7.60462 -13.8797 150 108 85
-5.28212 -7.59537 -23.892 59 71 62
4.43715 15.7889 7.09683 79 68 43
-1.53036 14.3288 30.5669 85 100 86
-4.42859 -4.31702 -22.2094 92 94 72
-9.32075 -24.7718 3.50619 77 92 81
-1.10079 14.2227 -6.86569 85 46 12
-1.52501 16.7629 2.63558 58 39 8
0.405861 6.38278 -14.5665 131 97 41
-3.14651 3.2058 20.5903 72 84 72
0.0977783 3.4143 -16.852 140 127 91
-0.998943 -6.29868 26.6862 70 81 70
2.5138 13.099 -6.83457 146 116 88
-1.18961 17.3254 1.76986 58 34 2
1.01659 12.4681 -8.64227 89 52 5
6.23632 -20.5959 -9.2539 63 72 61
8.87454 5.97057 -5.69035 54 66 55
6.94856 14.4795 4.23013 77 77 59
1.28283 9.20282 34.1708 65 74 65
1.02301 17.4978 28.9421 74 42 9
3.04326 12.2509 20.4937 65 44 7
-1.3508 16.4152 -0.876804 76 50 8
4.82133 8.65489 20.3319 71 82 72
7.1588 1.23002 14.2901 68 79 68
8.16327 4.01942 -7.89768 61 72 61
8.5541 -23.5942 -10.376 95 116 102
-0.95356 0.277603 20.3592 69 80 68
-2.1603 9.11246 16.0316 48 32 2
-3.34063 -7.43946 -31.5104 100 94 61
6.34392 -3.3101 -2.46628 57 74 62
7.05926 -9.76759 14.6582 68 82 71
-7.73764 -7.76508 -48.0318 83 99 90
4.66687 14.9769 8.73773 69 66 43
4.67661 15.5362 6.55751 92 71 36
-5.01015 -7.86698 -28.0518 90 93 75
1.1588 7.68037 -13.3661 152 118 63
3.12637 8.64105 -11.7865 159 130 69
-5.67184 3.33769 -12.4416 132 135 106
9.10812 5.08724 -4.40337 81 93 81
-7.19652 4.22399 -10.0823 113 130 109
-1.56195 -4.91147 27.1609 72 83 73
-5.09418 3.69694 7.50439 58 69 59
4.14552 6.7415 -13.0568 155 131 85
-5.19669 4.01958 -12.4755 160 152 116
4.51208 15.643 6.03227 74 70 54
-1.31835 -0.384579 23.7142 65 81 69
5.45258 -18.8693 -9.3109 66 78 66
-3.96239 13.3515 5.73444 49 41 19
-5.31467 6.1345 -11.0209 119 115 84
6.65163 -4.72305 14.7603 58 69 59
-5.0481 2.79583 -13.6031 159 149 101
7.61224 6.14496 14.0386 70 81 71
-7.00837 2.85988 2.67718 71 84 73
0.0871201 16.3556 34.1094 51 30 0
-1.23719 0.959122 20.6731 69 80 69
-5.45627 -8.15592 -34.5788 67 74 64
2.92579 12.6384 28.0297 70 80 68
-7.89177 -19.5296 2.41988 75 89 78
5.308 -8.93719 -11.5365 161 170 133
-5.98731 3.49419 -11.8524 121 126 103
3.70387 3.57137 -14.2728 148 130 100
1.57606 12.1663 36.6497 61 70 60
6.23128 13.9111 8.09319 74 75 60
-5.40268 -7.15633 25.6014 74 79 62
1.93956 16.4866 -0.588524 104 78 21
1.32906 12.0406 36.9575 68 74 63
3.33871 15.4362 -1.6404 70 56 42
-5.69321 -8.49229 -41.0892 68 75 62
3.55015 9.3782 -11.19 132 80 7
5.88591 11.8171 -6.20822 110 110 89
2.87726 7.93534 23.2947 63 74 64
-2.41971 6.70272 -14.3947 119 92 37
-2.61114 12.0146 32.9703 57 60 46
6.57564 -1.2178 14.7304 66 77 67
-7.13042 -25.6806 7.63778 58 71 63
7.22494 -8.0581 -10.9744 166 162 126
-0.105953 -0.6413 -20.2595 132 112 73
-2.42929 12.4561 32.3312 53 46 20
-3.19044 -2.30849 -24.5209 107 89 60
3.20031 -18.4701 -8.50464 63 75 63
-4.91456 4.68509 -12.3386 158 147 114
-2.14378 15.631 5.09734 59 48 26
3.91752 10.9376 -9.90109 101 62 12
-0.434696 9.73032 -12.0071 114 61 3
-7.539 6.67117 -5.29432 66 76 64
-5.52153 -12.5388 2.45698 74 89 81
7.38859 2.92206 8.69124 135 156 136
-5.28402 -23.5246 2.86828 66 76 64
-7.9511 1.33851 -8.52441 81 94 81
3.11797 13.6068 -6.23683 118 76 13
-3.42433 1.56752 -17.589 95 101 77
-7.63335 -27.286 8.47343 65 78 68
-0.64702 0.997414 -19.8117 118 86 37
-5.92582 5.90639 8.0191 59 69 59
-3.51334 2.14399 -16.6754 83 89 71
-0.788551 9.95108 -11.807 129 81 25
3.95256 -3.00291 -11.6136 149 174 151
9.12444 7.90044 3.8644 70 82 72
-5.24874 -7.7933 -35.7848 75 76 60
5.66793 -5.17393 -10.9008 162 168 131
5.63783 -9.24189 14.4897 61 73 63
-0.77264 2.69236 19.5296 71 82 72
6.11158 -19.31 -9.96365 61 72 62
-3.86138 -5.93828 27.6268 75 86 75
-2.92147 7.09334 -13.7119 154 165 140
-3.21524 5.17389 -14.6591 112 87 57
6.13739 9.10694 16.2544 68 81 70
7.35492 8.23012 10.9494 73 84 70
8.59266 -3.59457 -8.36597 127 127 99
3.34706 12.5813 24.8554 63 77 67
-1.65744 16.1691 31.5112 47 31 4
-8.08298 -2.92273 -0.300762 58 71 61
-4.30804 -0.151537 -16.6647 131 118 83
1.86338 16.6829 -0.311028 86 68 30
-1.49009 13.5894 30.2677 74 84 66
-4.74482 7.03064 10.0946 67 79 68
3.68066 2.48942 -14.4588 130 134 108
7.03062 9.22437 10.8191 90 103 88
-6.85429 8.27979 2.19071 66 78 64
-5.03147 -7.91235 -36.1935 107 111 87
7.88921 4.81207 -9.03157 71 83 62
-5.82262 -20.098 2.92718 66 79 71
-7.59733 -5.68627 -1.19644 87 104 93
6.23209 15.1065 3.19619 88 56 12
3.2162 2.77965 15.9435 77 91 80
2.94908 16.2607 27.0598 76 75 55
5.70803 9.54147 16.7972 66 76 67
-4.88143 -5.68184 -23.6277 93 94 70
5.66782 6.68368 -12.1471 212 188 145
-6.98861 4.47154 -10.2235 141 151 121
-3.62074 13.7511 -2.67792 81 46 6
2.4747 16.1738 32.092 71 66 49
-1.53513 12.9034 29.0997 84 92 68
6.24899 5.37845 14.9127 72 84 74
5.68752 8.74562 16.9123 62 73 63
-4.90809 2.38009 -13.9364 134 114 73
-5.59981 -8.24548 -38.4038 86 90 74
2.50553 16.4808 0.124217 108 77 29
-5.32845 -7.89105 -34.9537 90 95 80
-3.29896 0.315228 -19.1346 74 77 59
4.54296 3.09805 15.3592 74 87 76
5.0012 11.63 -7.80496 107 93 55
-2.40771 10.0021 -11.4789 118 87 39
8.9679 8.25539 4.79559 89 106 90
-1.30959 -0.975311 24.3003 67 77 68
-7.09932 7.26965 -7.39228 105 114 96
-1.47027 15.1792 28.2072 62 48 18
-1.90721 -9.6244 -29.4528 71 87 75
-7.72053 3.34713 -7.2608 66 78 66
-4.23834 -25.6964 3.50297 138 154 136
-3.72001 12.8857 8.2975 47 35 9
8.59125 8.72375 0.7405 94 110 96
-3.43089 -0.166267 -18.8402 67 71 63
7.7628 4.71625 13.8867 69 83 72
-1.73457 14.306 28.49 65 75 63
4.39531 8.691 -11.6509 143 126 82
-7.12536 -9.94704 -38.3717 59 65 61
-8.1129 -21.3867 2.72717 72 91 78
-6.64427 -24.9782 6.89457 57 66 57
-7.36681 3.71265 -9.77879 63 72 61
3.94709 4.45115 16.0582 71 82 72
3.24739 15.0203 25.83 65 71 59
9.53926 0.43367 -5.42942 88 102 89
7.65916 4.02269 8.70514 110 127 110
6.91246 10.1573 14.9531 65 74 65
2.2132 13.5366 -6.51965 129 90 43
-3.06383 6.24314 -14.1706 135 101 66
3.6325 4.9856 -13.827 154 132 91
-5.83463 -6.71217 4.02612 73 87 79
-7.75934 -7.00538 2.26951 64 76 66
-4.33599 -25.4242 5.30422 56 60 48
-2.06477 -2.39811 -24.4919 115 104 60
-1.41894 13.9272 11.4418 57 53 31
-8.53455 -0.51545 -1.42395 60 74 63
4.69897 6.98359 -12.6244 192 169 131
-2.50109 7.82002 18.0682 50 36 12
-8.03373 4.97381 -1.64571 67 76 67
1.36198 1.87607 16.5677 74 85 75
8.63931 6.04906 -0.0551376 64 76 67
6.48972 -8.26413 14.7739 72 86 77
-6.8688 9.30311 -1.965 61 68 55
-4.51893 -8.30352 26.4244 74 83 72
-1.47349 13.551 37.187 69 79 69
-4.71469 -0.62863 -16.4512 112 109 81
1.86851 -24.2507 -5.77052 63 78 69
-0.844694 2.53206 -18.5913 189 160 99
-7.97317 -2.54561 -0.0305862 60 73 62
2.02357 -2.69695 -19.3941 103 117 96
-1.57794 9.51525 24.2851 87 69 35
7.82935 9.19354 -2.17158 63 72 61
-8.11353 3.89791 1.50544 68 82 69
-8.00267 1.31294 -5.20679 74 88 76
9.3101 4.22895 -4.78355 78 90 78
-5.28435 -22.4894 1.68475 74 87 77
5.4491 14.2591 8.80983 80 76 56
7.60053 6.20651 9.66051 75 87 73
8.01934 2.28325 13.4754 71 83 72
4.46188 3.98013 -13.6569 156 148 106
0.740036 16.0056 -3.34308 75 44 12
2.54482 16.8317 1.87666 89 46 12
-8.03678 1.52125 -7.49937 68 80 68
8.94787 10.0798 2.80088 68 83 70
-3.68218 -1.85922 -20.5809 70 72 54
-1.37263 8.26458 21.0047 62 64 52
-0.997356 0.197269 20.7048 68 79 67
-3.47356 11.9808 9.67333 62 69 53
-6.0393 -28.0222 9.03393 68 75 63
7.45803 6.7415 14.205 70 83 73
3.42081 7.68866 -12.5612 155 115 69
-0.425854 14.817 25.0491 73 47 9
-5.94075 -25.9344 1.73527 137 158 133
-9.67418 -25.9437 6.43249 61 73 62
6.42573 -1.71801 14.5127 54 65 55
8.29103 12.2226 6.5902 61 76 66
-1.71181 2.58033 -18.7517 126 78 15
-8.61804 -0.389774 -1.68014 62 75 65
0.812847 17.6523 0.238009 108 75 30
-2.2976 -5.9076 -28.2959 100 89 65
-8.40437 4.34114 0.23564 66 78 63
-7.27756 1.23549 2.74834 69 82 69
0.353661 12.3078 17.2433 47 25 1
5.82823 -19.3248 -9.56153 64 76 64
0.652748 14.637 -5.72908 110 64 20
-5.2967 -23.592 3.09887 64 73 62
-0.47529 7.43398 26.0348 69 78 65
-2.75306 6.88608 -13.9361 141 123 79
9.55564 -2.78247 13.8651 68 77 67
8.20325 5.78811 -7.76743 124 145 127
5.43394 3.4738 15.0073 72 86 74
-2.75845 -6.72855 -29.7199 106 96 59
-4.52076 13.8057 -1.16581 57 37 3
-7.05685 -25.0761 6.98325 53 63 56
8.39004 8.94559 -4.508 97 114 99
8.24818 -3.45256 -8.654 129 131 100
-7.6554 -18.4259 2.58344 78 93 81
-0.824993 2.88862 -18.2068 106 68 22
0.078167 -0.704563 -20.1096 113 89 44
-1.0424 16.7598 29.1769 82 81 60
-1.35512 15.7271 28.9942 82 63 39
-1.39703 7.88582 21.1055 58 64 51
2.03271 10.4939 32.7093 65 72 64
0.667053 17.3441 28.7461 70 42 13
-4.68095 -3.34599 26.2233 64 56 38
-0.977699 11.3237 38.8528 78 90 80
-3.43402 8.72039 11.4071 70 83 71
4.9777 2.11094 14.9668 77 90 79
-7.65277 3.75679 -7.54994 69 78 65
6.26963 -10.522 13.4842 56 63 54
6.69197 -20.4966 -9.88716 63 69 58
7.62098 4.94102 7.43752 63 74 64
-7.3396 8.32167 -0.000225067 59 59 45
9.04398 8.59762 5.66701 65 77 67
-7.10745 -18.2855 2.88021 80 91 81
3.06101 13.8971 27.4909 67 76 63
-0.747282 12.1698 39.1041 74 83 62
8.42008 1.86702 -8.38379 82 96 84
2.48547 -1.15408 -17.8818 126 127 100
2.33504 -0.664658 -17.8073 122 105 70
7.00691 -2.35871 14.948 67 80 69
-1.76484 14.7282 27.9586 72 59 34
-4.80199 1.1734 5.12885 60 72 63
-1.95182 9.99987 25.3845 80 88 62
-1.63577 12.3784 26.0156 93 66 12
4.53404 14.8671 10.4498 67 69 56
-2.80451 -0.459019 -21.9898 125 112 59
-0.47229 16.878 -1.90078 81 41 7
7.70575 6.63764 10.9961 77 84 69
7.56615 4.6567 -10.9543 108 120 98
-4.5813 -7.41167 26.6136 74 87 74
-1.56805 -2.36763 26.1519 71 82 72
-4.55951 8.64388 10.297 69 82 72
-2.94753 9.60058 -11.4496 141 116 87
0.581795 12.7412 21.5803 89 47 5
-1.12868 16.331 32.2509 49 39 14
-2.62605 -2.04655 26.8206 72 86 73
4.45418 4.06024 15.5919 72 86 75
-3.34323 6.62889 -13.5287 141 133 100
5.17759 4.75068 15.3973 74 88 77
-4.01748 11.4282 -6.90774 106 83 32
-0.963947 -3.09505 -23.7018 116 93 42
-2.46442 8.18199 -13.0968 138 106 70
8.42368 1.99376 13.245 71 83 72
1.98774 2.68487 16.5907 72 85 74
8.44261 4.77462 11.4328 96 93 75
-8.58447 -27.4456 8.18178 67 81 69
-5.94201 -9.99926 -32.9409 59 69 59
8.22927 4.94057 10.7677 77 78 59
8.02836 2.01237 13.4963 71 84 73
-0.886566 16.1048 9.27147 54 42 19
3.14669 5.70159 -13.7722 154 128 83
0.314999 16.9119 32.4034 55 38 9
4.84325 3.7686 15.3583 75 89 77
3.40432 -19.2652 -8.15305 64 78 71
-4.31215 4.6119 9.2816 59 70 60
9.17138 -1.81278 -6.88815 110 123 107
-6.017 -1.53999 3.78107 66 78 67
3.68145 -0.0828514 -15.5115 138 144 117
6.34358 0.766518 8.77162 139 161 141
3.44307 7.5685 21.5012 65 75 66
8.26544 7.646 7.33173 65 76 66
-2.14742 2.15339 21.5554 74 88 76
-0.452438 17.8829 6.78008 61 53 43
-4.30669 5.17945 -12.7366 115 120 87
7.35221 -23.1991 -8.34673 62 73 62
3.66529 15.8408 0.625752 81 49 11
8.03412 0.411846 9.82571 154 174 152
5.72773 2.97153 14.8087 74 88 77
8.90424 -1.16061 14.3461 65 74 62
-1.98726 0.571663 23.5584 61 65 52
8.66544 -4.88844 -8.90992 123 127 103
7.24098 8.60379 10.937 77 87 73
-3.38137 1.3926 -17.7826 92 94 73
1.14397 -1.30435 -19.736 184 153 94
9.76204 0.939774 12.4182 68 74 62
-0.510666 10.3063 17.0513 53 35 8
8.24324 1.74316 13.4062 71 82 72
-7.39246 -15.7033 2.48795 76 89 78
8.96262 5.69327 -4.49455 83 99 85
7.55022 -5.81816 -4.96719 65 78 70
5.60326 -2.29163 -10.6178 146 167 147
-3.06292 8.98173 -11.925 128 104 49
-0.658398 16.6113 9.19901 64 55 27
6.74043 -24.1024 -7.51032 65 77 66
-6.23911 0.595694 -12.6848 68 80 66
-0.890675 -0.214676 20.903 68 79 67
3.11972 15.1472 -4.27284 105 56 1
3.59917 11.4247 20.0959 104 79 32
-0.071106 6.88114 24.8554 70 77 67
-3.36081 -0.604357 -20.2841 90 91 75
4.22167 14.2924 12.7903 68 52 27
-6.66427 3.35987 -10.782 128 132 106
6.80679 -2.14149 14.821 65 77 66
-7.97153 -12.5597 1.79903 70 83 72
-4.87382 10.6539 -6.94061 124 97 51
-3.8057 5.87126 16.5756 69 79 64
8.98588 0.509312 -7.05979 121 139 120
7.76172 4.43911 13.8925 70 84 74
0.997189 12.8349 16.7921 59 41 11
0.369755 17.1377 10.9446 52 37 15
6.75435 6.58352 -10.6377 81 89 76
-2.43965 10.7965 11.988 58 64 49
-4.35712 -2.63227 25.9907 63 75 64
-3.73975 -5.26657 27.8791 82 97 83
-0.0334854 2.47476 -17.6967 131 106 65
-6.43342 1.60257 -11.6613 75 88 75
7.74477 4.14033 13.8731 72 86 76
-7.00148 8.79546 -6.65561 119 135 109
2.23841 15.5371 13.03 67 64 49
8.21286 12.3092 4.64969 90 112 97
1.71885 -0.293659 -18.1614 110 91 48
8.54389 11.3464 2.5328 80 94 81
-4.5998 1.19697 5.32948 58 70 61
-3.32603 -6.10151 27.9003 84 98 87
-2.2891 -10.5048 -29.4688 76 90 80
6.92302 -20.9036 -11.1376 142 136 102
0.658808 18.5175 7.50004 57 42 16
-6.46943 6.77122 7.24068 68 82 71
-3.13001 7.87921 14.0325 68 67 52
-3.24778 -2.38875 4.88303 62 73 64
-8.46701 -10.5087 -0.743103 115 138 119
-2.38475 12.4231 10.4467 57 53 38
-1.5718 -0.932203 -22.4234 125 99 45
-1.73798 5.29627 -15.9733 119 91 50
3.56061 2.06027 15.6261 73 88 76
0.353924 2.8898 18.3001 68 80 69
-0.568363 -8.66579 -21.5357 61 70 62
7.47456 13.9744 3.12106 75 85 73
-5.02337 -26.6728 7.49772 80 91 78
-3.51567 -1.86697 4.95029 61 73 64
-2.54914 1.27739 -19.9678 125 98 56
-1.24792 0.323723 21.9106 67 77 67
4.92024 9.92902 18.396 71 74 63
-2.52798 10.2813 32.1694 63 74 61
4.64177 1.89806 -13.5362 110 128 109
1.35208 -1.86609 -20.0641 124 107 67
-5.27689 2.5694 -13.5674 131 122 77
3.2254 13.5158 25.2719 61 72 63
-5.5516 -3.24663 -12.7095 71 86 73
5.42933 0.765739 -11.7822 113 131 115
-3.75536 6.40179 10.855 62 76 65
-0.826988 16.0256 27.3544 85 64 43
3.91186 4.72808 -13.7567 159 142 104
-7.02939 7.78333 4.4541 61 71 59
8.14626 4.2869 9.71077 127 134 110
2.83336 2.99499 16.153 75 88 76
-5.77796 -21.5645 3.03496 61 70 61
-0.934113 5.88924 21.6632 65 79 67
3.53724 11.9364 24.489 70 73 63
2.06161 13.0037 21.6274 89 56 5
-3.11397 2.63672 -17.3407 110 105 77
4.80836 -20.7307 -7.97216 62 72 61
0.853222 18.6185 5.3916 81 57 16
