ply
format ascii 1.0
comment Created by Open3D
element vertex 1383
property double x
property double y
property double z
property uchar red
property uchar green
property uchar blue
end_header
2.13827 17.5806 5.89839 65 61 39
-7.97909 -1.35169 -0.129242 58 71 62
-1.66581 9.49517 -12.1612 122 88 54
5.62464 10.8541 16.3878 71 71 58
-2.78923 8.6317 14.919 57 43 20
-7.72667 -14.4227 1.7879 70 86 74
-0.7346 9.85475 18.4381 65 40 10
5.06379 14.6302 -1.33567 78 69 42
8.00663 6.88858 -8.14933 131 145 123
-2.70293 8.98053 -12.2289 129 93 42
-0.888002 13.6744 38.0803 68 70 62
-3.4597 2.74152 20.5514 69 78 65
8.21836 4.5011 10.0033 107 110 86
-6.12325 11.6371 -0.789955 67 75 64
-5.15046 -5.86696 -22.076 64 77 64
-0.0120964 11.7039 21.3917 77 71 51
-0.354286 5.8372 -15.39 176 141 92
-2.67145 -6.37981 27.7925 84 98 87
-2.98397 8.37671 14.932 51 38 13
4.63466 15.024 -0.491224 76 55 12
-4.45706 -4.38478 27.4135 70 81 67
-7.18739 7.65514 -3.75541 67 79 67
-5.83486 1.80087 -12.988 103 116 100
-0.107309 18.6227 3.67883 63 44 16
-3.92273 13.1397 7.56853 58 62 48
-3.28263 1.82775 20.9854 66 75 61
2.54905 1.86803 -15.7928 135 117 77
2.41455 7.99329 -12.5801 142 95 37
-5.34576 -1.82265 4.1032 65 77 66
-2.60899 14.321 -4.15294 82 57 15
-0.726772 9.75081 17.4027 54 43 23
-3.61928 0.620388 22.3595 51 41 19
-5.21395 -3.00637 4.29955 63 75 65
-6.43921 -12.5523 3.13743 83 99 90
6.16307 -17.2341 -10.7895 75 82 75
0.769634 17.5212 10.5988 61 45 23
-1.23714 17.0915 0.892334 60 38 5
-3.42143 7.34811 15.3265 79 78 61
-3.35852 -0.356182 24.9294 59 50 36
-2.37441 7.35311 19.1096 61 61 41
2.17111 7.86684 -12.7114 162 125 70
2.4598 16.754 31.3564 65 57 37
5.91245 12.4802 14.4822 68 74 60
3.63855 1.38374 -15.0657 132 132 100
5.97887 -1.27309 13.6687 50 58 49
-3.19016 0.392963 5.94064 60 70 62
1.81861 11.9353 -9.00144 101 62 17
8.93232 9.51491 3.72425 69 79 70
8.69062 8.24607 0.836189 95 111 97
-2.73685 8.98116 14.1959 59 61 44
-5.20331 5.89454 9.14571 65 77 66
-5.65038 -8.52971 -41.0376 69 76 63
-4.83657 -4.40874 25.6928 140 102 63
3.20788 11.2222 16.8623 72 64 49
0.561077 7.66867 -13.701 147 115 71
-11.3564 -7.4052 -51.7566 53 65 53
3.46552 12.888 23.1366 98 98 82
8.48186 7.15055 -0.893234 94 112 96
1.12876 16.8441 27.3003 99 56 16
-3.73019 3.04811 -14.9943 103 106 86
-7.12273 -8.06751 -42.4152 60 67 55
-6.64427 -24.9782 6.89457 57 66 57
-1.62906 13.1636 29.6809 79 77 64
-5.55026 -8.13837 -35.3237 62 66 55
-2.04802 15.9811 0.500889 58 39 5
-1.14663 -2.83916 -23.6585 116 93 45
-3.92167 5.46269 18.9954 66 75 65
-0.889616 -3.65874 -24.1615 114 97 52
-3.76277 0.226795 22.8298 62 51 30
6.39193 10.505 -7.11381 105 114 98
0.0123672 18.4581 6.86502 52 30 8
6.46393 -12.764 -11.1972 149 154 124
-2.03148 13.352 27.8302 63 73 61
9.56195 2.43794 -4.43909 84 100 87
-1.23699 -5.13451 2.97501 70 84 72
-7.10375 8.09009 -3.29696 80 91 78
2.26122 15.4293 13.1142 68 65 50
8.36124 11.4012 3.85653 66 79 68
-1.79241 9.19927 -12.4039 122 75 20
-8.73048 1.70824 -2.7321 63 76 65
-1.74942 8.51365 22.7898 58 69 59
-3.66214 14.3137 3.05774 52 31 0
-8.17365 5.29879 0.66798 61 75 65
-8.21016 3.89079 -4.52636 78 91 78
9.17138 -1.81278 -6.88815 110 123 107
-1.26625 -3.19267 -24.2214 112 94 52
-2.39919 2.41986 8.45605 58 69 60
3.10567 11.9143 15.99 67 68 53
-3.13903 14.8304 2.91803 47 34 2
-11.1695 -5.80214 -52.6159 60 69 60
-5.08773 -6.48493 4.08601 73 85 77
-2.12632 -3.36916 -25.7705 115 94 51
-4.5796 11.1745 9.34036 64 71 61
-3.0282 6.72789 13.5441 58 65 54
-6.32384 10.7333 -1.53889 66 74 66
8.47549 2.12182 -7.93128 75 88 75
4.54823 10.4308 16.8075 70 62 40
-1.24661 0.482489 -20.8117 130 95 41
1.179 16.7298 27.0616 93 63 27
-7.18261 8.64008 -0.486488 58 58 42
-2.84049 5.28947 20.1059 73 85 74
-1.85998 15.5047 6.40393 59 53 35
-9.78849 -26.3034 7.03836 60 72 61
0.307848 14.3068 14.1718 55 44 22
-1.49914 14.1445 31.2695 71 82 70
-3.22075 13.0838 -4.80521 103 76 35
-1.69563 11.1858 13.4909 63 71 62
7.29078 3.30957 -11.6774 136 150 132
4.19523 -0.347855 -14.7682 98 103 90
-7.98923 -1.18066 1.42018 70 83 72
-1.98258 10.0729 33.8961 65 78 65
2.57506 -22.5673 -5.95223 60 72 62
0.589493 16.3557 34.5141 70 60 40
-8.70461 -24.7786 1.86125 145 174 150
4.84614 9.28577 18.9312 69 76 64
-5.61531 -8.80891 -33.67 60 67 54
1.07283 -1.98769 -20.3997 123 96 51
-1.35314 8.55357 19.7691 53 44 24
-1.36102 16.6072 30.5 52 35 7
-7.06162 4.67034 2.26245 68 82 70
-3.89438 8.48769 10.9792 68 81 70
6.07591 12.5635 -4.06309 102 123 110
-5.45504 11.4963 5.17483 59 64 48
-1.27594 15.068 36.4627 54 49 33
6.615 13.4568 8.77905 87 79 52
2.27212 16.6217 0.0372152 100 58 5
-2.76476 6.45028 19.7823 59 55 39
0.714046 2.86552 -16.6291 104 81 48
-1.10362 15.3952 27.1229 76 63 36
-8.35051 4.01211 -3.7835 88 102 87
-3.14438 14.6092 0.696232 69 47 8
-8.4251 -11.0259 1.54986 71 86 75
4.29806 14.8296 11.3511 69 65 46
-4.57099 -4.84059 27.4305 70 82 71
6.99768 14.46 5.65347 89 73 41
3.51037 6.02888 -13.6182 169 131 84
-4.96305 -8.13659 26.0729 66 78 66
-1.08372 7.18721 -14.2471 126 83 22
-4.82387 -4.60658 27.0496 69 81 69
2.3133 -19.9402 -9.24165 60 69 56
8.46909 5.02581 -7.05773 127 149 131
-2.35443 11.6798 30.4474 58 68 54
-5.1257 -7.79533 25.9751 67 79 67
8.54994 8.28918 -2.24557 60 66 57
-1.11676 17.4107 1.97738 64 39 3
-1.5157 8.90318 35.4537 66 72 60
3.17752 14.8551 13.0712 67 63 40
-1.45855 -1.19232 6.02888 62 74 65
-7.0397 4.53618 -10.1383 126 140 115
8.07132 10.3379 0.527431 103 121 103
-9.70494 -25.7142 5.6195 68 82 72
-3.78629 -5.86921 27.691 75 86 74
1.00343 15.6586 -3.98341 88 45 4
-3.84962 14.0019 3.84816 50 29 1
-3.10738 0.979687 22.5302 52 44 23
-0.705334 10.2858 16.6862 51 33 2
5.1322 15.2762 6.50804 94 79 43
-3.02106 14.4979 -1.38615 71 46 6
4.49888 8.70398 -11.5949 151 135 92
-3.13034 14.6107 -0.432854 75 48 5
-0.122616 15.951 26.1196 75 49 0
2.1976 15.1946 13.6112 65 62 46
-8.3235 -18.8683 1.90073 73 87 78
-8.14441 -27.5699 8.36542 71 83 72
0.407784 17.4298 -0.370278 104 78 42
-1.53176 8.46246 18.9672 57 47 26
0.779909 16.3048 26.3058 93 59 7
-0.637995 11.6576 39.1629 76 91 80
-3.1655 7.75135 14.269 71 69 53
-6.39294 -24.6348 6.26593 59 70 60
-5.33094 12.3288 3.48214 71 71 48
8.76242 10.2223 4.80211 92 109 94
6.26793 12.5577 12.9141 62 65 48
-7.08979 8.62708 0.0821476 65 66 51
-0.301748 11.9377 39.0537 78 89 75
-4.94614 8.03979 9.8746 65 78 66
-2.63532 4.92043 -15.8834 132 98 52
1.99018 16.3941 26.3729 94 62 15
4.71207 14.8808 -1.56604 83 82 61
-5.1845 -7.92258 3.35182 78 88 80
-0.974361 15.2191 10.6377 54 38 8
-0.74247 -0.132133 -20.9299 101 88 60
3.74683 11.7662 21.605 61 64 48
-0.698664 -4.92039 2.89682 72 85 74
-4.24821 12.4417 8.25927 49 39 17
0.946289 17.4337 0.0918789 127 95 59
7.95995 7.18513 13.2994 68 77 66
0.671539 1.50375 -17.8979 161 128 87
1.49714 15.7166 34.7009 60 54 34
8.10881 9.3418 -4.95071 106 119 98
-6.84031 -8.23364 -41.2007 64 69 65
7.19931 -5.84238 14.9968 69 81 69
0.008255 18.4994 6.68488 52 32 14
-5.54338 11.365 5.78609 62 57 34
-4.84413 5.02975 -12.24 140 131 93
2.14536 17.4406 28.7502 75 67 46
-0.952364 13.555 38.2019 66 66 58
-3.42879 -0.0239964 5.62801 61 71 63
-1.61844 9.43579 22.9631 63 61 43
-7.03107 -8.29012 -41.6358 62 70 57
-1.45056 14.8365 9.17789 53 37 9
6.85307 -6.8918 14.9413 70 82 71
8.08296 -8.30873 -10.3181 136 141 111
-1.95742 13.4019 35.8983 55 42 17
8.99737 -4.21863 -8.13181 108 115 94
-1.49682 13.9374 31.2815 73 86 73
-2.6977 8.92812 14.3454 57 60 43
4.74358 11.6227 -8.26805 87 69 36
3.34452 8.12956 -12.2291 126 93 47
-5.7999 -8.2454 -37.2156 69 74 59
-4.73126 13.5493 -0.324429 52 42 19
0.335155 13.8318 14.8039 54 42 17
4.44377 5.445 -13.4288 168 141 89
-6.4352 -22.8859 4.16636 63 74 66
-3.15728 9.1195 -11.699 121 94 46
8.6501 5.87059 0.165856 66 78 68
8.16623 4.67735 13.508 67 79 70
-4.88451 -1.66011 -16.8528 114 122 93
9.25576 -5.04517 14.2138 73 80 69
-3.33195 10.3164 10.9621 63 69 57
-0.996899 15.2598 10.0512 58 53 37
-2.1245 -1.43395 -23.407 128 112 62
-4.15023 13.3075 6.62748 46 29 0
1.23224 17.9953 2.97088 67 57 33
1.33566 12.9152 21.5863 90 50 1
-0.105751 10.5663 18.7498 65 52 37
1.08563 14.8228 14.3002 60 45 26
3.64603 -0.400208 -15.536 121 140 120
-3.90897 -3.91785 -25.1895 73 76 62
-8.29737 -25.4743 6.70349 62 75 64
0.540745 14.0499 14.7579 49 38 17
0.323441 16.4079 33.9955 54 35 5
-5.04375 -8.54824 -30.2927 120 130 116
2.04306 17.4364 30.5169 66 53 31
-2.09221 12.3394 36.8852 61 66 52
1.24286 12.2923 -8.77873 89 51 3
-1.01338 13.7473 -7.63325 106 60 16
9.40675 -0.606697 13.6448 67 72 60
5.60266 -9.65049 13.327 77 77 42
-8.30992 1.78805 -1.55585 63 75 64
8.24946 1.2028 -8.98 79 94 80
-2.00972 5.07567 20.793 73 84 72
-1.78839 -3.43207 26.9311 67 79 69
-5.70654 12.0819 -2.52452 114 107 75
-0.845884 9.59786 17.9448 63 37 5
-4.05835 -26.2316 6.1628 61 64 52
-1.8427 12.4757 28.3216 64 72 61
7.43702 8.02188 11.4284 73 84 70
-4.34221 -6.11595 -27.963 61 68 55
2.77863 16.3394 26.5271 92 82 58
-2.38351 -1.41973 26.3755 72 80 67
7.71064 13.7221 5.97439 80 82 67
-5.01219 -3.35744 -17.9005 78 85 70
-1.98349 8.2555 18.125 49 42 20
-8.02585 -7.47099 -45.1994 57 63 53
7.33671 0.335981 14.5243 69 78 66
-1.7384 13.7784 36.4382 54 43 18
-3.55608 -26.9938 6.65682 61 66 53
-4.6918 -6.29136 25.2149 140 127 87
8.81033 9.02922 4.41521 65 77 67
-3.25678 -0.531256 -20.6653 77 77 59
1.07423 6.96659 -13.8696 141 109 59
-6.97933 8.52506 0.680634 62 75 62
5.20254 15.2531 0.753752 91 68 32
0.689659 10.1553 -11.5186 130 81 24
7.78884 6.97012 12.0067 86 94 75
-8.11111 0.874866 -0.88797 64 78 67
-3.00387 -7.85326 -31.7736 100 91 59
-5.17689 -6.37836 -21.79 62 75 64
-6.19873 -8.2489 -42.677 70 78 66
-2.72848 10.5426 29.232 61 75 61
-4.53094 -5.63533 -24.2561 131 128 100
7.65841 -8.07093 -10.6827 143 157 135
3.16146 12.0703 15.6548 66 62 40
-7.61497 6.13062 -5.55017 71 81 68
-2.51993 9.3295 -11.9589 126 88 31
-3.26115 10.9756 -9.24768 87 65 36
9.59231 3.21844 -4.18071 89 104 90
4.8203 14.1725 11.9644 67 59 35
-7.8768 5.69291 -2.84532 62 70 56
0.108917 12.097 16.7917 50 35 3
-7.43009 -17.6585 2.72125 73 89 77
4.81892 13.6729 -5.36859 147 114 64
2.09611 16.2154 26.0035 87 54 4
-5.62549 -21.4777 2.76274 66 75 68
2.24207 17.2767 2.47882 80 61 21
6.18686 11.8784 15.0032 70 75 63
5.86345 14.0194 -0.639491 112 104 75
1.68896 12.644 17.8278 68 53 24
-1.72063 -3.94992 -25.8322 105 100 63
-6.51803 2.65251 3.14096 67 81 70
-2.58073 5.19223 12.5786 55 64 57
5.82823 -19.3248 -9.56153 64 76 64
-8.05799 -7.86807 1.47402 68 83 72
-2.92563 -0.222015 25.0237 57 51 37
1.56054 10.773 -10.4075 113 74 24
-6.95041 8.96712 0.118595 64 67 53
-8.54058 -9.38567 -43.9051 57 66 58
8.37615 7.96442 -5.51283 87 100 85
4.85369 15.5397 1.27532 90 71 39
0.298956 18.3093 8.17244 54 40 12
0.258617 13.0936 15.5593 57 44 22
4.45858 9.21906 -11.2749 149 124 82
0.0926628 12.1407 -9.48766 100 62 21
4.43708 -22.4404 -6.80619 61 71 61
5.56956 12.0845 15.4093 69 66 43
0.549965 14.6256 24.2994 88 57 7
-1.4571 13.782 33.3834 61 64 51
-7.28127 -8.98914 -40.7458 57 68 56
4.13412 15.161 -2.03627 76 68 50
-3.84308 -2.75022 27.0272 67 73 60
-6.91612 6.77085 4.65277 59 71 60
-2.32015 1.53505 21.9838 69 79 65
-5.1108 -4.78835 -19.4331 82 92 77
-0.761713 10.6222 15.7524 54 51 39
5.13054 10.0538 17.176 73 75 66
-1.10336 2.55141 -18.6524 122 93 21
-7.7152 -3.98115 -3.28486 60 73 64
-1.91859 12.0687 26.1867 109 89 46
1.53724 15.3471 -4.29924 95 51 10
-1.51736 16.7757 2.75303 55 36 8
9.11252 7.26231 -2.85973 73 85 74
-7.53426 5.3266 1.71261 73 88 75
-0.469143 1.47598 -19.2361 105 91 53
-2.12089 8.77915 -12.6794 126 96 41
0.477188 16.4263 34.0837 59 45 20
8.32798 6.76831 -7.75404 137 155 134
0.307083 12.4031 16.8924 44 28 2
-3.14896 -7.01519 27.6171 80 93 81
-2.98723 6.96584 18.7017 56 53 34
2.94518 -18.169 -8.95293 55 67 57
8.57539 10.895 4.59365 103 125 107
6.5355 11.0346 10.6835 66 76 67
-2.37347 -9.49753 -31.7834 80 93 79
-0.922886 10.0507 21.3224 63 50 35
-2.01051 12.6041 26.3675 91 78 49
7.21237 0.0762711 14.6203 69 80 68
4.12915 11.2217 20.8734 64 60 35
-6.31448 -27.7754 9.1427 65 76 67
-0.207966 15.9971 11.5218 56 47 21
-6.52066 9.22466 -7.01844 119 113 74
-2.74505 11.8696 10.746 52 43 20
5.94278 10.9016 -7.47483 103 86 62
-5.2163 -8.80579 -39.3453 69 78 62
-3.17769 10.984 -9.44706 122 99 66
-2.7471 -5.89846 -28.93 112 100 62
-0.314987 8.35638 35.6432 80 93 82
2.92904 -19.2846 -8.44936 51 62 54
8.46201 8.58571 -4.5496 87 103 89
-2.90482 13.1874 -5.9207 96 75 38
-0.575596 9.00895 -12.6355 125 80 22
-1.23954 17.0053 5.09256 60 37 5
-6.31409 10.0092 3.3686 60 64 51
-4.7555 -6.49491 25.1842 138 127 86
-2.20513 13.1023 33.3266 53 43 16
-3.20953 10.1287 -10.3991 112 92 59
-6.75705 -6.56382 3.78359 76 89 78
-2.71078 3.06569 8.64694 58 69 61
3.14281 11.9591 25.3282 76 86 73
-5.69433 12.0067 0.909042 59 61 44
-2.86065 -5.02577 -28.1361 134 122 80
-4.33243 13.8908 -0.909916 51 33 4
-5.69092 -23.8204 1.47912 117 131 116
6.53883 -5.5329 -10.7108 148 139 96
-3.18875 9.68757 11.4782 65 74 63
7.1289 11.1211 -3.72953 91 101 83
-1.76702 10.9867 13.5229 63 66 60
6.34715 12.4005 12.9424 62 71 58
-0.515432 17.3419 8.23338 62 49 32
-7.07546 7.20284 4.37222 56 68 56
2.6318 16.2084 11.8475 67 57 31
-4.79904 -4.79828 -21.9558 76 81 63
-8.31054 2.8812 1.42504 63 75 64
1.79102 12.7163 17.1553 64 49 19
8.07247 -4.50128 -9.32334 145 128 85
-3.24654 1.09242 21.758 63 58 40
-6.38979 1.69063 3.21041 70 83 72
-2.21284 -1.91462 26.5478 69 82 70
-0.874214 14.3011 12.1247 62 54 28
8.37451 6.66224 -1.41421 63 76 66
-1.16524 12.9591 38.519 63 69 54
7.43128 14.0197 6.44576 70 73 57
3.37473 12.2827 15.1747 65 58 32
-10.1669 -8.27673 -49.2893 60 72 62
-1.97691 11.1419 32.8673 64 76 68
-1.67854 13.1633 30.7591 59 67 54
-7.79173 -19.8186 2.63906 79 93 82
0.92659 -4.88379 -22.0829 83 99 85
7.29789 8.80754 13.8472 65 75 66
-4.93851 -3.19881 -17.9934 87 95 78
7.60737 0.311836 14.4489 66 74 62
8.83244 9.08294 4.25508 65 77 67
-6.02386 -18.3803 3.00985 76 91 80
-8.97895 -6.94266 -47.9173 59 69 58
-2.89286 13.351 -5.5057 73 54 16
-0.335648 17.2572 29.3105 68 37 0
0.943066 8.01494 -13.2549 208 178 137
-3.00093 8.55037 -12.4138 129 98 51
0.745342 12.4702 20.8128 73 38 7
8.56477 -6.9392 -9.72125 141 126 82
4.0666 10.5991 18.6124 75 49 3
-0.201122 10.9715 16.3807 58 62 50
3.37613 15.4251 -3.52559 92 57 29
-8.34761 2.54852 -1.97588 64 75 63
-2.94617 8.38208 15.3486 55 42 19
5.57675 14.9348 0.292147 89 74 31
4.37713 12.1283 -7.10403 92 67 32
-1.46447 8.52732 19.1158 58 52 32
3.53085 16.403 6.55908 68 55 29
-2.01933 -0.976803 -22.7587 118 94 43
3.71108 11.426 22.3672 63 74 61
-0.968349 13.9093 -7.40639 96 55 16
-2.20533 -8.30569 -31.0477 86 90 61
4.45754 15.0863 -0.577656 77 56 13
-0.910892 -6.71426 -27.4066 117 116 85
4.89428 11.5226 -8.17321 76 63 45
6.87342 -9.93185 12.3565 90 89 65
-2.55 -0.823044 -22.6238 110 96 60
-4.9478 -24.9949 5.39481 57 62 50
2.27624 9.77116 -11.0556 117 83 36
-4.17168 -8.25701 26.6611 75 88 78
-2.08798 2.77819 -18.4834 112 82 3
-6.96857 8.88413 0.226913 63 70 53
-8.34138 -22.261 2.27868 70 90 76
-1.15147 -3.71708 -24.5918 112 96 56
-4.09248 5.0976 -13.1692 112 104 82
0.722076 11.7948 -9.7096 108 72 14
2.41552 12.5001 -7.53865 82 55 24
-0.211887 1.8345 -18.6215 110 93 52
-5.46754 -8.84918 -32.6284 61 68 57
3.37486 13.6936 23.7664 84 75 54
0.411135 16.9144 11.23 57 41 14
7.85131 7.5443 -8.1635 135 143 121
-3.92649 -0.791916 -17.6785 131 125 91
0.960209 7.0725 -13.8489 137 102 49
2.82705 16.9457 7.07936 65 58 33
8.08604 9.83113 -3.80261 59 60 45
-0.419872 2.26566 -18.5001 96 69 35
-2.13705 3.43062 20.9669 81 93 81
-4.83386 8.15067 -9.62757 119 104 67
-2.07802 9.96626 14.5104 56 44 23
-5.57822 -0.876934 3.84526 68 80 69
2.48354 9.03624 -11.8478 145 118 72
-5.24181 -8.76873 -31.2851 62 69 61
-0.748997 12.1712 25.1625 99 94 66
-7.45697 3.96131 -8.21929 76 86 74
-6.96832 3.49832 -10.4702 134 142 107
-0.424355 18.4688 4.0227 81 57 30
-6.14565 -14.6766 3.06158 79 94 84
4.25173 15.3746 -3.53525 74 53 13
4.69315 13.8885 13.1545 64 57 38
-2.29017 8.60244 -12.7707 119 85 48
2.54762 6.00706 -13.6885 154 120 58
2.35703 17.2804 8.41294 64 57 34
2.09045 17.7476 6.99524 63 59 31
7.62028 7.42667 14.0348 69 80 70
-7.69291 -3.01331 0.717045 56 68 58
2.79378 15.8239 12.2638 67 66 50
-2.33938 9.82156 14.1015 53 39 12
-1.95765 16.054 4.97777 51 41 10
5.59414 8.69336 -11.0308 124 121 95
-11.4752 -7.2582 -52.4865 52 60 53
-3.11599 7.57519 13.3123 61 68 56
-2.28407 11.9058 30.6229 60 69 58
-6.5353 9.65861 4.20044 83 82 57
1.66965 13.0813 21.766 95 58 20
-1.39074 15.8731 7.53633 59 56 39
-0.48119 13.0327 38.6978 71 77 67
-3.18595 0.389133 -19.738 96 95 78
-6.13193 -12.1881 3.11063 81 96 86
0.92569 16.7937 27.2639 88 47 5
-3.24723 6.3785 12.0123 60 74 63
-7.25345 -8.12822 -42.5824 59 69 57
-8.07845 4.72722 -2.03658 64 72 61
0.510403 13.6008 23.0994 83 47 1
1.16433 17.555 31.008 63 47 25
-0.874063 9.61398 18.4621 54 36 7
-2.72612 10.6985 26.9588 93 94 71
-0.842367 5.86945 21.754 65 73 66
8.1749 -3.77343 15.1664 66 77 66
-2.79388 3.47749 -17.0658 125 112 69
-2.95 8.17037 16.7508 50 34 9
-8.2867 -8.22089 -0.0446968 86 106 93
4.83146 14.9705 8.43551 70 65 47
-1.05564 -1.26301 6.14029 64 73 65
6.04842 0.36821 -10.9145 139 157 136
0.472565 18.617 3.42289 81 48 4
0.0157127 6.13372 -15.0106 164 131 78
-1.11085 9.89069 16.6165 50 33 2
-4.32025 13.0801 -3.25251 97 67 18
2.9155 -17.8985 -9.09523 60 71 59
6.05693 14.7336 1.14923 73 74 58
-5.12523 -5.6665 -21.4071 66 79 67
-7.65481 -18.484 -0.106422 122 145 129
-3.87193 -8.05409 -34.3146 102 102 74
-5.02098 -0.837006 -15.8883 106 110 87
1.52293 17.8336 9.19032 63 55 37
6.53436 11.8894 -2.84996 64 79 70
2.73739 16.7244 31.1392 65 62 49
-5.49132 3.65224 -12.4474 142 132 99
1.66232 16.7327 27.0172 85 58 12
2.29445 13.3119 22.0934 107 88 44
-4.69314 -1.15818 4.32334 68 79 69
-0.471123 13.3458 38.4853 65 69 57
-0.958582 0.432693 -20.6498 119 92 37
-5.02016 13.2666 -2.32947 115 89 38
-4.85052 -7.00945 -30.5455 63 65 52
1.11787 16.277 33.9997 64 51 31
0.763206 17.9243 0.892063 72 56 26
-2.47961 15.5507 3.90399 56 30 0
-10.6345 -27.8313 7.11033 70 85 73
-6.14229 -10.3974 -33.4174 61 70 60
-6.61272 -26.0224 8.26369 59 71 58
-8.98258 -6.65853 -49.6738 59 68 53
-0.695042 17.2893 30.1163 51 43 15
-1.34188 12.4262 38.6255 67 70 55
0.868208 17.3881 10.9233 59 43 15
-8.38562 -29.5031 8.29301 59 70 60
1.47508 16.7071 26.9615 87 61 24
-2.61631 -0.787788 25.8902 64 74 58
-4.1929 -2.621 -20.0321 83 80 54
-3.03809 6.21505 19.6166 58 55 37
-2.9614 8.50641 14.0163 62 66 49
0.754698 16.4685 33.8356 63 52 36
-3.67813 -8.90179 -36.0139 90 105 85
-3.8195 -8.72285 26.6504 73 85 74
4.08352 13.3254 13.9505 68 62 42
-1.45133 4.68723 -16.5456 126 75 4
-0.681938 11.0659 22.6055 79 70 48
7.62139 8.47533 -7.2731 82 76 61
6.57625 10.6705 10.6114 65 76 67
1.73076 16.4397 26.2914 86 55 15
-0.599369 10.1009 20.0218 75 53 18
-5.08059 1.89381 -14.0045 114 116 85
-5.10854 -26.4325 7.36023 66 75 62
7.04412 9.6716 -6.63287 111 123 111
-2.60236 14.9002 -2.02663 74 52 8
-1.29196 13.9927 33.3871 60 65 54
-9.27596 -6.61022 -51.2019 87 96 82
-1.13567 -7.54539 -28.3529 105 109 88
-1.80756 -3.7823 -25.8005 104 96 57
-1.23054 8.21401 25.7869 60 72 60
-0.645821 17.1478 29.4654 52 31 3
10.0052 0.241043 11.2353 98 110 90
-4.96272 13.1755 0.369713 53 47 25
5.05476 -4.7677 -11.13 166 182 148
-2.32397 3.57378 -17.3698 118 93 39
-2.63407 2.2726 21.32 74 83 71
1.91003 3.10764 -15.4193 175 150 97
-2.73423 12.574 9.77898 64 73 62
-3.05752 3.2602 8.56889 55 66 57
-0.386372 12.4016 23.6289 81 83 68
9.57551 4.27877 -3.52355 91 102 87
9.57526 1.22537 -5.00074 88 103 91
3.06697 12.5932 25.5963 70 81 70
8.80874 6.9304 -1.89633 62 68 61
-4.57946 11.4274 -6.23296 111 91 31
-0.735847 9.8735 34.6432 74 89 77
-8.11205 5.51054 0.95694 71 85 73
-6.48977 3.9367 4.50263 67 80 68
1.5958 16.5115 26.458 80 54 19
-7.67507 -5.75154 -0.69989 69 85 72
-1.94411 -0.245392 -21.8075 134 103 52
-1.80815 10.5192 14.1612 58 56 38
7.72746 9.43354 -1.85865 82 96 84
5.88584 15.3403 3.59772 79 63 24
-1.39423 13.7762 -7.56306 103 68 15
-4.16353 9.24685 -9.43438 117 104 71
-1.30988 17.2086 1.41975 75 44 5
-2.00883 13.1443 27.775 65 76 64
-1.31416 16.2391 7.31297 49 36 12
-2.00517 9.54725 25.414 66 68 55
-5.29925 -9.68789 2.7707 75 85 79
-1.35288 8.44718 20.9418 62 66 55
0.615536 17.8881 9.88477 61 54 38
-2.81678 -3.25477 27.5484 72 82 70
6.529 12.3289 -1.87792 83 94 78
-2.51363 12.4572 10.0852 62 70 60
-4.35219 4.73908 -12.8849 120 115 87
-5.20892 -23.7798 3.22101 61 70 59
7.09561 13.937 7.23473 68 78 68
3.30395 13.1751 22.7892 99 95 68
-6.11154 -8.99998 -35.8596 62 70 58
4.82962 12.1269 -7.16872 94 59 21
-3.24502 14.6851 2.44548 61 34 3
2.90705 14.6753 -4.88673 120 81 43
-4.98701 -8.46625 -30.4532 64 74 62
-6.00289 8.03117 8.85286 71 85 73
-3.7495 1.29459 20.6447 65 71 59
3.5364 3.44992 -14.4229 145 120 94
-1.69788 0.925644 -20.5748 157 129 87
-6.90527 -8.69133 2.94861 75 89 78
-6.83396 10.0031 -5.3515 69 66 50
-3.6215 -1.34851 26.0578 59 56 43
-7.14792 -17.4318 2.84989 72 88 77
-4.48419 8.04274 10.4555 70 83 72
-5.63382 8.42959 -8.54744 118 90 44
-5.72925 -9.48379 -32.5433 60 68 57
-4.40177 1.22316 5.54436 60 72 63
2.05889 16.6225 26.9268 85 58 11
-0.861034 15.2448 11.0333 59 50 24
-7.52892 7.98414 0.29686 59 62 45
-0.1558 13.551 23.579 59 33 4
8.04619 9.85587 -4.53856 87 93 75
-1.97908 16.156 3.75773 61 42 7
-7.13323 -14.7257 2.69337 69 83 73
3.8436 10.7386 18.6326 82 51 7
0.0589104 15.2449 25.221 116 77 24
-3.17114 8.05363 15.0576 70 55 25
1.5643 -1.21531 -19.1472 127 105 64
-4.64967 -3.70902 4.45067 61 75 65
-11.2089 -6.87391 -51.4942 48 64 56
-10.1494 -26.0983 5.0085 86 104 91
-8.76129 1.6238 -2.97178 85 98 87
-7.61419 -6.6041 2.63515 65 78 67
-5.91271 -24.4713 5.79284 61 70 60
-4.16432 13.248 -3.1413 153 122 68
-6.76056 -25.352 7.49502 55 68 57
-6.58317 -13.5012 3.03471 83 98 88
1.33682 -24.306 -6.86293 64 76 66
-9.26723 -7.39301 -47.6761 53 66 57
-0.788551 9.95108 -11.807 129 81 25
-1.84831 16.2037 4.22941 52 33 2
-7.3807 3.88539 -8.79837 75 89 78
5.54849 12.9278 14.1637 68 54 32
-3.26758 11.1947 -8.6765 107 90 60
-8.45087 3.85371 0.182095 67 80 67
3.42214 11.8675 20.5343 92 67 17
-2.42183 12.0573 28.9176 55 53 31
0.570919 15.3685 -4.74349 99 54 0
4.72138 1.59797 -13.4309 107 126 109
-0.666908 15.2644 11.305 59 45 20
-7.85562 -2.52343 0.315895 62 75 64
-7.76416 6.25183 -2.06987 72 80 68
-0.0235882 9.38755 35.0958 73 87 75
-1.59615 16.1622 6.47004 63 53 36
3.37082 15.4971 -3.30755 87 61 28
-7.83473 -7.3479 -46.775 72 83 69
5.45054 14.3705 -4.45697 120 104 75
-3.92481 13.961 1.18666 55 34 4
-6.75185 -19.3527 3.21181 78 94 83
-5.02358 -6.12249 4.29247 74 87 77
-2.96648 14.8864 1.25837 69 48 9
7.80218 4.38931 9.05793 106 121 103
-1.80441 10.049 -11.6712 111 77 21
2.15226 16.5497 26.7905 81 55 11
-2.54548 9.87384 12.4381 59 68 56
-1.4488 14.4071 36.1567 58 56 37
-1.56809 14.8336 32.1805 70 80 70
-4.97374 1.63275 -14.3352 142 137 103
-5.80957 -10.6643 -32.3668 58 68 58
-7.46194 -21.3483 3.22656 74 86 76
1.13313 13.0126 21.8267 102 66 5
7.33215 -21.5085 -9.39385 53 55 44
-6.83098 6.33418 5.04032 61 75 64
-4.87372 -2.54871 -17.6497 109 111 88
1.99532 8.174 -12.5904 141 106 57
0.198017 12.2638 21.2753 54 29 7
7.48377 -7.2155 15.0854 71 83 71
-9.56892 -25.8276 6.26977 61 72 62
-6.65967 -25.6391 7.85751 59 70 59
-0.0332108 13.6608 37.9388 70 74 59
-6.25486 4.35863 5.76911 51 62 52
1.33008 8.51587 -12.7236 141 104 51
-1.90543 -4.47212 4.54026 72 87 76
-3.4842 14.2993 4.58066 49 45 26
-6.45784 4.67521 5.37497 61 72 63
-1.98916 15.9898 30.8293 53 47 32
-6.80029 7.66203 6.4039 69 80 68
-0.816536 16.7414 28.5846 137 125 90
5.43302 15.584 4.22009 76 65 39
7.65346 6.00248 9.84393 85 98 84
-5.20849 -8.52485 -29.2873 80 87 69
2.78077 16.859 2.69949 73 52 33
-3.03867 8.20708 14.236 61 60 45
6.75428 9.68349 -7.44256 97 106 90
3.78114 1.85 -14.747 134 128 91
-2.26985 3.25328 21.01 79 90 78
0.26894 -3.82789 -23.0948 101 95 61
-6.33697 8.87718 7.40727 59 70 59
2.00475 17.4308 9.05245 64 56 28
3.37568 16.6165 4.74752 75 67 43
4.12567 -21.3642 -7.26216 61 72 62
-4.83969 10.8948 -6.67271 114 84 25
-10.8098 -27.5929 6.81391 70 82 71
3.33551 11.1589 29.2442 63 69 56
-2.48088 14.3787 7.59497 52 37 8
-1.34831 12.8029 38.3858 63 68 55
-4.76706 2.69027 -13.8768 137 124 78
1.71389 16.0827 -2.319 90 69 21
-5.22112 -4.98665 25.8604 109 111 72
-3.54887 -2.27938 26.9119 66 71 56
2.39843 7.10459 -13.2397 146 119 82
1.06827 17.7595 29.7971 79 61 36
-1.09963 17.3211 3.88505 57 36 4
-3.44774 0.845673 -17.9532 73 77 66
-4.95037 -7.59164 -22.1743 64 75 66
-1.13485 8.81992 21.7899 86 93 72
-4.68309 7.1828 10.201 67 80 68
0.644238 12.551 21.0784 78 40 6
6.93937 -23.2453 -8.11674 61 72 62
2.58223 12.0712 18.5908 76 67 48
5.66782 6.68368 -12.1471 212 188 145
-4.43457 -5.75173 -24.7009 97 103 81
-5.23669 10.9954 8.69685 63 74 63
5.91853 14.1332 -3.68653 61 70 56
5.63329 10.3926 -9.13188 90 61 14
-8.00498 4.96753 -2.42861 65 74 62
7.62434 5.44302 8.73464 72 84 74
-4.21373 5.0522 18.722 65 75 64
-7.97236 -1.06924 1.98901 59 73 62
-6.35205 3.27568 3.72779 60 72 62
-0.982655 10.9685 24.0214 78 80 65
4.9669 9.32904 19.4919 104 111 95
7.80601 -1.66892 -8.58803 136 156 133
-3.89334 0.19878 21.8537 56 55 37
1.26714 17.3688 31.4248 65 53 30
-1.55311 13.1035 32.1243 63 70 53
8.28755 7.89635 -1.86978 62 72 62
-4.78008 -8.21147 26.2183 67 79 68
-3.74578 -8.33897 26.8024 68 79 68
6.35609 -6.53158 -10.9982 159 149 105
-9.36045 -6.5925 -49.2877 58 69 59
1.88872 15.195 24.3299 147 140 113
2.30083 15.3003 13.246 68 65 51
8.50527 -6.15893 15.1168 66 78 67
-4.2028 11.7856 -6.08995 99 73 26
3.36442 12.3484 21.6711 98 72 25
-2.0696 12.925 10.5245 58 52 35
-7.11939 -13.4213 2.67059 70 82 73
-5.4314 11.8399 -3.58199 80 73 42
3.50912 10.6603 17.7208 75 57 32
3.01576 15.574 25.6958 97 74 42
6.6979 11.594 -2.55645 102 120 102
1.30058 6.05496 -14.1034 143 114 65
-5.62261 8.01905 -8.87158 117 95 48
2.67406 15.362 -3.94305 97 49 1
-10.9465 -6.39954 -51.4337 49 64 57
-2.82194 -0.807655 -22.4102 97 82 50
-7.64465 7.22269 -2.04049 85 94 76
4.95475 14.9187 -4.29026 107 71 21
-1.33251 7.42859 23.1204 64 77 66
-6.72198 -9.44759 -38.1152 60 69 58
2.00558 -1.55009 -18.8946 126 124 87
4.7431 -6.27605 -11.3608 166 178 148
-6.93372 5.66664 2.22022 63 76 65
0.310884 15.8361 -3.9917 106 61 27
-1.46296 9.75507 24.1956 83 69 34
-1.75589 16.0798 5.90223 55 46 23
-3.92179 5.21149 19.0896 66 80 71
-3.71469 13.3007 -3.64956 85 51 6
-2.70634 14.2373 7.46319 49 36 13
-1.53903 8.60319 35.4976 70 79 66
-1.89274 15.1669 31.8316 68 75 64
-3.77196 14.093 3.49321 48 36 11
-6.25111 0.839588 3.29876 68 80 69
1.57345 15.0978 14.1098 63 52 29
-5.76153 -26.6104 8.26574 61 69 56
0.674459 16.6109 33.2292 61 49 28
-1.96924 16.0578 4.8222 51 39 7
-7.67222 -7.40618 2.42738 66 80 70
9.37174 -5.68642 14.0077 68 76 64
7.97996 12.6728 2.21742 109 122 110
2.88588 16.8001 4.82186 84 69 38
2.501 17.0645 2.54932 75 61 33
-4.3432 -27.1235 7.38432 65 73 60
4.99988 12.2621 15.2944 67 52 31
2.34764 8.90922 -11.9884 142 133 84
-1.79875 1.65851 -19.7169 138 115 53
0.636822 12.1012 18.9832 47 25 0
1.08851 12.3605 -8.79778 87 51 3
7.47272 8.015 11.722 94 105 87
-2.50801 3.383 20.8883 77 89 76
-4.17993 -1.62938 24.9264 56 52 30
6.52274 -23.5775 -7.50832 62 74 63
6.64915 11.8054 -4.24493 82 88 67
-5.58681 -8.58946 -33.9962 62 70 59
-4.18366 -3.80882 -22.2846 88 91 72
8.29383 -23.149 -9.14075 66 75 65
-7.45166 -8.2978 -42.6225 60 69 63
8.70726 6.64335 -6.92708 77 91 78
-8.64779 -8.91037 -44.7542 57 70 60
-8.85681 -6.77217 -49.0919 65 67 61
-8.173 6.48234 -0.292427 61 69 58
-0.57869 4.10494 -16.8964 132 103 45
1.92376 17.3145 10.0347 62 54 32
-1.37786 16.1787 -2.4169 80 53 8
-3.75747 3.9182 19.8513 70 81 71
1.24147 17.9813 3.10357 87 70 43
3.17014 15.4881 -1.59014 92 76 59
2.86146 6.98889 -13.1956 174 151 104
-2.15199 13.1757 27.2021 60 67 53
-6.50447 -24.3846 5.89921 57 68 58
3.12543 15.0939 12.8406 66 63 44
-1.65644 13.1594 32.3987 73 76 55
-3.38186 7.69811 15.7918 66 57 29
-0.594093 -1.39404 -21.6244 105 88 45
-3.84773 12.1903 9.28461 60 56 38
-4.62468 11.9458 -5.30228 100 66 23
9.6363 -0.731758 11.0856 132 146 124
-6.41531 10.6884 -2.1546 61 63 46
-1.10436 16.575 7.52593 50 43 19
-0.961681 11.5578 14.4508 54 49 26
-6.61728 9.07063 -7.05169 111 102 68
9.54307 2.30928 -4.62595 73 87 78
0.634182 16.7887 32.7219 60 46 18
-0.216263 16.8701 10.2772 52 38 14
-3.90492 0.0690613 21.8963 56 57 41
-4.90431 -6.68174 -25.0977 90 97 79
-7.83874 6.25334 -4.05888 59 66 53
0.453043 3.22393 -16.6507 117 103 67
-3.10019 14.5527 -0.838936 69 43 5
-1.77507 8.45182 18.0722 51 45 29
5.38009 11.1991 -7.79694 122 99 56
8.19191 -8.23535 12.5027 139 124 74
-4.59935 -6.72773 25.0601 135 121 84
-6.62622 -5.153 4.0328 68 80 70
-1.70042 13.8371 34.9297 57 42 10
-2.4246 12.8313 -8.00769 94 69 27
9.43952 2.40536 12.1608 60 64 51
2.33281 16.5662 26.8534 89 58 15
-4.84565 12.5094 6.9386 51 47 25
9.63793 1.61682 -4.60428 81 93 82
-0.270344 17.1049 -1.30135 72 41 8
3.30336 16.5327 6.79247 71 63 38
7.87958 10.2128 -3.96195 61 64 50
-5.94772 -27.5753 8.81201 64 72 59
-2.39728 11.4412 30.9989 72 68 47
1.01067 18.4076 3.87048 76 63 40
2.56791 16.4753 26.6736 87 60 34
-6.1362 10.758 2.56952 68 75 60
-7.90973 -17.0961 0.743629 98 121 105
-7.24184 -11.6101 2.67498 71 82 73
-1.58482 7.35608 20.7329 59 72 60
-1.82622 -2.5481 5.212 60 71 62
-0.269745 15.7316 -4.3025 96 46 1
-7.84374 -6.03712 1.70714 62 75 63
9.22622 -0.695381 -6.84284 99 112 94
-5.29528 8.58382 -8.53752 146 131 100
1.16061 17.1265 27.7394 110 77 37
-4.89703 -5.24443 26.9278 70 80 70
-1.48576 8.41494 25.4703 62 70 60
-3.35719 14.5836 2.50588 64 38 4
8.01648 -6.98814 15.1444 71 84 73
1.68294 17.9903 7.37639 66 59 45
-2.91103 2.70787 20.9261 74 83 74
-1.94772 13.0598 32.5544 91 88 63
-6.48463 5.66096 6.82741 58 69 57
0.0374222 17.1766 28.7251 68 38 7
-8.15527 -8.66018 -0.693748 128 152 132
-7.18929 5.81026 -8.06718 70 82 68
1.54136 16.9663 31.9461 66 63 40
-5.31242 12.7067 -2.45735 120 107 77
-0.195435 17.7782 8.69255 48 30 3
-5.53615 -26.8643 8.11618 67 75 62
-6.76222 6.31707 2.4893 61 75 65
8.06617 -6.50444 15.175 72 85 74
7.73063 8.05611 -8.00372 104 95 74
-1.72571 15.2911 32.3873 67 73 59
-6.93202 8.01615 1.38114 60 74 61
2.08926 15.6669 25.1849 103 77 16
-2.14782 11.4881 12.1063 60 57 36
-2.82105 8.04223 17.134 53 48 30
-2.12617 13.0299 27.4065 61 71 59
3.21772 12.347 27.0311 61 68 57
-0.0555782 16.9975 10.7147 56 42 11
6.82135 10.9889 11.6307 90 104 85
-2.41758 5.38379 20.4067 73 85 74
-2.13693 10.5195 13.2621 54 53 31
-2.49861 0.935852 -20.4096 104 80 42
9.49531 0.746723 12.8805 65 71 59
-4.81467 -5.07579 27.0965 72 81 71
-4.98676 -0.240078 4.16668 68 80 69
1.28726 12.3393 -8.64251 92 54 4
-0.825516 17.819 4.59446 57 38 7
-2.07329 -2.37611 5.23 60 72 63
-0.343876 15.6155 36.4292 56 41 14
-4.28071 -4.70634 27.672 70 79 67
-6.29606 -23.7266 4.94547 61 72 62
-8.48276 -23.1226 3.07349 71 86 76
8.8432 2.14371 -6.75906 123 138 116
-3.44613 2.98886 20.4425 74 83 71
6.41519 -11.7801 -11.1619 145 155 128
4.28683 -21.9314 -7.02181 63 74 64
-6.55202 -9.74395 -36.0049 59 67 57
-8.39723 2.28872 1.14758 63 72 62
-1.645 9.6387 34.7404 63 70 58
8.85885 8.55013 4.53224 85 101 86
-6.81986 9.35354 -1.86462 62 70 58
-5.867 -16.9247 2.99428 71 86 77
-8.32284 -12.4926 1.50048 70 84 73
-8.13685 5.61127 0.814102 65 78 67
-7.38313 -26.7507 8.28305 69 82 71
-5.78359 11.5565 4.50718 56 54 36
-10.0581 -5.97555 -51.667 71 79 70
-1.079 12.1829 13.7224 61 55 37
-0.741394 16.2711 -3.3013 77 43 10
4.79952 14.1201 12.3042 79 72 44
-5.96535 -24.2037 1.26139 121 139 124
5.91196 13.6643 -1.86246 81 95 80
-1.64417 16.3237 5.87284 59 42 20
-3.28191 -5.91031 -29.5635 107 97 60
2.47729 16.3554 11.6606 64 56 27
7.45917 -10.2513 -10.6312 147 159 132
-3.41688 2.74681 -16.4098 93 93 73
0.378895 15.5857 12.7204 62 52 30
4.082 8.56552 -11.8459 161 118 69
0.311802 -5.61809 -24.2501 93 101 82
-0.725479 17.7509 5.9867 59 39 7
-6.02824 12.0049 -0.822716 72 82 69
2.23274 -1.71603 -18.6828 94 96 68
6.90829 10.3456 -6.17969 112 111 82
-1.25302 15.6428 34.6719 51 43 21
2.46957 3.34572 -15.0223 148 124 77
9.63681 2.01063 -4.43121 85 100 87
2.10997 16.9947 0.554538 71 57 21
-7.27642 7.40435 -3.46049 65 77 65
-2.18642 12.6071 27.2764 60 73 62
8.67789 8.45658 -3.57876 81 95 82
7.39869 -7.63838 15.039 71 83 71
3.67823 12.2932 -7.14539 206 188 157
4.74575 -24.1632 -6.49934 64 77 68
-1.88909 15.5695 32.0639 61 61 43
-6.7032 9.2222 -6.79011 120 115 84
0.642296 18.6455 3.75973 84 57 23
5.68849 10.2845 -9.25123 92 66 23
9.5226 -0.694611 -5.91801 87 97 84
4.88864 -23.2899 -6.71864 62 76 65
-10.1835 -26.1231 5.40416 65 81 70
2.49686 15.1402 24.2828 125 102 41
1.41177 15.3937 -4.28146 89 49 9
1.93355 9.43999 -11.6998 123 88 24
-4.62518 6.89893 -11.3286 122 106 82
0.343245 11.0959 -10.5611 115 64 6
2.54181 -1.44828 -17.9239 123 125 93
-2.7871 -3.15233 4.7723 56 68 60
-3.07484 14.5464 4.66167 53 44 21
-7.05398 -27.6241 9.04142 62 77 66
8.88758 -3.4168 -7.90523 132 141 115
-1.88004 15.6901 -1.51971 59 38 7
-3.11483 4.19428 -15.9209 119 113 94
-0.287533 15.1359 12.2562 62 55 33
-1.24239 10.5097 24.0426 84 75 48
-3.04233 -1.68548 -23.7352 114 92 50
8.09979 6.85966 7.57631 67 78 68
-6.51939 5.40918 5.92081 55 65 56
-3.13058 1.78444 -18.2485 96 90 69
-4.60302 -2.69484 -18.7697 88 97 79
-6.62401 -2.63538 3.79533 66 78 66
0.311237 13.4287 15.2231 63 54 38
-0.263573 12.5764 14.8179 62 60 44
4.33834 15.7426 7.67284 71 63 42
1.27779 12.0103 -9.26265 99 53 7
-5.18509 10.8826 8.8963 63 71 61
-0.995045 9.75782 22.2044 83 87 64
-3.81624 0.54105 20.9828 62 65 52
-6.09121 1.26352 -12.785 90 99 82
1.70347 16.9146 11.4291 60 49 20
-3.89563 -7.80961 -33.8204 99 97 70
-5.88956 -1.07487 3.72815 67 79 68
-3.74081 -1.1257 25.5128 60 53 29
-2.53324 -0.657024 5.85038 61 70 63
-5.56445 -25.6902 7.12624 63 70 57
-3.34438 -1.06799 -21.2562 90 94 77
-10.8472 -6.1496 -53.2264 143 157 138
-0.958038 9.93663 20.8634 57 43 19
4.92521 8.90048 19.1611 102 124 99
-1.85597 0.973763 -20.5567 140 109 64
9.61979 -0.0741463 -5.11003 74 87 76
5.55931 13.1022 13.5237 72 63 35
2.18431 16.8961 0.419682 87 67 15
-0.648045 2.9735 -17.9786 145 112 79
1.2689 4.68677 -14.7641 149 123 78
-0.515602 17.0091 31.6356 52 34 5
-6.31578 6.56822 -9.35438 122 109 87
-1.2373 15.9546 32.6482 54 41 18
8.17365 0.0224094 14.2563 64 75 64
-4.28402 -25.2106 4.26691 58 66 53
-1.00636 17.334 5.81266 58 35 6
-3.545 -5.81236 -29.619 100 93 58
-1.61357 13.0079 28.2873 70 85 72
7.85122 13.4853 6.42913 67 74 66
-8.56826 -25.94 7.17039 62 73 63
2.25293 14.1018 23.1944 131 119 77
-0.595345 16.0492 -3.71977 90 49 12
-0.767723 11.7022 23.9697 65 59 38
-7.44099 6.97938 -3.26247 75 82 68
4.30583 15.3751 -3.14435 75 58 36
-6.90525 7.95321 4.75388 60 70 59
-1.08058 12.7689 38.7399 71 76 65
-7.26404 4.37553 -8.95287 61 74 65
-4.93944 -7.34529 -32.7676 66 68 54
1.74816 -23.0002 -6.54995 52 66 56
7.90532 9.37077 8.6526 61 71 62
1.14163 10.558 -10.9683 203 162 127
-2.60656 -3.52526 4.72094 57 69 61
-6.70218 8.57388 6.45006 68 80 66
-3.24125 2.78847 20.6969 69 77 65
5.72406 12.42 -5.5069 81 71 54
-5.32273 -8.15502 -24.6191 59 70 61
-1.78651 5.0936 -16.1246 136 90 27
-4.83986 -25.6091 6.19387 63 69 58
7.22002 -2.06393 -9.33776 139 155 131
7.80493 13.4069 3.43179 70 83 69
0.347364 12.2418 -9.23201 112 73 41
2.11129 -22.87 -6.1722 57 70 62
3.09252 12.9152 25.6112 70 81 71
-1.02913 16.7011 -1.65313 65 46 8
-6.19032 10.6382 2.45685 73 80 64
-5.97336 -4.00071 4.17593 66 78 68
-0.74757 8.00851 -13.4968 110 76 12
0.201485 17.0644 28.0833 88 42 4
5.76361 -3.23595 -10.5675 147 162 136
6.88485 9.74595 -6.89399 101 110 95
3.00555 11.6508 18.7167 82 58 23
-7.34295 6.42365 -6.91339 88 97 83
2.16939 16.2342 26.1093 83 54 14
-1.39978 14.7907 35.7922 60 53 39
-1.96066 13.3232 36.0768 57 46 24
-4.61005 -4.78271 4.38091 60 70 62
-4.72593 6.56034 -11.4489 128 121 94
3.7389 9.49802 -11.1787 156 113 53
-3.72726 9.91111 -9.6267 112 98 68
-4.80399 13.3568 -2.42875 134 103 47
-0.37204 12.9237 24.2019 77 84 74
1.6999 13.9781 15.2737 66 57 33
-2.59445 5.2501 20.3272 70 82 70
8.99842 -0.685356 -7.2945 122 139 119
-3.83089 13.9826 1.86746 60 37 0
1.32178 18.1149 8.33325 62 54 36
-1.04461 17.4201 5.36143 54 34 9
0.0104561 17.4314 10.0597 52 40 17
7.56005 7.12462 9.46914 70 81 71
-5.52536 12.0167 1.94675 63 68 52
8.17334 12.9494 5.4892 63 74 65
-2.26611 12.3064 35.6364 69 71 54
-2.4458 14.5487 -4.04685 76 51 13
-1.04827 17.3906 4.15957 56 36 3
2.55755 16.8147 9.30047 65 56 31
-8.73769 -23.5031 3.07441 64 77 67
-3.18868 6.68032 12.4312 58 72 61
-3.04431 -3.88884 27.9087 76 88 76
3.72443 10.2048 -10.6188 116 72 11
2.69664 14.1659 -5.65813 94 61 6
6.52695 9.89542 -7.52754 86 83 65
-1.29844 13.0247 38.3026 60 64 50
-1.43336 9.86463 23.3122 61 61 46
7.92342 -21.8083 -9.90385 58 56 45
1.15616 17.1206 31.9678 61 53 35
-2.78806 -1.05604 5.53625 57 67 59
-1.72998 13.1402 30.0523 95 94 83
1.54707 8.36217 -12.6859 143 104 54
-8.00777 -28.5902 8.60926 74 89 78
1.78259 14.3623 14.8535 64 58 40
-2.1956 10.5821 32.8436 70 85 72
-3.3186 -0.128704 24.6512 52 36 12
-8.74855 -28.905 8.24078 70 82 71
-3.07753 -3.77379 27.8907 76 87 76
6.5048 14.4948 5.27411 62 54 33
-1.45155 1.29041 -20.0382 127 92 33
-5.87184 -8.33188 -37.2515 69 75 58
8.71468 7.88802 -3.98322 84 102 87
6.80257 12.6478 -0.707137 125 130 101
-3.99879 13.9986 -0.469867 53 35 9
-0.387211 16.2285 10.8559 63 62 42
-7.25656 -19.7364 3.11236 73 87 76
-6.55576 -3.66961 3.9354 68 80 70
-5.27839 -1.61789 -15.9604 88 94 78
9.4365 0.844048 10.603 158 169 142
-0.883423 15.0846 -5.3527 98 51 15
-0.958363 16.0851 33.5586 52 35 7
6.89575 -5.35953 -10.4677 152 132 77
-1.45601 16.7884 4.02204 56 36 7
-7.29617 8.60617 -6.1513 64 106 83
9.2371 2.43787 -5.98232 102 116 100
-2.17802 6.36556 20.3574 70 77 65
-4.11903 -3.27671 27.2668 58 56 40
-8.03055 4.88497 -2.34832 65 73 61
7.12857 10.0819 11.4635 105 117 98
0.871326 18.5516 4.40141 64 39 1
-2.56138 -3.87646 4.67771 58 69 61
-2.54824 4.59054 -16.2651 130 108 60
-2.20496 1.05951 22.7188 63 63 53
-8.1151 0.249615 -6.19402 64 73 63
-4.10322 -5.99984 4.22025 66 82 73
-5.66185 11.3546 4.98803 57 62 45
-1.17296 16.514 31.7403 55 43 18
-8.11673 2.11381 -5.01818 71 82 68
7.92677 3.91092 9.22959 131 145 124
-1.15824 11.6716 14.0045 60 58 43
9.07719 -5.47462 -8.25971 103 119 101
5.84915 9.46678 -9.88859 85 100 87
-3.82513 11.8238 -6.53746 110 74 51
6.63333 4.81697 -12.34 146 150 126
-2.48 10.5335 32.1203 65 79 68
-1.27144 4.47847 -16.7179 119 83 23
8.70691 0.0774307 -7.58485 110 129 109
2.02105 6.98053 -13.4221 161 139 95
-4.80481 -4.54993 -21.4586 85 93 77
8.51028 7.07796 -7.38925 111 126 109
-4.11125 7.64034 10.782 68 81 67
-7.43219 5.26114 -7.20515 69 79 67
-2.65655 -4.10895 4.62318 56 68 59
-8.51981 -10.1608 0.626888 63 77 66
-7.39346 -22.9183 4.08976 63 77 68
-6.06556 -8.53901 -43.4764 78 89 74
4.72843 15.0499 -4.26078 105 61 11
8.48727 11.059 6.87246 66 77 68
1.63459 17.2308 31.4121 67 59 46
-2.02483 10.6708 -10.8167 129 90 27
-7.86148 1.97964 -6.36735 62 74 64
-1.40324 10.8198 24.8425 77 54 12
8.56529 -2.13234 14.7867 63 77 65
4.15335 15.4033 -3.10263 77 61 39
-8.2738 1.5776 1.69558 64 77 65
1.09393 17.1948 31.8739 63 53 34
2.29987 7.79672 -12.7301 158 115 54
-5.91541 -11.0302 3.12318 81 95 85
8.41646 5.05862 11.7725 98 96 76
3.1159 12.0362 28.4297 75 80 69
3.62446 15.3813 11.7941 67 66 51
7.19877 -8.62966 14.9017 70 85 74
-4.74582 -25.3976 3.0653 142 163 143
2.37427 16.4727 11.5164 63 51 25
3.13511 -22.6826 -5.9975 63 75 65
7.80959 -23.9758 -11.2908 152 157 123
-7.6263 5.67188 -5.7979 87 100 85
-6.05825 -8.45303 -37.6094 64 70 55
1.55961 5.90609 -14.011 150 128 89
-3.86707 -4.07425 -25.8897 88 90 68
3.12173 14.0771 -5.58323 105 65 23
-8.58386 -27.5647 8.21056 69 81 70
-7.7025 -3.55553 -3.35485 61 74 64
-3.97864 13.8834 2.03864 65 39 0
-3.18216 5.32419 -14.5769 130 108 76
5.56792 6.37669 -12.4482 189 163 108
-5.68549 9.71529 8.95533 61 68 55
2.16057 13.6715 22.6521 115 81 44
-5.44022 4.12415 -12.2449 159 153 122
-2.46782 13.1022 -7.55516 112 86 56
-4.37918 13.692 0.789797 55 47 26
-0.970581 9.52822 21.5497 62 73 61
2.75639 8.68665 -11.8938 149 108 57
-4.03595 6.94375 10.7401 65 79 68
-0.237329 13.1676 23.6656 61 53 32
-3.09681 13.5046 -4.29104 87 62 20
3.4343 11.6 -8.65353 93 59 13
-3.39789 -2.69228 -24.7082 92 82 65
-1.77791 14.5318 28.3598 58 63 48
-1.78864 4.68809 20.9844 75 87 75
-7.5851 6.42345 -4.85365 66 74 62
-1.39976 14.8771 35.5039 66 65 51
-0.195244 18.1187 0.96971 76 48 3
-1.28298 13.4366 29.4974 81 96 80
-0.0827293 15.9499 -3.93429 93 43 6
-1.01668 11.7734 25.2346 95 73 39
-7.2746 7.37615 -6.73796 75 86 74
-1.97377 16.1023 4.51837 54 34 2
-4.10455 13.6627 4.92795 49 40 15
-3.48731 -5.75912 -29.4529 129 118 76
7.59714 7.2769 11.5605 77 86 72
3.76235 11.5117 20.6137 86 56 10
-4.9263 -8.04039 -36.4009 101 104 81
-1.13378 9.1062 18.9272 52 46 26
-2.94387 -6.73998 27.7046 83 94 83
-0.245564 11.2093 21.1793 89 71 53
-2.60977 11.8541 32.4904 56 58 44
-5.18889 -0.767879 3.99802 66 79 68
8.79877 7.14138 -1.97991 60 68 60
-3.38367 12.6389 9.30726 58 56 35
-5.84323 -9.2017 -43.0713 85 98 85
-0.288387 13.2 38.5323 70 72 56
-1.1308 13.1901 12.6219 63 62 45
-3.51063 9.58123 11.0903 66 77 65
6.32051 13.2122 9.75406 71 76 64
0.545578 3.59128 -16.227 106 86 51
-3.27816 8.44538 11.825 59 72 59
-7.05437 -11.7598 2.96148 71 83 73
-2.17995 10.3065 26.3796 89 72 32
9.24413 -0.191216 -6.69598 103 115 96
-3.90717 -4.94096 -27.9955 100 98 78
-7.8681 1.99787 -7.84703 68 80 67
-1.1883 11.5078 14.1787 59 52 31
-1.84931 13.0293 10.9991 58 53 30
8.11361 3.7916 -1.08085 62 74 64
-4.76084 12.9456 2.66236 73 58 32
-1.24175 -1.75382 -22.7993 121 105 64
4.84515 14.9915 -4.27646 105 64 12
2.37822 16.6143 26.9501 99 68 22
3.03865 12.0531 15.9732 68 70 55
-4.06816 13.9383 -1.7035 67 38 4
-4.02219 -4.54223 4.44256 58 70 60
-2.60699 4.60894 20.5141 73 85 72
-6.28835 10.4415 2.77795 61 63 50
4.62855 15.5127 6.30392 68 57 33
-1.46259 13.2943 37.7956 62 66 50
8.72257 8.26527 6.66791 62 72 63
3.77464 16.2838 2.45119 76 59 30
6.92252 13.1589 8.77912 71 73 52
-4.23572 -5.92442 -27.5801 63 71 59
2.23939 16.6385 26.9897 90 61 16
-10.0715 -5.94798 -51.2713 61 69 61
0.560921 2.95611 -16.7695 104 88 62
5.03551 10.1629 17.5925 67 62 33
8.61266 1.45304 -7.63775 99 117 100
-2.97897 -5.21096 27.9312 81 95 82
-7.55577 -16.6246 0.177673 106 133 114
-5.15643 -24.9205 5.67321 60 66 55
-1.41302 14.6233 9.80265 52 38 11
3.72235 13.7735 -5.9159 115 73 28
-2.0794 12.373 28.1055 64 70 58
-3.33253 -7.65787 -31.9186 100 94 63
2.0195 6.54796 -13.604 146 122 74
-7.11184 -8.56437 -41.033 60 69 58
-6.84623 -25.9072 8.1538 59 68 58
-3.24068 12.7868 -5.47821 82 65 33
-1.10943 14.0008 32.6362 94 106 88
-1.72855 13.7792 34.8224 55 40 7
-0.092308 18.5005 2.85614 80 57 24
3.81306 16.0454 8.13376 68 58 35
1.29226 17.7555 30.253 67 44 15
-2.94991 -8.4683 -33.083 104 111 82
-9.53446 -6.42609 -49.7821 57 66 58
-6.55798 8.71542 5.74381 71 84 68
-1.54538 -7.07325 -28.5431 114 107 65
2.94047 11.6102 17.0632 67 65 53
8.99852 6.35595 3.91149 71 83 73
3.04555 15.2134 26.7507 66 78 64
-6.68752 -8.3438 -45.6342 81 93 81
1.46921 -0.291054 -18.4745 114 87 39
7.76174 4.01654 8.93031 114 129 112
-7.44296 5.44798 1.74371 70 85 72
-6.31411 -8.17225 3.21439 79 97 85
5.35552 12.176 15.3999 69 63 39
-6.72061 6.80952 5.70681 59 70 59
-1.10181 14.8391 26.3102 92 60 22
-1.52655 9.2444 16.9835 50 39 16
-6.65985 9.25198 3.37793 65 74 60
-0.892288 11.233 24.0475 64 62 47
-7.45496 -9.41856 -40.6149 58 68 56
9.37681 6.2023 -2.98216 67 76 66
-1.01237 -2.58548 5.41973 65 75 67
-0.951263 -1.6107 -22.3777 114 93 55
-6.91883 -10.9913 3.16752 75 88 77
0.863869 18.1947 8.81992 53 39 13
2.43644 8.79008 -12.0037 147 131 84
-7.88695 -2.3122 0.192831 60 74 63
2.68582 6.04953 -13.6549 151 112 49
8.86951 -4.5519 14.7765 70 82 71
-1.14325 15.8879 34.2276 63 47 25
-0.217237 16.9107 27.9186 89 51 2
3.77003 11.5503 -8.73465 81 49 2
8.02712 9.28835 -5.21846 109 124 105
-2.65131 9.54758 12.3588 61 70 57
-4.31467 -3.69494 27.2988 61 62 47
-7.72037 2.20197 -9.17327 86 102 88
5.59447 13.3779 12.8787 66 69 54
8.91158 5.67923 -4.78035 76 94 81
-10.3832 -26.5922 7.08194 60 73 62
9.37707 -0.69725 13.7303 68 74 62
-1.83272 8.98705 -12.574 123 73 6
2.83811 13.5254 -6.34263 122 79 25
-4.12325 8.43338 10.7715 67 80 69
3.78493 11.416 22.9593 67 71 61
7.26155 10.9104 -4.29683 67 64 48
4.49871 13.1857 -5.88646 117 91 48
-7.5763 -17.8372 -0.101013 139 168 150
-3.6171 10.6904 -8.80314 87 68 35
-6.74636 10.0362 -4.64303 66 71 54
-1.88056 13.8168 28.3229 72 81 70
5.92223 14.117 -3.54932 63 72 57
-10.4723 -27.5247 7.33222 70 84 73
-4.31663 12.9781 -3.45604 91 64 16
-6.44784 10.5156 -1.71445 64 69 54
8.80473 4.60208 1.4842 66 78 67
-2.54645 -2.37831 5.10553 59 69 63
-0.316988 -3.7964 -23.7002 122 103 60
8.29541 3.92911 -9.11904 61 70 60
-7.55461 -2.8596 2.68859 61 75 64
-0.394787 17.3446 8.65844 51 36 21
5.43847 14.3483 -0.835233 88 88 68
-1.03996 -3.2112 -23.8927 114 93 45
-3.16355 13.0914 8.94241 51 48 27
0.185814 11.8164 20.5931 75 59 36
4.03027 16.1047 1.7595 85 58 17
-3.26223 9.05803 -11.6174 115 94 64
1.27543 -1.8867 -20.1498 166 140 98
-2.9365 0.946262 22.8198 52 48 25
0.44224 14.3356 23.9542 92 51 4
-0.407013 11.7769 39.1006 77 90 76
-1.98022 15.8174 30.4748 76 81 58
-3.24673 0.609175 23.1669 50 40 17
-6.80373 8.45029 1.53389 63 73 63
2.92325 15.1864 24.8177 94 85 68
4.70058 -7.08558 -11.5145 157 172 142
-5.14299 12.7379 1.50453 52 44 19
-2.17324 3.00589 21.146 73 85 71
-8.7382 -11.2478 0.507818 61 74 65
6.27329 12.4845 -3.37612 71 82 73
7.79754 11.7226 1.37541 104 121 106
-0.505152 -2.63684 5.49921 67 76 68
1.10379 12.6568 17.5934 56 35 9
-0.464615 17.6534 7.11052 49 29 10
-2.90185 10.8349 28.38 62 71 62
-0.932659 16.1292 34.4763 47 30 3
8.81149 6.94307 -4.53008 92 109 94
-5.83416 12.3139 -0.344315 64 70 58
-7.35161 -9.6013 -40.129 58 68 60
-4.79894 13.3142 0.714752 57 58 36
-2.1485 12.494 27.5548 63 76 65
6.06638 13.6653 9.55638 72 72 54
-0.198322 3.453 -17.0771 123 94 67
3.10804 -20.3407 -7.4057 57 68 61
-5.20662 -26.4062 7.42334 66 76 62
7.92431 9.02469 -1.42374 119 140 122
-5.03038 -8.87471 2.63699 65 76 68
-4.72575 -25.8429 6.33928 58 64 52
5.18431 14.5401 -1.21371 79 69 38
0.965372 13.9616 36.9371 66 70 54
0.0958748 18.0769 0.907475 77 48 5
6.10576 -7.22526 14.3346 87 97 75
-8.62762 0.938719 -2.30502 58 71 60
-5.03643 9.98657 9.41875 67 79 66
-9.86699 -6.17804 -51.8618 103 113 100
8.8841 6.59765 1.31869 92 107 93
-2.0259 16.0693 3.66171 60 41 5
-3.80774 0.0305862 22.3245 62 64 53
-8.19886 1.65933 0.582588 75 87 74
7.95311 4.28107 9.34917 126 138 117
-6.82169 -26.512 8.45586 68 79 74
8.25769 9.50738 7.37115 67 78 68
-1.6373 14.0415 36.3753 61 53 27
-7.26684 8.73753 -1.33164 59 60 45
-2.39341 12.9888 33.8365 61 44 13
3.72628 -24.2011 -5.993 61 72 64
-7.84141 7.68701 -0.108727 61 63 47
0.246769 17.0517 32.0733 57 42 9
-1.889 16.1757 4.70234 56 37 4
-8.08131 -0.331985 -5.0316 63 75 66
-2.03047 12.4954 31.0892 56 56 43
9.40753 -4.38161 13.6405 66 76 66
-4.91654 12.4622 5.8177 53 37 5
-2.96305 -6.37863 25.5206 146 163 133
-3.15101 -3.07125 -25.8368 119 101 61
-3.7578 -5.81235 -29.8165 114 108 74
2.74449 12.4404 20.3665 84 52 14
8.17046 -7.51342 15.0747 71 83 73
-1.66219 7.11312 -14.2633 115 80 41
-1.79267 16.1489 29.9295 58 40 1
-1.08693 16.8456 29.8842 66 45 11
-1.68685 4.99576 21.0212 74 86 75
-0.160929 10.9111 16.6033 58 61 48
-4.24032 9.21264 10.4944 72 84 72
-0.630819 15.5973 26.2169 68 38 1
-4.55192 -2.09044 4.42319 64 75 65
-1.17867 13.7385 37.581 74 85 74
2.92437 12.7099 28.2578 66 77 66
9.22436 1.39917 10.3832 162 158 113
-4.24398 -27.344 7.47779 62 69 57
4.65856 -12.5365 -7.50626 67 83 71
7.72541 -22.0341 -10.914 146 143 109
-5.21209 -8.35326 -28.1743 80 88 73
6.21149 12.4541 -3.80359 87 104 94
-6.78839 8.98564 2.93545 72 80 67
-1.9413 12.7365 30.9374 62 62 47
5.81958 -14.5289 -11.8245 135 149 121
-4.34178 -6.36388 -26.4446 68 73 60
1.38525 8.0112 -12.9935 145 112 66
-2.03872 12.0586 37.3656 63 70 60
-6.67832 -14.1399 3.00856 81 95 85
-2.29679 -0.81432 -22.5599 108 90 52
-5.87836 -8.36658 -41.4265 73 78 66
-2.04173 -5.82328 27.7347 74 86 75
-6.04268 11.074 4.65147 57 65 52
-6.24366 11.089 -1.72922 61 73 62
2.81481 11.4043 -8.99928 125 94 60
-3.6225 -2.24497 -23.1576 66 64 51
-1.00141 9.95949 34.5039 72 86 74
6.6845 -5.07776 14.8167 57 67 56
5.27438 -4.17375 -10.9674 161 177 142
-1.34826 2.10073 -19.1859 134 105 65
2.96078 16.6286 8.33422 62 54 28
-0.981529 13.3441 -8.18865 100 62 27
