ply
format ascii 1.0
comment Created by Open3D
element vertex 1369
property double x
property double y
property double z
property uchar red
property uchar green
property uchar blue
end_header
6.12305 -20.1648 -9.4382 62 73 63
-6.16273 -1.81329 3.81119 66 78 67
-8.35051 -24.531 5.1679 63 75 66
-7.10748 7.43721 -7.265 113 124 102
-6.15201 -20.4911 3.2152 71 83 76
-2.8497 -10.6565 -31.9125 61 74 53
-4.01598 2.50203 19.9923 65 77 66
-4.85378 12.4619 -3.65732 87 60 19
2.74131 4.15163 -14.4377 149 138 69
-4.23465 -6.07929 -6.10593 104 122 108
-2.74723 0.0582314 24.5049 56 51 32
-3.77979 -2.72799 -21.9964 69 77 64
1.43127 -24.9178 -7.54824 80 96 82
-9.32826 -6.93979 -51.3902 108 119 108
9.26358 -0.551186 13.8014 65 70 58
-8.41508 -11.4369 1.58743 71 84 73
7.70292 11.7516 8.82797 63 75 65
-1.62705 6.37436 20.8889 71 81 69
8.18236 12.4659 2.8707 84 99 85
3.12161 13.2404 25.5839 63 74 64
3.36736 11.6552 27.2661 63 69 58
-7.76325 -1.37068 2.52898 67 81 70
8.5291 3.29279 9.80765 145 154 128
-7.26836 8.03389 -5.44427 61 71 61
-0.900288 -9.0112 -22.8688 64 76 66
-3.00845 -8.56591 -1.25315 69 84 74
-0.988842 -8.01571 -2.01674 72 87 78
-4.60299 -12.1588 0.806557 67 77 67
1.39626 0.231186 -18.0467 129 96 52
-7.15245 0.332237 2.97337 70 81 69
7.53684 13.989 3.78877 66 78 67
-8.04974 -22.0274 3.01782 75 85 75
0.657974 -6.0891 -14.4756 83 98 86
-1.94493 11.2677 26.2659 95 72 30
8.35958 -6.47302 12.9494 158 159 126
0.945023 -3.43197 -21.7016 84 91 69
-7.1132 7.81641 -4.07172 69 82 69
-6.65821 9.25502 3.75573 63 69 52
-0.475998 -0.299988 -20.6488 101 91 45
9.47261 -4.03754 13.2283 79 90 78
-5.36288 -7.4759 25.4577 84 91 76
5.26159 14.8774 -4.07132 86 75 45
2.85973 3.88435 16.6906 67 79 69
-4.98117 -25.0335 2.69962 112 131 113
-0.241657 -6.33418 -26.1075 114 123 98
-5.37768 -10.7815 -40.212 78 96 81
-1.57515 15.9932 -2.65241 63 45 4
-5.3547 -3.51214 -9.32899 70 90 78
-5.10886 -24.4718 4.59817 56 63 54
-6.57567 1.3066 -11.2788 103 118 97
0.420675 17.0563 11.0562 55 40 22
-8.04206 -7.28556 1.43146 66 74 66
-5.18406 12.0058 5.23499 58 61 46
2.41284 -3.00122 -13.6455 81 94 82
5.28961 10.3015 -9.65781 92 58 15
-4.98766 -18.7665 0.943604 70 83 72
4.50352 -6.88304 -11.5342 165 180 150
-8.06827 -1.26584 -7.38651 101 119 104
-8.64315 -19.3962 1.33227 67 79 70
-3.784 -1.99298 -20.2818 81 83 63
-8.10958 -10.3622 -46.8118 95 112 97
-6.34743 -8.15773 -40.4395 71 80 65
8.32961 1.03955 9.82571 157 172 144
-3.95621 8.3556 10.9417 68 81 69
-2.3139 8.94167 16.0451 53 37 7
2.29808 16.4711 11.7494 63 53 29
-0.403008 9.1944 -12.4514 130 92 48
2.98913 10.9297 26.1897 102 122 104
-7.8326 3.62094 -5.74504 86 102 86
3.77176 9.7183 -11.0271 142 101 49
-5.13023 -12.6963 2.02158 69 78 76
5.32698 13.8318 12.4886 63 64 39
-0.272232 13.1852 38.5335 69 71 56
8.6226 -5.51125 -5.4269 62 75 65
4.43306 7.19086 19.8745 67 78 68
-6.84039 -5.98365 3.76451 70 84 74
-6.6946 6.6492 6.03676 56 68 57
-3.23932 0.253988 5.87251 60 70 62
1.97609 -3.0011 4.06028 76 86 75
-2.34827 -10.4429 -30.1871 66 77 66
3.21569 12.5666 14.9546 67 65 45
-5.75657 12.8083 -1.70932 88 79 55
1.56121 -1.88883 6.39265 74 86 77
-0.778034 18.0765 4.23719 54 38 6
-6.11379 10.5803 6.33001 69 63 42
-2.90148 7.29339 18.2778 56 48 33
8.76692 9.96029 6.28332 70 82 73
-2.3623 12.1296 -9.19908 121 89 38
3.47357 15.4911 -3.01424 65 49 18
-6.53795 -10.2592 -44.2599 89 107 95
-2.87358 -1.58341 -23.6511 113 91 52
-3.69912 -5.38626 27.8774 83 97 81
-4.6384 12.9474 5.09299 54 55 38
9.17253 3.09748 12.0771 66 73 63
-7.96728 -9.13668 -0.995468 134 166 143
-7.86627 5.60449 -2.1777 78 89 74
-8.09688 -8.18011 -0.477287 108 133 114
0.123024 11.5051 20.0333 79 71 49
1.22952 15.4992 35.323 68 70 57
-4.79277 3.33057 -13.4427 127 113 82
-2.50096 10.0204 31.9541 68 77 65
3.71128 15.046 12.1389 65 62 46
3.89447 16.2336 4.81393 83 73 50
-8.89033 -29.3892 8.10409 57 65 57
-4.03632 -2.61056 26.7057 66 72 57
-4.43534 -6.37349 -28.6206 64 72 60
-8.116 2.54488 1.92896 69 81 69
9.33376 1.57061 -2.75157 62 72 63
-6.25497 9.64053 -6.90321 129 135 103
1.98412 -21.4124 -7.47696 57 66 55
2.66415 17.015 3.52065 67 60 34
7.43914 -9.83521 11.7124 110 98 64
-5.21911 11.3693 8.25738 57 66 53
-8.27447 -10.7939 -45.1863 58 71 63
-4.36658 -4.70965 -22.9931 101 100 75
-1.06849 14.0042 12.0183 58 50 24
-0.131145 -7.58974 -19.0854 73 86 75
-2.8142 9.57735 12.0625 64 73 62
-2.70623 0.75004 23.3188 54 48 31
-3.04456 -3.45449 4.68544 60 71 63
-8.19425 0.723419 -6.65561 63 73 63
-2.28886 -10.6862 -28.5918 54 67 58
0.051671 11.9192 21.4903 79 69 43
-4.83377 -10.6402 1.32704 65 74 66
-4.28787 -8.45417 -36.3464 84 88 66
-6.36084 -9.13627 -37.3106 64 71 61
-8.0562 0.15773 -8.43531 107 129 107
-5.18474 -8.29629 -26.9269 65 74 63
-5.14641 -11.4953 -31.8669 56 67 57
3.0573 16.7178 5.68007 66 52 24
7.9415 12.0928 1.74961 134 158 133
8.40356 6.00349 -7.50525 117 137 119
-3.67518 -0.980564 -18.3926 99 96 74
-6.59389 -8.12097 -41.5398 69 72 59
7.44386 4.08012 6.86683 62 73 63
-5.74394 -12.059 2.69257 73 88 71
2.57794 9.83451 30.9428 75 87 74
-8.60864 -24.0457 4.04634 70 86 76
8.62138 -9.09332 12.0134 149 128 82
-3.08173 1.5608 21.3558 64 71 58
-5.3907 -4.86037 -6.60726 97 116 102
-4.81943 -25.7732 6.33823 60 66 54
8.72365 6.91624 -6.78426 77 91 78
8.63852 4.2429 11.0048 87 82 60
-0.0658989 14.2573 24.3143 105 56 3
-4.4194 -6.63683 -26.7974 72 75 61
5.1851 12.8525 14.5209 69 53 31
-7.62651 -9.3698 2.07866 73 88 76
-0.554043 9.26133 35.2915 70 81 69
3.95768 -9.42449 -11.992 165 184 153
-7.05817 -4.3021 -5.15082 93 114 102
-3.88313 0.547211 19.7381 62 73 62
3.06087 -15.4037 -9.14796 59 70 60
-6.77916 -23.1616 4.48445 65 76 66
-7.10536 0.550226 -9.55672 97 117 96
2.07773 11.896 34.8343 64 72 64
-4.27926 10.655 9.65903 68 76 62
7.08089 -12.2455 -10.5129 122 144 124
2.19003 17.4124 7.59295 66 58 36
-1.25539 -2.01322 24.3861 90 102 89
-6.27149 10.9929 -1.82323 60 75 64
-4.62767 -6.47691 -25.5781 91 94 75
7.9577 7.23632 12.9798 69 77 65
4.30233 -2.8582 -11.3661 152 176 154
-7.89327 -19.6662 0.134026 118 143 126
2.84001 16.5717 1.59707 71 47 6
-1.4511 8.25175 25.2275 62 71 60
-4.2813 7.40814 -11.3678 105 99 74
-3.96875 -0.614204 22.9917 59 61 46
-7.66505 -3.91478 0.627075 59 72 62
8.35724 0.719654 -8.52989 95 114 98
0.436073 -5.35491 1.56072 76 90 79
0.382935 -5.67581 -24.1023 99 110 90
-6.54736 5.39206 5.68993 57 67 59
1.71376 12.6883 17.4042 64 48 24
-3.13074 11.319 10.6047 64 70 57
-5.83302 4.81401 -11.3293 146 137 108
-4.76323 -4.57907 -8.06305 83 99 85
-3.68824 12.4769 9.1119 57 54 36
5.58398 -0.735884 12.0191 39 50 40
6.19965 12.7133 -2.58354 83 98 97
9.08829 8.28232 5.49163 70 82 72
3.95798 -12.5036 -7.34391 66 82 72
-8.73853 0.467781 -3.01568 75 90 76
9.4936 2.22496 -5.18247 86 102 87
4.15393 7.06645 -12.8632 149 115 62
-8.43637 -9.10304 -43.857 56 67 58
3.5759 11.6135 -8.55998 81 50 3
-6.89444 -25.6669 7.82076 57 67 58
-3.69881 0.78125 21.7546 55 49 29
3.8982 14.738 -4.72759 124 75 14
-7.46082 5.1731 -6.92733 83 95 81
7.20197 -22.5129 -11.3772 172 166 129
-0.730057 12.3305 39.0485 74 80 63
7.18975 -4.47082 -3.81661 62 77 68
-4.14484 -11.0267 -35.8093 76 96 82
-4.16783 -7.80815 -34.3955 96 94 71
3.57922 -1.29341 -15.4993 105 127 109
-1.47868 -5.60548 -26.8821 115 94 57
7.57147 1.91241 9.16324 144 166 144
-4.57416 11.542 9.0839 64 71 62
7.27676 0.420076 14.5107 69 79 67
-8.37929 4.19312 0.794455 63 76 63
9.39801 -8.19766 13.5957 73 82 69
2.03198 9.70158 29.7283 75 86 76
6.22167 5.07364 14.883 71 84 73
-3.5474 -7.50753 1.55044 67 80 71
-0.974411 13.9178 29.15 58 71 60
-8.17233 3.30438 -1.95459 63 76 65
3.89062 11.7518 15.7024 65 56 33
-1.06705 11.7236 -10.2224 119 84 39
-6.52976 -9.85662 -35.7415 57 65 55
-8.74067 -11.1968 -0.306442 72 86 76
-8.4066 3.42262 0.0418072 79 91 77
7.48181 7.64784 11.1405 73 84 72
-4.42426 -2.63674 -19.4099 90 92 66
6.62693 -6.36394 -10.8918 144 145 107
-6.43111 2.82458 3.29826 65 78 67
6.97308 -7.17856 -5.54858 68 80 74
-0.786112 10.1791 20.5367 72 40 2
3.06138 -1.86141 -16.441 92 110 94
-7.24231 -3.61378 -5.93192 92 112 99
-5.26321 3.65919 7.18388 56 67 57
6.31788 9.466 -8.89384 106 113 88
-5.46498 11.737 6.21743 68 66 46
2.41524 12.2341 18.9066 83 61 34
8.36126 2.43755 -8.98751 61 73 62
1.02824 8.7414 27.8364 64 73 61
-7.50218 -24.6637 1.19913 145 173 151
2.97423 -13.2779 -8.86246 60 71 59
0.503868 10.5254 33.9713 77 90 81
6.68912 -13.7164 -9.09484 63 75 65
8.81379 8.91012 6.48648 66 79 70
1.73359 17.7641 8.83139 75 62 33
6.17205 1.70691 14.5135 74 88 75
-5.16026 -5.94621 -21.4808 65 75 65
6.40757 7.35209 -10.7355 94 104 86
3.98724 11.0562 22.5443 67 69 60
-2.49133 11.1648 31.7634 59 72 63
2.69807 12.8698 30.0172 64 72 63
-0.198866 -6.6017 -0.0282669 75 89 78
2.96323 -5.07749 -0.251808 57 77 61
-5.02138 12.1583 7.21663 57 59 43
6.61781 11.3231 14.8622 62 73 63
-1.50444 12.5123 12.4924 54 52 32
-2.42985 4.22484 10.3276 55 69 58
2.143 14.7768 -4.86663 100 56 12
2.98714 8.89824 -11.6121 133 100 55
-2.23753 -3.81955 25.385 120 137 119
-5.13662 12.3623 2.32299 60 58 43
-6.16665 -10.2324 -33.7318 58 66 57
-6.91309 -10.8476 -37.6063 55 66 57
-8.31599 -27.0983 8.139 67 79 69
6.51023 -1.00315 -10.2804 131 150 129
-10.6879 -7.75749 -52.3902 139 163 140
0.0104561 17.4314 10.0597 52 40 17
4.17728 15.4353 8.87854 68 62 43
-3.26055 -1.32113 -22.3253 67 66 54
-4.02923 -5.38377 -28.7005 88 88 70
7.43459 13.5058 4.72203 72 75 60
8.69062 8.24607 0.836189 95 111 97
2.28905 10.791 -10.1214 113 78 28
-2.24679 1.73408 7.80405 56 66 57
2.94047 11.6102 17.0632 67 65 53
4.25484 10.3933 16.9985 82 79 54
-3.83622 0.724747 -16.2233 135 132 104
7.93462 -3.30169 15.1247 68 80 69
-1.77726 15.2232 32.3066 69 77 63
4.4525 -21.1168 -11.3799 173 185 156
5.35949 -5.36443 -3.36084 58 79 67
-0.269306 5.03378 21.6508 71 74 64
0.0830574 3.58432 -16.7668 136 107 78
3.94014 0.357553 12.488 70 82 71
2.58476 12.4535 -7.41984 104 73 30
-2.90965 4.19275 -16.2053 127 116 84
-1.83247 12.9944 29.876 71 66 48
8.07615 -25.1803 -8.66749 60 72 61
6.63216 -22.7063 -8.17405 60 70 60
8.84969 6.23764 1.08267 80 94 81
8.3074 7.7914 -1.13496 109 127 110
-5.67009 -18.4861 2.74072 66 75 69
4.97284 -15.1885 -12.2739 172 193 159
-4.01921 -5.05451 -26.9935 68 72 61
-1.34312 -6.71192 0.65802 72 84 75
-1.55174 -9.74871 -24.7599 59 69 60
-3.82702 -7.91276 25.1327 129 139 115
7.98678 -10.6391 -9.62517 74 87 75
3.73813 -23.9242 -6.04358 63 75 63
6.31195 -19.423 -10.2433 63 72 58
2.3009 -20.4557 -10.2885 92 112 89
7.31432 10.8169 -2.85609 60 67 56
8.31256 9.09693 -2.62212 53 58 44
-6.33985 10.2253 0.601044 77 88 71
-1.542 9.25553 23.4552 59 70 57
5.62634 7.00323 -11.9615 147 122 82
-5.67329 -22.1695 3.02767 58 69 58
-9.28559 -25.2325 5.41075 61 76 66
0.585651 4.37836 -15.4461 109 93 51
2.62346 -12.0467 -8.65942 55 66 57
7.24436 -0.761133 14.8489 70 82 71
-9.16847 -26.0751 2.46338 131 158 139
6.27684 -5.83346 14.0489 87 94 77
-3.39947 11.0174 -8.62339 99 77 50
9.07948 -5.89644 -8.60302 113 128 108
0.700256 -5.8648 -21.8423 62 73 63
1.66175 17.1953 10.9495 71 57 43
6.44492 -1.6049 10.154 153 179 155
8.26881 -6.39147 -9.7579 143 148 110
2.05652 1.29632 -16.7289 138 114 65
7.03593 13.8742 2.00658 100 80 37
-0.317802 -1.82198 -21.6305 113 88 41
2.60069 -7.95369 -4.38621 70 86 76
-5.29128 -9.5982 -41.2916 89 102 91
1.21936 -0.409973 -18.8409 118 88 45
-8.03237 2.0853 -5.35666 76 86 71
-1.31032 5.07404 -16.2163 122 95 33
-3.75519 -27.2258 7.05937 64 69 56
-4.46505 13.6793 0.279707 56 46 26
8.70536 3.22012 -1.59641 61 72 63
0.864304 3.59399 18.729 61 72 62
-3.93558 10.0107 -9.08287 106 91 55
-4.74126 6.81474 10.0008 67 79 68
-0.447521 13.4456 13.8433 59 49 30
5.8513 13.3142 10.4134 64 58 40
-5.27164 -7.25481 -23.8362 60 73 62
-2.79056 -8.88948 -33.254 100 111 90
-1.46476 0.982012 21.5112 70 79 68
-5.15867 -4.25582 26.2035 62 51 28
8.72703 6.46441 -5.15844 87 103 89
-4.08492 2.47398 18.3136 84 93 73
4.79996 15.2622 7.82545 64 47 18
3.97045 14.0067 -5.5379 121 86 42
6.18459 -3.5555 -2.51598 59 76 64
-1.54665 -2.95297 25.2326 79 92 78
6.94533 -8.5676 -6.4066 64 76 67
-8.33062 2.30566 -1.75878 61 73 62
0.662731 12.6799 16.8334 51 34 4
-2.23285 -5.1161 3.89408 68 83 72
8.77028 4.35039 1.51922 65 76 66
9.20466 6.34887 -3.69257 83 99 85
-10.6826 -27.0646 5.83722 77 94 80
-5.70969 7.58549 -9.18048 133 126 86
-0.743063 6.39076 22.3964 60 69 58
-2.12268 -5.81165 -27.9067 116 107 73
2.33717 -1.63824 -18.3497 105 96 69
-3.22335 3.54969 20.3542 73 85 73
4.97819 -8.90193 -11.6133 165 175 142
-2.30556 11.5201 30.8073 59 61 49
-4.77127 13.1419 -2.67405 127 99 45
1.28307 -8.80045 -4.3821 71 84 76
1.49509 -2.94648 -20.4688 89 102 85
-6.87465 5.67034 3.99691 65 76 63
7.37814 7.84075 9.76572 66 77 66
-8.81773 -24.0454 2.41656 79 96 83
-6.1403 -9.70732 3.36171 83 98 88
5.79253 -2.30764 -1.18847 57 76 64
4.07293 0.159498 11.3595 70 81 71
-5.15533 6.05507 -11.286 140 138 96
-5.73018 -3.45262 4.21916 65 77 66
-8.08221 0.0947571 -5.85231 63 75 64
-5.00018 11.327 -6.05292 119 92 60
-4.07568 -1.69183 23.9203 68 75 63
-6.71377 -9.22822 -45.6641 110 130 115
-0.41304 11.8952 15.2602 55 46 23
-7.42699 3.60104 2.25632 70 83 69
-7.86096 -17.5996 0.281679 108 132 115
-7.82915 -7.5234 -44.9556 59 66 55
7.14605 -13.5959 -10.3891 87 97 86
3.12257 0.320435 -16.285 94 81 56
5.03218 -7.78935 -11.5092 169 184 150
4.50902 15.1248 -2.24825 75 68 49
6.74406 11.381 12.7283 76 78 61
1.13255 -4.98373 -14.1527 88 107 94
-1.53601 14.8727 27.6071 88 66 42
-3.73765 -5.29165 25.3118 152 168 141
-3.97725 -9.9942 -36.6591 77 92 79
6.57852 -11.3886 -7.67433 70 81 74
7.05724 -1.96417 -2.20094 60 75 64
6.94431 -23.7054 -7.92547 61 73 62
-8.48832 -9.72706 -48.4001 106 123 107
6.61881 12.2394 -1.75719 77 85 70
6.41828 0.315025 -10.7323 133 153 128
0.264576 13.2295 -7.95576 106 67 26
6.65565 -10.8882 -11.1497 154 165 136
-6.75272 8.55227 5.03787 59 70 59
7.94669 -9.04856 14.8633 69 82 72
1.37823 4.62563 19.796 61 72 61
-2.50317 -6.81982 -29.4732 102 93 57
0.884689 12.4648 37.4946 66 78 68
4.72593 9.01283 20.5481 67 82 70
-7.67189 -8.08733 -47.9924 89 102 94
-5.37134 -14.5934 2.40279 68 78 71
-4.75137 -6.57404 -19.9505 65 78 68
-7.70338 -2.67286 -2.88001 53 67 57
-0.977797 11.772 14.1793 58 57 37
-2.9638 -8.56409 26.8575 72 82 71
0.0219898 -0.133839 -19.7354 108 84 50
-1.48171 1.10495 -20.2966 122 87 28
-6.63035 4.5797 3.68011 63 76 65
6.07773 -18.2223 -10.8066 95 88 78
5.22375 5.57619 -13.0553 144 128 84
-7.26076 5.5836 -7.8332 79 93 83
-3.64352 -0.245287 -17.5477 92 98 81
6.91519 5.62075 -11.6433 121 120 96
0.0629253 12.8171 15.3923 54 40 14
3.1026 -21.7151 -11.0009 152 166 138
8.46188 4.75616 -0.431811 90 107 91
3.21432 16.3876 8.40274 63 42 15
-0.854881 11.3781 23.4336 71 55 28
-5.34333 -8.03858 -33.2925 76 84 70
2.90872 0.149736 9.62086 69 79 71
4.8799 7.7856 18.945 94 114 101
4.5794 1.26248 15.0443 77 90 77
2.9574 12.4488 28.9884 64 73 61
6.81379 -10.4457 -7.34608 73 83 79
-0.395176 16.4183 27.116 78 47 4
-1.18875 15.5241 34.1271 76 62 27
5.24524 4.17575 -13.2521 148 150 117
2.28185 -25.5613 -6.00305 62 72 65
-5.16183 -8.54173 -31.3966 62 68 60
1.40513 13.7502 -6.68462 120 73 4
0.192085 17.5142 -0.231794 94 66 31
-3.62191 11.345 -7.59048 111 76 34
-7.27323 7.26281 -6.28561 64 76 65
8.62488 6.77841 6.62616 61 72 63
-6.31054 -10.7259 -42.7944 86 105 93
2.22533 15.5153 24.9662 89 51 0
-0.469894 14.3784 12.8274 55 45 22
-3.39259 1.06988 -18.4082 74 77 60
-3.92705 1.66082 -15.4215 127 126 97
6.02871 -20.973 -8.80765 61 69 58
-2.40489 -8.87257 -32.2924 74 83 67
-3.32282 2.33795 -17.1719 113 115 93
3.86582 16.1147 6.93811 64 47 7
7.04424 -1.28808 -9.47589 121 141 121
-4.93192 -4.92055 -21.4384 83 93 77
2.97415 -6.40454 -2.47562 62 82 70
3.19375 -8.16278 -12.158 163 184 156
-0.61739 12.2282 24.8627 75 72 50
-2.49011 -7.33342 0.658623 69 82 73
5.11551 -18.4423 -11.6646 168 169 150
-3.92694 6.05793 10.5095 61 75 64
7.62038 4.02142 5.85151 58 70 61
-5.97154 -19.6604 -0.47295 150 186 163
3.80995 8.34711 21.9236 62 72 63
5.7352 -12.4675 -11.6489 158 157 116
-0.651764 14.5131 25.1527 90 66 40
-0.93458 8.51112 28.546 62 70 57
8.89353 5.69036 2.801 74 87 76
7.81566 4.4898 9.11775 107 122 104
-5.23977 -23.6183 2.72498 67 78 68
-1.8349 -10.3162 -25.5865 55 68 59
3.71138 -13.7794 -11.6435 98 110 94
-8.05542 -25.5407 6.89873 63 75 65
9.63966 2.27148 11.7549 56 57 43
-5.39984 -8.71359 -40.2311 79 88 72
8.28596 -1.32347 -8.0853 129 151 130
0.723049 8.95447 30.5805 70 81 70
-5.00763 -10.1654 -26.8622 56 70 62
-7.74076 -15.8678 0.49865 74 95 79
9.70165 4.63167 -2.78571 70 83 71
-6.60803 -22.7934 0.44577 165 195 170
-8.27349 -7.86392 -49.3783 101 117 101
-4.83273 -10.1231 -39.1906 79 92 78
2.49466 12.5194 16.786 70 62 53
8.89361 4.40004 -6.40443 117 137 120
1.83702 -6.18099 -12.7538 144 167 145
5.71249 10.6852 16.4815 76 82 70
-7.58763 -3.36888 -2.05305 75 91 78
-2.53564 -2.72999 -25.2698 203 191 152
8.74507 -4.21097 -8.589 140 140 110
-1.42599 2.40461 9.73932 54 66 56
-1.4641 14.4021 36.7815 56 54 40
-6.10509 0.422749 -13.0622 99 119 97
4.65665 13.5411 13.6374 68 56 31
-3.24404 7.91942 12.4853 59 68 55
-3.36221 -0.219345 -19.4439 73 81 65
-2.56061 11.6985 32.6025 60 66 54
-2.63065 11.6178 29.0281 54 55 34
6.70855 11.785 -3.69493 62 65 53
-5.85639 -11.7051 -39.3298 84 103 89
-7.10366 -26.6025 8.3601 66 79 69
-7.45098 -10.0901 -39.2219 58 66 57
0.488523 -6.01813 0.393402 76 89 78
-8.16533 4.43935 -2.89131 66 74 63
-3.57654 5.87135 -13.8284 111 101 65
-6.77436 -7.45537 -1.68272 118 144 125
6.44453 2.14381 -11.4962 107 120 103
-0.425745 15.1954 -5.20734 84 44 2
5.73546 15.0075 1.04032 76 72 47
2.34723 7.59812 -12.8983 144 102 44
1.21226 17.0696 32.0248 62 54 37
-5.86851 3.08803 -12.2803 117 124 99
1.12218 8.9969 33.2692 68 77 66
5.20596 -0.434317 10.9478 54 62 53
5.56445 -16.1438 -9.18448 64 79 65
-7.64454 -7.51855 2.40675 66 79 70
8.23223 6.02478 12.4344 82 86 71
-2.05635 12.5906 30.7657 57 57 42
6.27696 -3.13218 -10.2201 142 155 128
-3.53781 -0.472424 24.9235 60 56 43
-7.22472 -18.5697 -0.375427 160 193 168
-1.29702 14.1567 31.5082 72 83 71
-7.88503 -1.51361 0.250057 61 74 64
-3.1135 -10.6117 -33.1753 69 85 72
6.91011 -8.34265 14.8381 70 85 75
6.52264 -0.870075 -0.609581 60 70 59
-8.51344 -23.0377 2.10822 97 119 104
-5.7165 -0.552128 -14.2085 92 107 89
-5.23307 -21.9705 1.41986 79 91 82
-4.23985 -9.31441 -24.0093 49 70 56
-2.10806 8.69351 34.5071 72 85 72
-6.50823 -0.604013 -10.0347 74 90 78
-3.38347 9.50642 11.2572 66 77 65
2.79151 16.4953 0.612735 85 64 37
0.93643 8.10744 -13.1935 131 102 64
2.11844 -9.51101 -11.9979 127 148 129
-7.0069 -29.474 9.02049 65 79 69
-3.63069 -9.14123 -36.0774 86 101 86
4.90896 9.48778 19.4609 115 114 96
8.37226 2.79609 2.58905 62 74 64
8.9248 6.43365 2.07923 69 81 70
-2.72524 -27.1954 5.22286 83 96 82
0.475782 18.0474 9.42148 54 39 16
-8.95318 -9.68494 -46.3723 54 65 55
-1.46749 -1.09874 -22.509 125 102 49
-7.82299 -3.96541 -4.09223 64 79 69
-5.18537 -7.29958 -25.2456 75 84 68
1.86125 12.4837 35.8836 61 67 54
-5.01467 -9.14499 -24.9393 60 72 62
-3.23089 14.4222 -1.06035 64 40 2
-4.26356 4.67587 9.35511 61 72 61
-1.76288 7.85368 -13.5942 138 113 69
9.03878 7.18435 5.60691 67 79 69
-5.54941 -26.4546 2.19965 139 163 142
7.74838 5.9416 8.13111 63 74 65
-8.18663 3.94774 -1.01592 80 92 78
7.189 0.147993 -1.03251 67 78 70
-8.37532 2.05706 1.1147 62 72 62
3.22183 11.4634 30.7454 74 75 60
3.03404 13.504 14.3736 64 68 54
-1.23115 17.2989 1.66713 57 33 3
-3.73566 -2.871 -23.7499 76 82 67
-4.98557 -7.37607 -31.5075 62 67 57
-0.269473 -3.24464 -23.1139 108 84 37
9.43139 -4.2264 -6.64847 65 77 67
-2.30576 -0.231037 6.12402 59 68 61
-0.729747 7.94438 -13.5676 106 71 8
-5.30387 -26.6121 7.71835 70 81 67
-0.14381 11.1388 38.1217 79 92 77
-5.28319 -10.7408 2.2756 65 76 67
-1.4612 -8.50432 -5.5398 110 130 112
2.31395 17.3246 28.8399 56 55 40
7.16 10.6914 9.61309 65 75 65
7.43807 -2.73907 -2.88499 66 80 69
2.15916 -3.24231 -18.6935 68 82 70
-7.00711 8.01492 3.03854 61 71 58
-6.91897 -13.0914 2.95975 75 89 79
-0.40332 17.6592 8.0925 52 36 7
6.65821 2.36251 6.59374 65 76 67
-0.890503 -0.601727 21.4218 70 81 69
-3.92653 -10.3197 -25.7765 58 70 60
-5.3958 -16.6999 2.5107 64 77 69
-3.23115 -5.99546 -29.63 110 101 64
8.95724 -7.68145 -8.54465 63 73 64
-5.31794 -8.46038 -38.5839 103 111 89
9.3101 4.22895 -4.78355 78 90 78
-6.47037 4.16898 -10.7415 123 138 113
-0.820602 9.44407 19.675 58 47 28
4.14597 -9.19548 -5.85699 71 85 77
-3.74291 -7.40948 -32.3471 90 85 62
6.51804 15.0066 3.75886 75 75 56
6.6894 -5.73976 -4.4486 66 80 72
-1.16668 15.7017 28.0865 78 81 59
-0.3843 11.9599 22.7963 80 71 45
-5.48299 -5.99599 -4.96153 102 126 111
5.83924 15.0332 6.45287 82 75 52
2.1583 3.91621 17.5701 65 77 67
9.49481 1.18785 12.6706 64 73 60
6.63626 1.42255 8.72348 141 161 141
6.41678 13.2311 -0.620249 96 100 71
8.81042 5.23177 0.801752 98 115 98
-0.937603 -1.05446 19.7195 88 102 91
-8.08912 0.437061 -4.44337 81 97 84
-7.6744 -5.82473 2.57896 62 75 64
7.24895 -8.24027 13.0635 122 123 98
-4.02604 5.71168 17.7122 62 67 53
1.66866 2.90447 -15.7151 152 129 75
-3.71243 5.78285 16.1937 77 87 71
2.11281 13.8749 34.5673 63 70 60
-8.38432 -13.1251 -0.162102 87 105 91
-1.01333 12.5255 13.5618 60 54 33
-5.56917 -28.4759 8.68267 70 83 73
8.69128 0.390835 13.7851 64 73 60
2.68168 14.5245 30.6898 64 72 62
-3.60623 -10.6522 -34.8561 72 87 74
7.04128 10.2517 13.1478 62 71 61
-4.30416 -3.84362 25.4357 133 121 97
-9.22005 -24.624 3.4899 67 81 71
8.8469 7.24713 -2.0767 61 70 62
3.83176 11.03 -9.74531 98 58 11
7.25553 -4.64651 15.0754 66 79 68
3.30782 6.96921 20.8473 63 73 65
8.35964 7.76469 -7.08818 102 94 73
-0.127552 13.0743 23.1223 75 43 12
1.70429 16.0473 -2.40345 92 72 24
7.59996 13.7041 2.86189 75 92 82
-10.1599 -5.92198 -51.7262 70 79 70
-6.45471 5.79893 -9.85145 140 117 75
3.72931 0.595619 13.8313 69 80 70
4.74883 5.45192 15.9912 70 84 74
-7.66359 -5.3859 0.993027 64 78 66
-3.11167 -8.99075 -34.7462 96 107 87
-5.62861 -4.64857 4.27824 66 79 68
-4.74928 -9.39992 -2.01717 155 184 162
8.8199 10.2453 5.06903 72 84 73
0.287849 8.68889 32.1722 70 79 68
9.1624 0.679607 -6.6229 102 117 99
-4.99035 12.652 3.2682 66 60 30
-4.18073 -2.29717 24.6693 77 75 55
2.89376 15.6169 -1.28887 73 54 19
-6.03542 6.9174 8.64626 64 76 65
0.288782 -8.04921 -13.4756 120 143 124
-7.72667 -14.4227 1.7879 70 86 74
-2.97977 1.67658 -19.0689 131 121 88
-5.79288 -8.1954 -36.6911 66 71 58
-7.48068 -9.60161 -40.4076 58 68 59
-2.27738 12.7887 32.5765 63 57 30
0.0643196 10.9223 18.0565 68 59 43
0.665287 13.3598 22.6393 81 45 5
-6.30608 10.229 4.30177 86 92 70
7.83976 13.4509 6.57889 67 75 66
-2.26431 10.2288 33.4716 66 79 65
4.00525 -22.9881 -6.35781 63 74 64
0.625038 14.3751 14.4844 54 41 22
4.11365 16.0934 1.871 96 69 29
4.98151 8.55753 -11.5221 149 135 101
8.21052 3.31672 0.0735836 79 95 82
-3.61094 6.66565 11.2101 60 74 62
-1.08773 8.23269 35.5326 74 86 75
-8.92945 -6.78049 -48.7506 64 68 63
6.73452 7.09674 14.7534 68 81 70
-7.62812 -10.4353 -45.9179 93 109 97
2.49208 5.96472 20.2813 63 75 65
-2.89865 5.61138 12.092 54 70 60
-7.25132 4.81776 -9.3196 68 78 67
-5.93439 11.532 -2.54938 83 92 70
6.83085 10.07 -6.60763 112 111 94
3.81814 15.6374 10.3078 64 49 18
2.74053 16.6006 9.43323 66 52 34
-4.12997 -1.8856 25.6451 66 65 46
4.90764 -21.07 -7.86295 63 74 63
3.66043 -2.43238 -12.1182 143 167 145
8.75949 1.81401 -7.0472 118 134 113
1.64544 12.4576 18.3368 62 42 8
1.16886 11.8046 36.854 69 75 66
-3.39196 5.18435 10.3599 57 69 59
-5.56538 -11.8095 -38.3584 78 95 82
7.46005 -2.63823 -9.21463 143 152 126
7.24561 -5.75461 -10.3956 142 139 100
-0.698481 3.8 20.3014 69 81 70
-0.195923 0.964989 -19.2304 96 91 61
-7.49801 -2.36394 -7.03392 92 109 93
-0.910908 -9.24525 -4.04361 73 87 77
1.556 -22.7207 -7.19607 57 70 59
6.42596 -4.33212 -3.23022 62 78 67
6.82581 -2.61294 14.8015 62 76 65
-0.324375 -7.75726 -15.0338 78 93 80
7.94996 2.79358 9.18961 142 160 139
1.6065 17.5421 2.0037 78 61 22
-9.00531 -6.67597 -50.4946 75 85 73
-2.41146 0.962814 -20.4799 112 85 37
-4.42882 -25.1712 3.49827 108 115 100
8.30584 -9.05227 -9.98602 119 138 121
-0.209116 -5.33523 -25.232 100 97 63
9.34687 -2.26302 -6.83276 109 126 105
3.1827 -17.695 -8.61157 57 70 59
-2.9659 -27.7853 6.83921 61 66 54
7.42549 9.1387 -6.50707 102 103 80
-5.89173 -6.83391 -3.472 112 136 119
6.0982 -14.6099 -9.02592 64 76 66
9.11005 7.87735 2.30327 123 145 125
9.58822 0.171509 -5.32687 76 88 77
-2.8297 15.0863 3.60416 56 38 19
5.85824 12.4113 -5.12035 72 70 55
8.20102 1.5784 -1.53886 60 71 61
2.22414 7.04168 22.029 57 66 57
2.80277 -11.6938 -7.15852 61 73 66
-6.19236 -11.2485 -41.161 83 98 86
1.62274 13.5487 35.7635 64 71 58
1.4788 -23.5159 -9.01566 76 89 75
-6.48658 -10.8353 -35.4678 58 70 57
-0.900873 11.383 24.5266 81 69 47
-4.68203 -8.68087 -37.8222 89 95 77
-0.908821 17.6672 3.31645 65 41 6
-4.92386 -9.06222 2.38463 64 74 67
-2.42312 15.5931 1.38141 56 36 5
-7.32445 -8.4968 2.58929 71 82 72
-5.03149 -4.80936 -17.0948 56 71 63
-6.9972 7.1197 4.49429 56 68 57
-7.57133 -18.5833 2.64387 75 89 78
-7.91692 1.65711 -6.42458 75 88 75
-9.99447 -26.3888 7.05662 62 74 63
7.63696 3.12327 4.3754 67 79 70
-7.78896 3.0504 -7.4409 65 76 65
5.17452 11.0248 -8.35537 82 73 55
-4.87188 -0.0272598 4.27444 66 78 68
6.86146 -8.91496 -11.1977 167 165 134
-8.36158 -25.988 1.62086 142 162 141
8.77963 10.5911 3.19993 63 75 64
-7.3665 -0.598938 2.95099 68 81 70
2.10068 13.7139 31.6429 64 77 67
8.29484 3.33611 -8.02461 63 73 63
-1.78203 9.95539 15.1418 49 33 8
-1.26555 11.6456 38.6566 71 82 71
-5.7751 -2.74902 -12.1635 59 71 61
1.25138 10.693 33.4112 72 84 77
-0.6758 16.5881 9.50548 44 35 9
2.72549 -0.490437 -17.2641 120 115 91
6.98163 9.43077 10.9213 94 107 92
-1.15225 -7.23792 -28.0428 97 104 79
-3.35684 -8.65322 25.8871 123 149 131
5.58184 14.9919 2.14767 78 74 41
9.0449 -1.99964 -3.8786 64 76 66
3.32654 10.9312 29.3546 66 73 62
-5.35108 -10.2846 -29.0489 54 65 56
-0.65741 15.7785 35.9682 54 40 10
0.883034 -7.37112 -2.10331 73 90 80
-4.22302 -28.93 7.94209 69 75 66
-5.87347 -9.96551 -32.6875 58 68 58
-3.20033 -7.20157 25.2759 138 150 120
-4.43841 3.77462 18.457 78 84 67
-4.87916 -1.88612 -16.9893 106 114 90
6.37596 -3.43967 14.0964 52 60 51
-4.11971 -6.64213 3.48082 67 84 74
1.65429 -6.3556 -0.939323 70 87 75
-4.08767 -4.87181 -25.2563 69 75 66
5.70008 11.6208 -6.80313 110 93 64
5.96819 13.1312 11.9705 61 69 56
-4.99901 1.21722 -14.6058 125 126 93
5.27187 -10.7682 -11.7157 163 179 148
5.61058 -3.19907 -1.74276 54 75 62
-1.22271 14.113 33.362 62 67 57
2.66042 7.56062 22.9413 59 68 58
-5.28924 6.48731 9.21333 65 77 66
0.225386 16.0843 -3.44905 81 48 21
7.50015 11.1119 -0.422898 88 104 94
-0.0780258 16.1175 35.1692 55 37 3
5.90017 6.51401 15.1609 68 81 71
8.4692 4.17186 4.08096 62 76 68
1.48437 13.6733 15.6865 62 56 27
5.62948 8.42022 17.1918 65 76 66
-1.65235 8.7563 33.5198 80 95 80
8.70686 1.11447 -2.18555 59 69 60
0.824463 4.69907 20.6441 61 72 62
7.80652 10.1064 -3.35087 57 63 54
2.29593 -9.47514 -5.494 69 81 73
-0.867001 16.5898 -2.47755 84 45 4
-0.0842972 17.2568 31.3881 58 36 1
9.68699 -0.23925 10.9325 129 142 120
8.5324 -8.9091 -8.73369 63 71 63
5.03222 -13.973 -12.2287 160 163 128
-6.97049 9.62812 -5.06352 66 78 69
-2.13321 9.57125 26.8564 64 75 61
-8.80267 -8.78411 -45.4666 55 68 59
5.9485 -10.4012 12.7321 75 80 71
-2.65871 -7.24584 -6.03604 102 125 106
7.16105 8.61182 14.1033 69 79 69
-1.51264 -2.76461 26.1737 71 81 72
6.54859 11.0795 -5.7738 85 81 63
7.58721 6.70881 14.0654 68 80 70
3.45034 12.4042 22.0581 70 62 43
8.0702 3.84784 -10.292 110 110 90
-9.37381 -9.15858 -47.1101 58 69 58
-0.621624 9.91861 34.6237 77 92 80
-1.492 8.26729 20.5661 61 64 49
2.01414 5.10756 -14.1896 150 126 75
6.54179 14.5199 5.45824 90 67 26
0.012743 18.6998 4.16761 60 43 15
-7.45992 -5.08868 -1.39162 64 78 68
-3.05214 -2.19887 27.021 74 82 69
-4.40185 -5.81725 -24.8869 99 104 82
-7.36864 5.32336 1.81492 71 86 73
-6.82927 8.81261 0.742264 62 71 56
-7.1487 -7.8979 -43.0744 61 69 56
-1.86287 -7.75835 -0.850609 72 85 74
-4.89862 -11.2048 -38.0361 65 82 67
-8.07517 5.08773 1.12814 71 85 74
8.83944 -4.69636 14.8223 71 81 71
-5.7847 -8.29073 -35.5442 60 66 54
2.7091 6.16419 -13.5994 154 115 55
-2.76697 3.33434 8.86357 56 68 59
-6.86869 -1.11065 -8.5592 92 111 95
3.55996 -15.0115 -11.5485 96 114 97
-6.48469 -22.4763 3.92102 65 80 69
-5.10073 -8.264 -28.6423 80 85 70
-2.62542 12.7229 -7.82306 103 79 36
-1.99531 -3.26618 27.0446 66 79 68
1.91274 -0.985989 7.25388 65 76 67
7.72555 -10.1599 -7.64546 59 75 65
-1.75453 16.2577 5.4125 59 45 13
-7.25547 -21.6741 3.41636 77 90 81
8.73403 -4.64838 -4.98653 65 78 67
2.14947 12.4683 19.8837 83 46 14
7.51512 -10.5909 13.1772 68 78 69
3.02157 -17.1341 -10.0863 86 97 82
-0.295067 13.309 24.0085 75 65 42
-0.126453 11.2753 -10.4553 105 64 2
7.17265 4.0113 14.2348 69 81 70
5.95454 -16.8598 -9.85077 59 79 66
-7.17402 8.57631 -0.1852 61 61 42
-0.540134 -8.32252 -22.3199 80 97 82
-2.8326 10.5302 -10.4551 130 105 87
9.75942 -2.13483 13.3856 67 74 62
1.4197 15.2284 24.5583 135 125 83
-2.28942 -4.033 4.66395 62 74 65
4.13154 -20.4574 -7.75302 59 71 68
4.2466 -22.911 -11.7633 177 182 148
-6.43788 10.4378 -5.61294 85 81 68
2.24909 -23.3034 -5.80692 55 69 60
-1.82124 14.0893 -6.63116 86 59 14
3.27057 5.73086 19.2211 60 68 59
0.806362 17.7032 29.7938 75 46 12
-8.1066 -14.0055 -0.0554657 72 86 75
-3.49698 -1.02149 25.7446 53 47 23
1.14564 -4.87437 -20.8607 73 87 74
-4.49084 -27.3477 7.64658 65 74 62
3.40199 12.7289 -6.89601 130 90 42
-1.68587 -9.56615 -28.1722 69 82 71
7.60385 -21.3282 -10.3388 69 69 43
0.486801 15.0766 -5.07756 96 62 20
6.52084 13.8499 7.86375 69 76 63
-3.63743 -0.577469 20.9566 67 70 58
-0.244143 7.2223 25.973 74 84 71
-2.55528 -8.89673 -2.47855 77 89 79
-4.71517 -7.7072 -35.1365 107 111 86
8.26948 -23.4592 -8.92881 67 77 67
-5.47388 -7.81043 -2.82433 122 148 128
5.26477 1.38653 -12.0355 117 143 123
7.77299 0.414385 -9.51778 117 138 122
-6.91386 8.7493 -3.66343 68 80 70
3.1107 12.4182 25.1578 65 74 64
-1.05659 2.09106 19.8505 71 83 72
-5.86364 8.05169 8.97027 69 83 72
-4.73266 3.75584 8.02637 58 68 59
2.68362 4.9684 18.4554 63 73 64
8.44516 5.9033 -1.0516 95 112 99
-6.79831 9.28825 -1.3612 62 72 60
6.33249 -21.6971 -11.6174 214 213 175
-5.92011 5.56243 7.58028 56 68 57
-1.28091 -2.46281 -23.5217 114 95 47
3.3814 5.31373 17.3047 68 81 70
-3.61342 7.61179 11.4621 67 80 68
1.0888 10.2518 -11.3217 105 73 23
2.35306 15.119 33.278 59 67 60
0.354744 18.1435 1.22632 82 52 9
5.61491 11.9204 15.5427 65 63 40
-5.85781 -7.87174 3.35883 83 96 85
-2.43448 12.3579 34.3782 57 63 48
-3.83481 -6.19189 -30.434 136 134 96
-2.75909 8.39565 16.682 49 32 7
-1.62852 9.88302 24.5042 99 72 27
-5.65911 9.87406 8.88666 65 73 60
2.58587 -2.69648 -16.9873 59 72 62
2.89993 9.57204 24.8182 67 78 68
-2.00818 11.0179 12.8646 59 69 54
-3.49566 14.3365 4.29646 54 47 24
-4.06114 -3.71762 27.5246 67 74 59
-1.98763 9.31127 28.6747 58 69 58
4.4338 11.7508 -8.25591 89 63 28
-6.24926 10.832 -3.75512 66 62 44
-5.45042 -1.84257 -15.3834 81 95 80
-7.31929 8.50222 -2.02496 76 82 65
-8.08307 1.60903 -0.501991 57 70 60
-1.1935 2.92848 -18.2809 110 69 20
7.96904 9.43854 -5.21463 102 118 98
8.73664 -24.1731 -10.2093 118 131 112
-7.35229 8.94128 -5.63621 89 100 85
1.60061 8.80285 25.8754 67 78 66
5.85804 9.49106 16.6229 66 77 66
7.45968 8.89376 12.7213 83 94 81
6.57255 4.07001 -12.5217 138 153 125
0.27343 -6.29451 -18.0754 62 74 64
0.639137 12.1891 19.7049 52 28 3
-0.514874 14.9194 37.4314 63 61 42
5.32951 9.67789 17.9839 61 66 54
-1.12596 -6.36332 26.1727 113 127 107
-5.18302 5.29401 8.93884 64 76 65
6.85176 -23.3434 -11.6768 166 166 140
-5.32757 -6.67117 -4.34061 116 141 124
-1.65915 13.5758 -7.83879 98 59 22
-4.61352 -1.00384 -16.894 120 117 85
-0.466732 16.538 32.7129 56 39 12
0.476933 15.6726 25.4957 95 56 9
2.97222 -18.1322 -10.6095 91 97 87
-0.873825 -3.94907 -24.4639 131 115 72
0.988514 -0.493624 7.57548 71 82 73
9.31539 -0.081974 -3.49004 62 73 63
0.496109 -6.40709 -22.8087 63 74 64
-1.03151 0.154171 7.14316 63 75 65
0.827213 6.45312 23.0181 65 75 66
-8.07106 -17.3636 1.68095 69 85 75
8.32661 11.862 6.94438 62 71 61
0.668283 18.6181 7.0761 55 39 15
-6.126 -21.7016 -0.0319901 142 171 148
-10.5473 -8.29685 -51.6647 128 153 133
6.02748 -25.1497 -7.07983 64 79 65
-3.91629 -3.93014 4.5135 59 67 59
-1.74822 16.4055 3.23618 56 36 4
3.03275 -10.7577 -11.8407 120 141 121
-4.82473 -0.475554 -16.0331 117 121 94
1.84613 9.81214 32.9024 64 70 62
-3.22149 2.84407 8.10392 59 70 61
0.794979 15.1235 36.4073 60 66 54
-1.73944 -1.62355 -23.3017 118 97 55
-8.03099 -23.2619 3.89557 70 85 74
7.83775 -3.53123 -3.68579 65 78 68
-3.27879 6.27997 15.0027 81 92 77
-1.75558 -10.0233 -26.4472 64 76 65
4.25739 -4.98344 -11.3863 168 189 161
-2.76707 2.90711 -17.7122 121 104 81
-0.820045 -8.59184 -23.6748 86 103 90
-5.19523 -3.38492 -16.2396 68 77 74
-1.54209 11.0676 14.0495 58 57 42
-4.73356 -11.7665 -36.2914 66 83 68
9.39657 -2.37326 11.6562 129 141 130
5.68567 -6.01423 -4.08239 67 84 73
-0.303108 -7.22559 -1.01535 74 87 78
-8.68426 -26.2834 7.49802 63 74 64
5.08294 -11.1878 -7.0042 64 77 70
-7.34631 7.16708 -3.39816 78 88 74
5.35943 -12.965 -7.89613 67 82 70
-1.94061 15.7215 -0.817705 60 39 7
0.98386 1.48983 16.3904 70 81 72
-6.11473 -2.02129 -10.349 70 85 72
-2.48117 0.214329 -21.3365 110 86 47
-7.65268 -24.9061 6.30606 62 73 64
-3.59799 -28.0411 3.92863 121 145 133
3.8346 -12.3727 -12.0263 143 162 134
4.96635 14.2243 10.7057 68 66 50
1.56073 17.2872 0.370491 91 52 11
2.30466 17.2542 30.4029 68 56 35
-7.807 -20.085 2.72526 78 92 81
8.76699 3.0386 12.887 70 81 73
-3.91955 -3.34393 -22.7156 80 85 71
-2.03067 5.81186 -15.3634 122 82 26
-1.70621 13.8421 34.9941 55 40 10
5.50358 -0.092083 14.2904 69 77 66
-5.99516 -29.3289 8.7691 63 80 72
-3.04369 5.18273 19.9596 74 86 75
-3.83358 -6.74884 -5.57964 125 147 128
0.810287 14.2826 -6.2049 93 56 5
0.828773 5.59019 -14.6543 138 107 62
-8.1281 5.15434 -4.09728 69 81 69
-3.34579 2.90398 16.9271 108 110 94
3.22032 -22.7886 -11.4167 159 168 141
5.66099 -20.0014 -11.4359 192 188 149
3.1397 15.4641 28.9948 60 68 60
-6.48434 -15.2854 3.15065 80 95 84
1.31242 17.5521 28.9169 76 48 15
-1.91724 -4.66114 25.9211 141 162 140
-1.37133 13.48 26.2044 100 66 10
-4.76629 7.72648 10.1843 71 84 71
-2.12309 12.3595 28.9588 53 56 43
-3.47387 2.69704 -16.253 96 97 77
4.22769 -7.03643 -4.23746 66 85 75
-8.1095 -2.65128 -4.7183 57 69 60
-0.889851 -2.1461 5.68766 64 77 68
-3.84058 -25.9864 3.89645 106 120 100
-2.31879 3.7186 -17.2144 141 123 78
0.933792 -6.92553 -1.27225 72 88 77
2.82931 12.5591 33.1318 71 74 66
-4.33018 -11.274 -28.9637 58 70 61
3.02851 -6.39095 -11.9979 167 193 164
-2.37975 14.6852 -3.85029 89 63 19
-2.94366 -4.38085 -27.4816 121 110 68
-4.15217 4.20705 17.6838 90 89 61
4.17753 0.187103 -14.6113 112 134 108
-10.6485 -6.98372 -53.0008 124 136 122
-2.69976 -4.74166 27.8079 81 95 84
-7.83395 -7.961 -43.9317 58 66 58
-5.50959 -23.7673 4.07368 59 66 57
-3.80273 -3.31991 -24.525 71 71 55
-7.69999 -11.3137 2.22093 71 84 73
-1.69046 15.7411 6.56985 58 60 41
5.86642 11.0247 -7.4646 102 90 71
-0.510023 17.7921 0.294994 91 52 4
-7.22884 -4.22144 3.52896 71 85 73
-5.77813 -1.38384 -13.561 75 90 75
-9.32611 -8.03082 -47.1003 55 66 55
-8.24704 0.542114 1.78175 59 71 60
-5.23363 -15.0457 -0.244812 102 124 108
4.26804 -17.2962 -8.63673 68 82 72
0.634348 13.1823 15.9777 54 42 25
9.58632 -3.61695 -5.84821 67 80 69
-5.19979 -6.22124 -22.4274 64 75 64
8.25005 -22.6516 -9.34233 58 66 55
7.81487 -5.39517 12.5392 169 195 168
2.21619 16.8602 27.4439 86 55 23
-2.38256 3.72907 20.8277 80 92 82
8.58913 6.631 -0.495297 69 83 69
6.84316 10.3784 11.2721 106 118 99
3.73231 -10.625 -6.47112 67 81 72
-4.87687 -7.66885 -22.1246 64 75 66
3.85942 -19.6128 -11.4535 169 190 162
2.81245 -19.8038 -8.12293 48 60 49
0.492699 11.4084 36.4262 73 85 74
4.65212 10.3141 17.8015 67 48 24
0.568783 12.7168 21.5478 84 44 5
-0.561844 2.46831 19.055 72 84 73
-3.99967 -4.25283 -24.3217 63 69 59
-7.89145 -13.2882 1.69227 71 86 75
8.31047 7.52764 7.19318 60 71 61
8.83999 7.74073 -3.56445 70 80 70
5.56037 -22.6233 -7.26357 59 70 60
7.00971 12.5608 9.33452 73 82 70
4.29159 10.1545 19.3713 73 66 42
6.35443 0.841634 14.6232 74 86 74
-8.13588 1.27051 -4.75432 85 99 85
-1.9459 4.03606 11.7966 48 60 50
4.14435 -17.7132 -11.8353 158 181 156
7.59258 5.81329 14.0779 72 83 73
3.0582 14.3657 27.2012 81 90 76
-3.6429 -5.75661 -7.67883 74 88 76
-4.42861 -7.33686 -20.4961 62 75 65
0.139053 -7.0283 -16.3388 71 83 72
-6.97017 -20.8176 3.36627 75 90 79
7.56146 6.42722 9.46988 72 84 72
5.62894 14.0564 -1.65083 85 83 62
-9.29617 -27.1584 2.74524 107 127 111
3.60149 8.67137 23.456 67 78 68
0.616791 1.89266 -17.5033 104 75 41
-7.92624 -2.86783 -5.65947 84 101 88
-5.91327 -5.0352 -5.66263 109 133 119
6.66632 13.8603 1.15328 69 69 54
-4.05956 13.6433 -2.49817 79 45 3
8.92487 2.57322 10.3734 134 151 131
7.75808 12.8159 7.27214 67 78 69
-1.67455 -8.60263 -29.8446 113 119 99
-3.85142 -26.5752 6.44968 65 68 56
9.25157 2.63482 -5.93089 105 119 102
1.93206 10.2256 -10.8522 147 125 79
6.29702 1.1008 4.63037 65 76 66
1.29077 17.6688 30.5351 62 44 11
7.15701 -11.8391 -8.28725 62 76 65
-6.29652 -8.82237 3.19564 81 93 83
-5.97871 2.66201 4.51046 59 70 60
-2.39307 10.7477 12.1107 61 67 49
4.9966 2.36702 -12.8543 101 117 101
-6.62669 -8.1723 -44.7437 67 76 67
-4.57576 -5.56289 -17.0108 61 72 63
-4.80908 13.6565 -0.783928 53 37 6
-6.4064 9.70468 5.97099 87 87 64
-6.31639 1.43929 -12.1133 105 117 99
-0.740826 -9.03662 -21.0561 61 74 60
-6.69445 -2.50386 -7.8162 123 145 128
-8.54333 -7.03333 -49.5099 77 82 71
-5.09981 8.28231 9.44861 64 79 64
0.482502 -6.04906 -16.3054 72 84 74
-6.29082 -3.66358 -7.17623 113 134 115
-0.198246 -7.41201 -22.4601 76 89 76
-2.81528 -7.50776 -30.6419 92 84 62
-1.71189 15.2955 29.667 61 65 46
-8.31464 -21.2831 2.25795 74 86 77
-8.80114 -9.40095 -49.3066 110 123 107
-3.24431 13.598 -3.73432 77 53 13
-2.02592 10.2146 26.1006 82 78 49
8.34075 -6.0123 15.1781 67 80 69
7.91227 -10.5189 -8.65435 63 75 66
-4.86381 -13.1461 -0.203621 108 132 116
-2.70617 -5.15195 -28.0468 121 109 70
-1.83526 12.403 37.5288 67 68 54
-1.59619 8.70536 17.8669 53 44 22
-0.497107 15.8816 26.4253 78 47 4
9.04852 1.44689 10.2663 155 155 119
0.738777 16.303 12.3558 50 36 11
2.76644 -18.7721 -9.56229 59 69 58
-4.83294 -8.30212 -37.0423 91 91 72
-7.00377 -27.979 9.19621 70 81 70
-0.176054 6.8456 24.5442 69 77 67
-3.20476 -26.3452 5.30033 55 59 48
8.63408 4.1834 -1.4794 59 70 61
-3.08226 -1.58619 5.23479 62 73 65
1.07959 9.3521 34.5074 70 79 71
2.97093 -3.46513 -12.2621 142 166 144
-5.9252 -11.9467 -1.23154 169 202 177
9.10946 7.23447 3.74557 68 82 71
-4.2533 -7.56538 -4.2171 108 129 113
6.80153 9.54965 15.327 65 75 65
2.30718 12.9791 16.0614 69 62 41
-0.30397 -3.89317 -23.7772 131 113 72
2.99773 14.4867 28.8685 61 71 61
2.9166 15.8312 30.7442 61 69 59
-3.01005 13.1933 -5.16251 92 71 32
4.81283 6.63435 16.7076 65 77 67
4.94538 -1.15355 -11.6269 112 131 116
-4.08885 5.55157 18.6387 59 61 45
2.72931 15.6072 -2.17307 65 40 10
3.55937 12.2348 24.1283 66 80 69
7.65125 -7.6654 -10.6916 154 144 100
5.38677 -23.1 -11.8771 187 192 161
5.54488 4.62161 15.2105 70 84 72
-1.67238 12.1343 26.0264 97 71 18
-0.316862 13.7396 -7.43109 79 48 7
-2.989 8.86191 12.5737 61 58 43
6.41166 -12.1399 -11.1722 144 156 130
-1.73854 13.6436 28.4551 70 83 73
6.39147 -9.97918 14.1354 60 70 61
2.3638 14.35 23.5017 111 85 59
-0.146383 15.501 36.814 61 55 36
9.33072 -4.02995 14.1422 70 80 70
-6.15412 10.9765 -0.847879 61 76 60
-5.16008 -3.68282 -17.1289 74 88 73
-10.4577 -6.72234 -50.4497 56 65 59
-3.04165 -10.9598 -27.1254 59 72 62
6.04765 12.7742 12.7649 76 65 36
-6.83049 -5.09901 3.96363 68 81 70
-7.76446 -0.634359 -8.20693 97 117 95
-6.77723 5.92799 3.04661 64 77 66
-5.11957 -4.72466 -18.4071 62 74 62
-1.20398 -3.56237 4.97386 66 80 69
-6.74374 -5.65177 -3.80556 91 111 98
-6.67518 -10.8003 -43.5847 72 90 75
-5.15617 -3.93473 -8.59096 75 91 78
-0.503323 5.22235 -15.8395 129 93 40
0.822651 8.26746 27.028 69 78 66
7.77724 1.7023 0.814346 65 76 66
-3.62049 9.32188 -10.6952 90 81 60
1.62721 16.5367 -0.803908 102 73 33
5.67635 -16.8668 -11.5972 131 158 132
0.00428391 15.5239 12.3803 64 62 42
-2.77475 13.052 -6.57291 82 61 15
1.44163 -4.41713 -20.0031 66 80 68
-2.16647 -1.2242 5.7268 62 73 64
-2.49965 9.55963 14.147 51 40 17
-0.89481 10.0402 16.7574 52 37 5
-0.751314 -6.51521 -26.8425 98 87 61
8.84732 -7.26404 -7.58607 61 73 63
7.34913 -5.13554 -4.35504 65 79 70
3.52035 -18.1468 -11.3608 131 146 123
-3.29371 -8.8514 -3.58622 110 129 113
-6.83932 -23.7762 5.10024 64 74 67
-6.6377 8.35048 6.98415 67 80 69
0.816544 17.2575 28.2179 76 45 7
-10.0516 -26.4111 4.23237 98 118 104
7.91445 2.55559 3.64544 66 75 67
5.53081 7.70907 16.1218 65 78 67
-3.9228 5.11345 -13.5545 101 109 87
-0.373951 -8.05847 -20.4944 61 73 63
-3.41077 6.99465 17.5886 56 55 39
-4.04584 1.63376 20.012 66 78 67
-6.15289 -19.1601 3.10773 76 90 80
-1.27068 6.85278 21.6704 60 70 58
9.06421 -9.44015 13.3865 63 74 64
4.99656 15.2787 5.93238 71 54 21
2.98102 13.8549 -5.98436 112 64 4
2.96282 -23.8732 -5.60429 62 74 63
-6.25049 -11.1454 -42.0258 88 103 90
9.6864 3.32697 -3.78268 79 92 79
-1.41349 10.5527 33.6158 76 88 78
7.62381 -1.30948 -2.25631 64 77 66
2.53528 13.8968 29.9157 62 72 62
2.00985 -20.5141 -8.99797 59 72 58
-2.23052 1.09539 7.21793 61 71 61
-6.37533 -0.354937 -11.3751 71 85 74
-3.72775 4.18614 -14.4384 104 110 90
-4.86279 -1.68458 4.26452 65 77 67
-5.08322 -5.43287 4.35782 72 85 82
5.94958 -2.42684 13.1776 52 62 54
-4.37059 -25.4106 5.34541 56 60 49
-7.937 -14.5246 0.723915 60 75 65
0.774004 2.71206 17.7897 66 78 67
-4.24396 -8.61663 -3.16722 129 155 137
8.18774 -4.24343 15.1676 71 83 72
-5.62769 -24.3913 5.36689 58 66 55
-4.957 -4.42876 -19.9402 80 90 73
-9.98993 -7.09493 -49.2393 53 64 52
-3.58302 14.2198 1.44794 56 42 12
-4.68819 2.6116 -14.002 141 126 84
0.0878563 -6.90839 -25.5179 94 105 94
-5.76234 6.41374 -10.2296 134 127 93
-2.77363 11.4217 -9.47626 113 89 45
-4.75096 -10.4868 -0.943527 98 116 101
6.74874 9.35712 -8.15262 103 109 98
3.2441 10.337 28.0353 72 80 68
6.02286 0.117592 3.61398 67 80 69
-3.25373 4.72102 -15.1282 114 114 86
7.43596 2.32174 13.8647 68 81 71
0.47434 15.0938 13.6006 54 40 13
-1.06875 4.34509 -16.7982 123 95 48
-4.69059 -7.54425 -29.6911 63 70 61
7.65008 9.89194 -1.604 81 92 78
-4.17562 13.9191 -1.503 62 37 5
-1.97065 13.2031 36.3304 57 52 33
1.94712 12.5512 -7.99178 113 83 53
2.27928 6.89599 -13.3939 169 158 122
0.805809 -4.62819 -22.7234 93 104 80
-2.19015 8.71923 -12.7108 129 98 53
6.05582 -9.21589 -11.395 165 171 132
-5.18286 -8.8441 -39.4079 72 80 64
2.01275 -7.40474 -3.25349 65 80 69
-3.67551 10.7347 10.2835 68 71 58
-1.26327 8.95106 30.774 68 78 67
2.47062 17.2273 5.31057 67 59 33
1.97396 -22.2049 -10.0525 100 119 99
-5.4747 -6.32865 4.24624 77 90 79
-5.6637 1.10734 3.76424 68 81 70
0.825432 5.73562 22.1743 65 76 66
-5.59465 11.8869 3.84262 62 63 47
7.95674 -0.209131 -2.03075 60 69 66
-0.522495 17.3232 30.4584 55 36 11
-8.06347 -7.25372 -47.6392 64 70 60
-3.53418 7.40366 16.374 58 56 36
-6.04274 10.8754 2.80445 63 64 52
9.27085 -0.830498 -6.724 98 111 93
-6.32703 4.97049 6.5334 61 73 61
-5.34795 -9.39915 -27.1679 64 76 66
-1.28144 2.67602 20.4584 71 83 72
8.14215 4.18793 -7.85559 63 74 64
-5.88465 -13.6636 -0.975838 165 199 173
2.50011 13.7079 32.9554 70 82 70
2.15138 14.5315 31.364 57 67 56
3.85006 9.50286 23.4797 67 78 68
2.34942 16.0761 -0.63589 92 56 9
-7.36822 -7.61375 -46.2504 81 90 77
4.90818 8.87679 18.8596 68 79 69
9.36494 -6.70862 14.0734 71 81 69
1.19063 17.674 1.26037 92 76 38
0.341465 8.95266 35.2464 72 81 70
9.45833 -1.23849 -4.29431 66 79 69
2.90579 -0.222094 8.84959 60 73 63
-9.37728 -9.5277 -47.8825 52 67 55
6.51155 8.75403 -9.54938 102 94 71
-7.5767 5.56724 -6.11264 86 98 83
-1.94751 12.3701 11.6655 56 48 27
8.39495 1.56108 -8.37983 78 94 81
-6.71919 -13.2813 -1.09248 172 207 181
-3.28193 14.4998 -0.204317 57 39 7
8.54759 9.09903 0.85037 74 86 73
3.28625 14.1657 25.4308 62 71 60
7.91318 7.8291 8.51545 64 74 64
1.52822 18.0813 8.05704 64 57 36
-4.82808 -28.2908 8.17674 67 80 69
9.24582 -4.85922 13.164 101 116 98
-4.23483 -8.95687 1.32756 59 69 61
8.85821 5.65669 -5.43941 60 71 63
-5.19035 -18.4414 0.180092 111 137 117
-0.863712 17.7689 2.28877 58 35 9
7.06104 -3.94054 11.9588 127 149 129
4.8432 -3.52193 -11.0329 159 180 150
-5.60439 -23.2322 1.46165 91 110 92
8.95296 6.40151 -1.88197 60 73 63
-5.84363 12.3927 -0.512241 67 74 61
-4.95556 -7.34671 -32.8655 65 67 53
1.34791 12.5174 20.1711 69 40 0
-1.29328 -0.664745 23.9008 68 81 70
-4.95433 -6.18941 26.6075 69 82 69
7.89858 -2.68335 11.0655 152 173 149
0.0663681 14.1176 37.6044 69 82 69
1.29889 -24.1311 -7.24941 66 78 67
-6.63623 -8.44875 -39.6522 65 73 58
-8.42521 3.12179 -3.91411 69 83 69
7.56448 9.66036 9.05254 62 71 63
-0.034687 13.3327 14.6491 60 51 29
1.45407 18.0653 4.1931 81 69 42
-2.63618 14.7492 5.36826 55 42 16
0.49221 18.6585 5.3098 59 41 9
8.24416 2.18776 -9.89226 76 89 77
-8.80062 -7.62767 -46.5336 55 66 56
1.24564 6.71633 -13.9013 141 116 74
8.51648 11.524 6.13733 70 82 73
-0.634171 -8.11258 -27.0704 76 90 74
6.96308 -12.6599 -8.70712 60 72 62
7.29045 14.0943 6.68215 73 75 55
-5.58681 -8.58946 -33.9962 62 70 59
-0.497665 -8.72102 -19.1993 65 80 69
-0.0386162 17.4593 29.7242 71 41 3
-7.47119 -23.7564 1.06788 149 178 155
1.85744 5.94023 21.1048 68 79 69
3.0732 15.9612 29.7137 64 65 54
6.76766 7.13521 -9.99634 105 117 103
6.76256 -6.69124 13.523 114 133 109
-0.303558 18.389 6.01256 61 36 7
-5.55923 10.186 -6.87379 127 83 22
-6.81915 9.01481 -6.75951 109 116 91
7.75429 0.929178 14.0146 66 77 66
-1.11912 12.9693 -8.74408 106 72 36
-1.68015 10.1289 -11.5936 118 77 22
-7.92883 -3.24125 -1.28536 85 101 88
9.20404 4.86117 -4.21095 88 100 87
-6.89894 -15.0592 -0.601639 155 186 162
-5.3217 -2.28114 -16.0993 88 99 85
-5.70373 -9.83494 -31.1762 58 65 54
5.90739 12.7538 14.0854 62 71 56
3.19358 15.3798 26.0444 69 69 56
-1.63144 8.40875 18.7019 54 40 17
-6.71745 9.76271 2.60136 70 82 61
-8.30083 3.60176 -2.90628 62 74 63
-1.01348 14.6898 11.353 55 43 21
-0.0112896 17.0645 28.2802 68 37 6
4.16127 9.85413 22.048 82 93 80
-3.36944 -0.89464 -21.0129 83 82 63
-1.06222 4.95327 21.3112 72 90 76
-7.29009 -8.44829 -47.1932 86 95 88
0.322723 16.9267 -1.54687 69 41 3
-6.1051 10.2891 5.33495 59 69 53
0.810164 12.2376 18.723 54 33 0
-8.14665 6.27087 -0.609657 77 85 69
4.07485 -1.71927 -12.5393 111 130 114
-3.22705 9.15998 -11.5726 118 95 61
-1.07825 16.7249 -0.967395 74 49 10
-4.02588 -7.31379 27.0295 76 89 80
3.18473 -2.12943 -15.6485 65 79 66
-5.28207 -19.1218 1.85439 63 75 66
-0.14053 3.55934 19.7043 67 78 68
7.15366 0.571272 -10.4028 120 138 117
-6.96651 -14.3696 2.88737 72 85 76
-1.77469 -6.53867 -28.1938 120 105 80
1.72236 -7.67664 -12.6349 160 188 161
-3.96915 4.85017 19.1982 67 75 66
9.96213 0.629257 11.1447 110 121 101
-3.93719 -0.87925 24.125 61 63 50
2.24577 -3.72633 -13.1265 112 129 112
-9.27627 -8.39319 -50.5911 109 131 116
5.90907 1.46476 -11.4013 112 135 115
8.31366 3.28167 0.984522 68 81 69
7.88036 5.97901 11.0409 88 94 77
-3.47893 4.82593 16.2333 70 85 73
2.9982 -0.899601 7.76987 68 79 70
0.689856 -6.83998 -13.9075 102 121 101
-5.43578 -8.65554 -32.6595 60 66 56
9.29067 4.95833 -2.03307 61 71 63
-1.29042 13.7043 29.9117 68 80 57
-3.03457 6.78576 13.6663 60 67 56
-1.82683 -0.989016 25.4988 64 76 65
-7.34774 -10.0288 2.65077 71 83 72
-6.00621 10.3859 7.14306 65 75 66
-3.78378 2.64209 7.09335 55 67 58
-3.82658 0.23912 20.8697 59 64 52
6.24221 14.9378 2.68214 107 84 41
7.78667 10.2656 -4.93524 75 82 70
4.08939 10.5892 18.6143 72 47 3
-0.328474 7.14819 -14.2285 119 74 29
-7.96904 -0.596046 0.500042 66 79 68
8.419 9.03929 -4.33411 80 93 80
6.56049 11.7786 14.1568 61 69 61
8.52754 7.47081 -0.349293 57 69 57
-4.66797 9.8874 -7.88266 128 131 89
0.147156 -1.08152 6.69299 69 81 73
-6.85653 -6.8686 3.64145 75 88 77
2.0324 -23.4115 -10.4337 95 111 94
6.77797 -7.653 13.509 118 132 110
7.06016 -6.3724 -5.06883 66 75 70
9.32605 -4.45094 -7.45226 104 121 103
-1.64894 8.3291 22.3038 73 76 55
-1.03112 15.9233 33.2065 45 31 8
5.29683 12.2438 -6.40812 92 65 32
8.10722 13.0923 5.61072 65 74 65
3.51646 13.2473 23.7325 85 85 67
1.78897 2.23149 16.5164 76 88 78
1.72304 -5.94074 -0.211678 70 85 73
9.26921 3.06668 -2.20022 60 72 63
-1.04135 -0.76844 22.3339 67 78 66
-4.1481 13.808 3.0772 69 59 33
6.12735 14.5099 0.489473 83 85 61
0.438745 -8.48383 -3.55096 74 87 80
1.96213 11.4776 33.8959 77 86 78
1.85526 -21.196 -8.27867 57 68 58
3.15338 -14.6407 -8.60519 55 67 57
